-0.177832 0.401051 1.397 31 44 49
-0.173812 0.400486 1.395 31 44 49
-0.169193 0.398485 1.388 30 41 46
-0.165208 0.39792 1.386 32 42 49
-0.162165 0.399651 1.392 29 40 45
-0.158407 0.399659 1.392 31 40 45
-0.153871 0.397658 1.385 31 40 45
-0.151324 0.400824 1.396 29 40 45
-0.147766 0.401407 1.398 28 39 44
-0.14399 0.401415 1.398 30 41 46
-0.139312 0.398838 1.389 29 40 45
-0.134195 0.394826 1.375 29 40 45
-0.130671 0.395408 1.377 31 42 47
-0.126491 0.393979 1.372 29 40 45
-0.123948 0.397719 1.385 28 39 44
-0.122117 0.404044 1.407 30 41 46
-0.119745 0.408933 1.424 31 42 47
-0.116305 0.410375 1.429 31 42 47
-0.113074 0.41268 1.437 31 43 50
-0.109344 0.41326 1.439 29 41 48
-0.105383 0.412979 1.438 32 44 53
-0.100721 0.409826 1.427 33 45 55
-0.0969328 0.41012 1.428 29 42 55
-0.0932045 0.4107 1.43 32 47 62
-0.0903398 0.4153 1.446 34 48 65
-0.0864919 0.415593 1.447 38 52 69
-0.0823531 0.414449 1.443 37 52 71
-0.0780183 0.412156 1.435 34 49 68
-0.196692 0.39725 1.397 31 41 48
-0.192646 0.396691 1.395 32 42 49
-0.189829 0.398691 1.402 33 43 50
-0.186178 0.398984 1.403 28 40 47
-0.182002 0.398141 1.4 30 43 48
-0.177586 0.396728 1.395 32 43 48
-0.173821 0.396737 1.395 32 43 48
-0.169446 0.395324 1.39 31 42 47
-0.165455 0.394764 1.388 32 43 48
-0.162756 0.397332 1.397 31 40 45
-0.159212 0.39791 1.399 30 38 45
-0.154546 0.395643 1.391 33 42 47
-0.152416 0.399918 1.406 27 38 43
-0.150099 0.403908 1.42 28 39 44
-0.14544 0.401641 1.412 29 40 45
-0.140825 0.399373 1.404 28 39 44
-0.135862 0.395968 1.392 28 39 44
-0.131533 0.394268 1.386 28 38 45
-0.12742 0.393138 1.382 29 38 43
-0.124761 0.396559 1.394 28 39 44
-0.123078 0.403393 1.418 29 40 45
-0.120089 0.406245 1.428 29 40 45
-0.116394 0.406821 1.43 28 39 44
-0.112845 0.407966 1.434 30 40 47
-0.109122 0.408541 1.436 28 40 47
-0.105462 0.409401 1.439 31 43 52
-0.100939 0.406847 1.43 30 42 52
-0.0972781 0.407706 1.433 28 41 54
-0.0936663 0.40885 1.437 31 46 61
-0.0902203 0.410847 1.444 44 58 75
-0.0864972 0.411706 1.447 58 74 90
-0.0821869 0.40972 1.44 73 90 109
-0.0780775 0.408587 1.436 67 84 104
-0.0741962 0.408591 1.436 68 85 105
-0.0702659 0.408311 1.435 75 92 112
-0.0666184 0.409738 1.44 71 88 108
-0.0633793 0.41401 1.455 58 75 94
-0.0595688 0.414868 1.458 49 66 85
-0.0550552 0.410603 1.443 44 61 80
-0.0509771 0.409184 1.438 43 58 77
-0.196138 0.392368 1.393 34 44 51
-0.191965 0.391533 1.39 29 39 46
-0.189297 0.393796 1.398 32 43 48
-0.18632 0.395495 1.404 33 44 49
-0.182141 0.39466 1.401 32 42 49
-0.17785 0.393542 1.397 33 43 50
-0.174079 0.393551 1.397 29 40 45
-0.169333 0.391307 1.389 31 41 48
-0.165583 0.391316 1.389 31 41 48
-0.162648 0.393297 1.396 30 40 47
-0.159448 0.394714 1.401 31 41 48
-0.155221 0.393596 1.397 30 40 47
-0.153834 0.399803 1.419 30 40 47
-0.150213 0.400375 1.421 29 39 46
-0.145861 0.398974 1.416 29 39 46
-0.141435 0.397292 1.41 27 37 44
-0.137333 0.396454 1.407 27 37 46
-0.133343 0.395898 1.405 28 38 45
-0.12964 0.396188 1.406 28 39 44
-0.12629 0.397604 1.411 30 39 44
-0.123172 0.399866 1.419 28 39 44
-0.119759 0.401282 1.424 29 40 45
-0.116319 0.402698 1.429 28 38 45
-0.113088 0.404959 1.437 27 37 46
-0.109509 0.406093 1.441 27 39 48
-0.105615 0.406099 1.441 28 40 50
-0.101298 0.404415 1.435 32 43 56
-0.0971482 0.403293 1.431 28 41 56
-0.093672 0.40499 1.437 31 45 62
-0.0899759 0.405841 1.44 50 65 84
-0.0858449 0.404719 1.436 64 83 103
-0.0821349 0.40557 1.439 82 103 125
-0.0783542 0.406139 1.441 90 111 133
-0.0745625 0.406707 1.443 90 113 136
-0.0705151 0.405866 1.44 87 110 133
-0.0671314 0.408971 1.451 77 100 123
-0.0633833 0.410102 1.455 71 94 116
-0.0594908 0.410388 1.456 64 85 107
-0.0550586 0.406727 1.443 53 72 94
-0.0510866 0.406167 1.441 46 63 82
-0.0472236 0.406452 1.442 42 59 78
-0.0435654 0.40871 1.45 45 61 77
-0.196852 0.390018 1.398 38 48 55
-0.192527 0.388912 1.394 38 48 55
-0.189171 0.389759 1.397 35 46 51
-0.186197 0.391443 1.403 39 50 55
-0.18202 0.390615 1.4 47 57 64
-0.177859 0.389788 1.397 47 57 66
-0.174088 0.389797 1.397 41 53 62
-0.169342 0.387574 1.389 43 55 64
-0.165473 0.387304 1.388 43 55 64
-0.162308 0.388708 1.393 44 56 65
-0.159457 0.390949 1.401 44 56 65
-0.155452 0.3904 1.399 40 52 61
-0.154059 0.396548 1.421 40 52 59
-0.149587 0.394882 1.415 41 51 60
-0.145045 0.392937 1.408 31 43 52
-0.140841 0.391828 1.404 34 44 53
-0.137732 0.39379 1.411 34 44 53
-0.134205 0.394635 1.414 29 41 50
-0.131308 0.397434 1.424 28 40 49
-0.12764 0.398 1.426 31 41 50
-0.124221 0.399402 1.431 30 40 47
-0.120271 0.399131 1.43 28 38 45
-0.116652 0.399975 1.433 27 37 46
-0.113094 0.401098 1.437 30 39 50
-0.109667 0.40278 1.443 29 41 51
-0.106061 0.403903 1.447 28 40 50
-0.101798 0.402514 1.442 29 42 55
-0.0976972 0.401682 1.439 32 45 60
-0.0935474 0.400572 1.435 38 52 69
-0.089419 0.399461 1.431 56 71 90
-0.0856708 0.400024 1.433 68 89 111
-0.082197 0.401984 1.44 82 105 127
-0.0789572 0.405338 1.452 93 116 139
-0.0746705 0.403389 1.445 104 128 154
-0.0706174 0.402556 1.442 106 130 156
-0.0667655 0.40284 1.443 95 119 145
-0.0630823 0.40424 1.448 82 107 130
-0.0592902 0.405081 1.451 81 101 125
-0.0554437 0.405643 1.453 73 94 116
-0.0513735 0.40453 1.449 59 78 98
-0.0474558 0.404533 1.449 50 67 87
-0.0436282 0.405373 1.452 47 64 83
-0.039675 0.405097 1.451 43 59 75
-0.0356531 0.403983 1.447 44 60 76
-0.197707 0.387918 1.404 38 50 59
-0.193642 0.387376 1.402 38 50 59
-0.190129 0.387938 1.404 37 49 58
-0.187136 0.389606 1.41 45 57 66
-0.18385 0.390721 1.414 52 64 73
-0.180161 0.391007 1.415 55 67 77
-0.175593 0.389358 1.409 58 72 82
-0.170204 0.385775 1.396 57 71 81
-0.166197 0.385232 1.394 58 74 84
-0.1622 0.384688 1.392 58 74 84
-0.159466 0.387184 1.401 58 73 86
-0.154905 0.385258 1.394 55 70 83
-0.154285 0.393282 1.423 56 71 84
-0.149384 0.390527 1.413 59 73 83
-0.144538 0.387771 1.403 49 62 75
-0.140447 0.38695 1.4 50 63 76
-0.137447 0.389169 1.408 52 65 78
-0.134118 0.390559 1.413 48 63 76
-0.130946 0.392502 1.42 45 60 73
-0.127379 0.393339 1.423 45 58 71
-0.123881 0.394452 1.427 41 54 67
-0.120194 0.395012 1.429 38 51 64
-0.116903 0.396954 1.436 34 47 62
-0.11381 0.399725 1.446 33 46 61
-0.110282 0.401114 1.451 31 44 59
-0.106288 0.400845 1.45 31 44 59
-0.101875 0.398916 1.443 31 45 62
-0.0979069 0.398646 1.442 39 53 70
-0.0938791 0.398099 1.44 47 62 81
-0.0897995 0.397275 1.437 62 79 99
-0.085437 0.395069 1.429 73 94 116
-0.0822593 0.398392 1.441 87 110 133
-0.0790165 0.401714 1.453 96 121 144
-0.075037 0.401443 1.452 106 130 156
-0.0708178 0.399788 1.446 110 134 160
-0.0671862 0.401452 1.452 110 134 162
-0.063217 0.401179 1.451 102 126 152
-0.0593757 0.401736 1.453 90 112 138
-0.0554091 0.401463 1.452 84 104 128
-0.0517313 0.403402 1.459 78 99 121
-0.0476554 0.402299 1.455 66 85 107
-0.0440517 0.405344 1.466 55 74 94
-0.0399783 0.404241 1.462 50 67 86
-0.0358279 0.402031 1.454 47 63 79
-0.0317426 0.400098 1.447 43 59 75
-0.0281182 0.404247 1.462 44 58 75
-0.198844 0.386333 1.412 40 52 61
-0.195724 0.387711 1.417 39 51 60
-0.191629 0.387174 1.415 37 49 58
-0.188208 0.388005 1.418 39 51 60
-0.1849 0.389109 1.422 43 55 64
-0.185263 0.398149 1.455 43 55 64
-0.179092 0.393233 1.437 52 64 74
-0.173018 0.388317 1.419 57 70 83
-0.167398 0.384222 1.404 63 78 91
-0.162908 0.382589 1.398 65 80 93
-0.158906 0.38205 1.396 64 79 92
-0.155247 0.382333 1.397 63 78 91
-0.154944 0.3911 1.429 62 77 90
-0.14971 0.38755 1.416 64 79 92
-0.144958 0.385096 1.407 60 75 88
-0.140757 0.384009 1.403 61 76 91
-0.137455 0.385386 1.408 62 77 92
-0.133746 0.385667 1.409 61 75 92
-0.130493 0.387318 1.415 64 78 95
-0.127744 0.39061 1.427 62 76 93
-0.124497 0.392534 1.434 60 74 91
-0.120958 0.393636 1.438 58 72 89
-0.117235 0.394191 1.44 57 71 88
-0.114446 0.39803 1.454 52 66 83
-0.110289 0.397216 1.451 53 67 84
-0.106514 0.39777 1.453 51 65 82
-0.102234 0.396408 1.448 49 63 80
-0.0986599 0.397783 1.453 50 64 81
-0.0944717 0.396694 1.449 56 72 88
-0.0907425 0.397521 1.452 63 80 99
-0.0865784 0.396431 1.448 74 95 115
-0.0830066 0.398079 1.454 88 111 133
-0.0793478 0.399453 1.459 98 123 146
-0.0750934 0.397815 1.453 106 130 156
-0.0710672 0.397273 1.451 110 134 162
-0.0674681 0.399194 1.458 113 137 165
-0.0634825 0.398924 1.457 112 136 164
-0.0596247 0.399475 1.459 110 132 158
-0.0555653 0.398658 1.456 98 120 146
-0.0517347 0.399483 1.459 87 107 131
-0.0476912 0.398664 1.456 84 105 127
-0.0438743 0.399763 1.46 79 98 120
-0.0400082 0.400587 1.463 64 83 103
-0.0359534 0.399494 1.459 55 72 91
-0.0318982 0.398127 1.454 52 68 84
-0.02812 0.40032 1.462 46 60 77
-0.0244804 0.405524 1.481 43 57 74
-0.0203646 0.403335 1.473 43 57 74
-0.196839 0.386069 1.425 41 55 65
-0.193806 0.387705 1.431 38 52 62
-0.190209 0.388257 1.433 38 50 57
-0.189461 0.39477 1.457 41 51 58
-0.187693 0.399386 1.474 35 46 51
-0.181595 0.39479 1.457 33 43 50
-0.174857 0.388567 1.434 45 57 66
-0.169196 0.384512 1.419 53 67 77
-0.163267 0.379644 1.401 62 77 90
-0.158459 0.377214 1.392 61 76 89
-0.155923 0.380204 1.403 62 77 90
-0.154627 0.386446 1.426 63 78 91
-0.150565 0.385913 1.424 60 75 88
-0.145894 0.383753 1.416 63 78 93
-0.141066 0.381052 1.406 60 76 91
-0.137561 0.381873 1.409 63 79 94
-0.134229 0.383236 1.414 73 89 105
-0.130501 0.383515 1.415 76 92 108
-0.127842 0.387046 1.428 74 91 110
-0.124244 0.387867 1.431 75 92 111
-0.121218 0.390585 1.441 73 88 108
-0.117731 0.391948 1.446 75 90 110
-0.114689 0.394936 1.457 73 88 108
-0.1106 0.394401 1.455 71 86 106
-0.106081 0.392239 1.447 75 89 109
-0.102311 0.392788 1.449 70 85 105
-0.0983944 0.392794 1.449 68 83 102
-0.0946733 0.393613 1.452 68 83 102
-0.0911232 0.395246 1.458 72 91 111
-0.0878396 0.398233 1.469 82 103 123
-0.0838111 0.397968 1.468 89 112 134
-0.0794617 0.396075 1.461 94 119 142
-0.0752532 0.394725 1.456 98 122 148
-0.0710717 0.393374 1.451 103 127 153
-0.0675187 0.395547 1.459 110 134 160
-0.0638787 0.397449 1.466 113 137 163
-0.060119 0.398809 1.471 119 143 169
-0.0558742 0.396915 1.464 119 143 169
-0.0519508 0.397189 1.465 115 137 163
-0.0479564 0.396922 1.464 103 125 151
-0.0440875 0.397738 1.467 95 115 139
-0.0401749 0.398283 1.469 90 111 133
-0.0362761 0.399099 1.472 79 98 120
-0.0321416 0.397203 1.465 66 83 103
-0.0283335 0.399374 1.473 58 73 92
-0.0245812 0.403172 1.487 57 73 89
-0.020518 0.40236 1.484 51 65 82
-0.0164489 0.401005 1.479 47 62 77
-0.0125414 0.403989 1.49 44 59 74
-0.19754 0.383579 1.43 45 59 69
-0.193545 0.383321 1.429 48 60 69
-0.192608 0.389233 1.451 48 58 65
-0.190902 0.393804 1.468 43 54 59
-0.188085 0.396228 1.477 31 42 47
-0.180732 0.388995 1.45 32 41 46
-0.175964 0.387127 1.443 31 41 48
-0.170279 0.383113 1.428 41 51 60
-0.163393 0.376147 1.402 53 65 75
-0.157785 0.371863 1.386 57 73 83
-0.155042 0.374287 1.395 60 75 88
-0.154311 0.381808 1.423 60 75 88
-0.149833 0.380207 1.417 62 77 90
-0.14549 0.378874 1.412 65 80 95
-0.140773 0.376468 1.403 62 78 93
-0.136788 0.375939 1.401 63 79 94
-0.133382 0.377021 1.405 67 83 99
-0.129955 0.378102 1.409 79 95 111
-0.127402 0.381867 1.423 83 100 119
-0.124512 0.384826 1.434 85 102 121
-0.121478 0.387518 1.444 86 103 123
-0.118064 0.389135 1.45 88 103 123
-0.114539 0.390484 1.455 88 103 123
-0.110226 0.389149 1.45 87 102 122
-0.106381 0.389424 1.451 86 101 121
-0.102317 0.388894 1.449 86 101 121
-0.0984006 0.3889 1.449 84 99 119
-0.0944836 0.388907 1.449 82 99 119
-0.0913165 0.392133 1.461 85 104 124
-0.0882638 0.396165 1.476 88 107 129
-0.0845016 0.397244 1.48 87 110 133
-0.0799563 0.394565 1.47 88 111 134
-0.0756716 0.39296 1.464 93 117 143
-0.0712233 0.39028 1.454 99 123 149
-0.067847 0.393506 1.466 106 130 156
-0.0642315 0.395658 1.474 114 138 164
-0.0606543 0.398346 1.484 121 145 171
-0.0563359 0.396202 1.476 126 150 176
-0.0523798 0.396474 1.477 128 152 178
-0.0483854 0.396478 1.477 122 146 172
-0.0443909 0.396481 1.477 116 138 164
-0.0404237 0.396752 1.478 106 126 150
-0.0364018 0.396486 1.477 91 111 135
-0.0324509 0.397025 1.479 87 106 126
-0.0285085 0.397832 1.482 68 85 105
-0.0246655 0.400519 1.492 65 80 99
-0.0205609 0.399178 1.487 58 74 90
-0.0165834 0.400253 1.491 52 68 84
-0.195723 0.383728 1.445 56 70 80
-0.190897 0.3981 1.499 34 43 48
-0.180992 0.385628 1.452 31 37 43
-0.176218 0.383779 1.445 31 37 43
-0.169811 0.378212 1.424 31 37 43
-0.162819 0.37105 1.397 41 49 56
-0.157567 0.367606 1.384 45 57 64
-0.155385 0.371334 1.398 61 73 82
-0.154103 0.377452 1.421 64 78 87
-0.149842 0.376398 1.417 61 77 87
-0.144984 0.373751 1.407 63 78 91
-0.140581 0.372165 1.401 64 80 95
-0.136893 0.372439 1.402 63 79 94
-0.13396 0.374838 1.411 67 83 99
-0.130517 0.375909 1.415 77 93 109
-0.127768 0.379105 1.427 86 102 118
-0.124172 0.37991 1.43 93 108 127
-0.120981 0.382042 1.438 96 113 133
-0.11799 0.384972 1.449 96 113 133
-0.114389 0.386042 1.453 95 111 134
-0.110613 0.386581 1.455 97 115 139
-0.106094 0.384462 1.447 99 115 139
-0.103242 0.388454 1.462 94 112 136
-0.0985427 0.385538 1.451 97 115 139
-0.0949461 0.386872 1.456 93 111 135
-0.0914474 0.388738 1.463 97 115 139
-0.0879106 0.390604 1.47 99 119 143
-0.0841645 0.391672 1.474 91 113 139
-0.0800158 0.390881 1.471 90 112 138
-0.07609 0.391151 1.472 91 113 139
-0.0720117 0.390625 1.47 94 116 142
-0.0681754 0.391427 1.473 98 122 148
-0.0642792 0.391962 1.475 110 134 160
-0.0606582 0.394358 1.484 119 143 169
-0.0566449 0.394362 1.484 127 151 179
-0.0527733 0.395429 1.488 130 154 182
-0.0489783 0.397292 1.495 133 157 183
-0.0447545 0.395701 1.489 133 157 183
-0.0406999 0.395438 1.488 122 144 170
-0.0366013 0.394643 1.485 114 134 158
-0.0326945 0.395974 1.49 107 126 148
-0.0287412 0.397039 1.494 106 125 147
-0.0247828 0.39837 1.499 105 122 142
-0.184367 0.388823 1.479 30 37 40
-0.161896 0.365191 1.389 32 38 44
-0.157006 0.362571 1.379 34 45 50
-0.154282 0.364946 1.388 43 54 59
-0.15357 0.372317 1.416 46 58 65
-0.149216 0.371012 1.411 59 75 84
-0.144374 0.368391 1.401 67 82 95
-0.140288 0.367611 1.398 70 85 100
-0.136706 0.368145 1.4 68 84 99
-0.133493 0.369731 1.406 72 88 104
-0.130432 0.371843 1.414 77 93 109
-0.127417 0.374217 1.423 89 105 121
-0.12418 0.376066 1.43 95 111 127
-0.120651 0.377125 1.434 102 119 138
-0.117509 0.3795 1.443 108 125 145
-0.114396 0.382137 1.453 105 124 146
-0.110544 0.382407 1.454 106 124 148
-0.107054 0.383992 1.46 109 127 151
-0.103884 0.386892 1.471 107 125 149
-0.100111 0.387687 1.474 106 124 148
-0.0956695 0.385852 1.467 104 122 146
-0.0920158 0.387174 1.472 103 123 147
-0.0885741 0.389547 1.481 107 127 153
-0.0847981 0.390604 1.485 100 122 148
-0.080565 0.389558 1.481 91 113 139
-0.0768704 0.391141 1.487 89 111 137
-0.0726532 0.390094 1.483 91 113 139
-0.068689 0.390361 1.484 98 120 146
-0.0643706 0.388524 1.477 108 130 156
-0.0606214 0.390107 1.483 116 140 166
-0.0564959 0.389321 1.48 120 144 170
-0.0529187 0.392482 1.492 128 152 178
-0.048916 0.392748 1.493 132 156 182
-0.0448777 0.392751 1.493 136 160 186
-0.04073 0.391702 1.489 142 166 192
-0.0367024 0.391705 1.489 139 164 187
-0.0328941 0.394338 1.499 133 156 179
0.0563394 0.368011 1.399 40 49 52
-0.161323 0.360155 1.384 31 37 39
-0.156674 0.358083 1.376 29 36 39
-0.154069 0.360694 1.386 31 40 45
-0.153471 0.36825 1.415 35 44 49
-0.149014 0.366698 1.409 44 57 62
-0.144177 0.364104 1.399 57 71 80
-0.140598 0.364633 1.401 70 86 95
-0.137594 0.366724 1.409 75 91 101
-0.134926 0.369855 1.421 79 94 107
-0.131916 0.372206 1.43 88 104 119
-0.129485 0.376379 1.446 93 109 124
-0.125664 0.376647 1.447 97 115 131
-0.121669 0.376394 1.446 106 124 140
-0.11776 0.376402 1.446 111 131 149
-0.114875 0.379793 1.459 120 139 159
-0.111996 0.383445 1.473 117 136 158
-0.108527 0.385274 1.48 114 134 158
-0.105162 0.387624 1.489 113 133 157
-0.10134 0.388411 1.492 115 135 159
-0.0973714 0.388678 1.493 114 134 158
-0.0930845 0.387643 1.489 115 135 159
-0.0890583 0.387649 1.489 119 139 165
-0.0850891 0.387915 1.49 117 139 165
-0.0813863 0.389482 1.496 106 128 156
-0.0772373 0.388967 1.494 96 118 144
-0.072413 0.384806 1.478 93 115 141
-0.0684158 0.384811 1.478 93 115 141
-0.0642005 0.383513 1.473 102 124 150
-0.060748 0.386902 1.486 112 136 162
-0.0566906 0.386645 1.485 120 144 170
-0.0531705 0.390294 1.499 126 150 176
-0.0409242 0.389523 1.496 143 168 191
0.054853 0.354618 1.362 38 49 54
-0.155658 0.352065 1.367 27 34 36
-0.154412 0.35774 1.389 28 35 38
-0.153697 0.364961 1.417 29 36 39
-0.149128 0.363167 1.41 29 40 45
-0.144391 0.360858 1.401 35 48 53
-0.140606 0.360867 1.401 48 63 69
-0.1377 0.363193 1.41 56 71 77
-0.135219 0.366808 1.424 68 84 93
-0.133954 0.374029 1.452 80 96 106
-0.13397 0.385371 1.496 84 99 112
-0.130101 0.385895 1.498 91 108 120
-0.124369 0.380751 1.478 99 117 132
-0.118094 0.373545 1.45 113 131 147
-0.11504 0.376386 1.461 117 137 153
-0.113676 0.385153 1.495 125 145 163
-0.0773458 0.385466 1.496 115 137 163
-0.0727608 0.382637 1.485 103 125 153
-0.0686055 0.381868 1.482 104 126 152
-0.064815 0.383161 1.487 104 126 152
-0.0409543 0.385759 1.497 142 167 190
-0.152086 0.348653 1.368 27 33 35
-0.153597 0.360896 1.416 28 34 36
-0.149666 0.36065 1.415 29 36 39
-0.145122 0.358875 1.408 28 37 40
-0.141016 0.358119 1.405 31 42 47
-0.137903 0.359912 1.412 39 52 57
-0.136177 0.365528 1.434 47 62 67
-0.136084 0.375988 1.475 54 69 74
-0.119241 0.373216 1.464 84 101 113
-0.115835 0.375008 1.471 98 116 131
-0.152847 0.355323 1.409 26 33 32
-0.14904 0.355332 1.409 27 34 33
-0.144821 0.354332 1.405 27 34 33
-0.140824 0.353837 1.403 28 36 35
-0.137033 0.353845 1.403 29 36 38
-0.135805 0.360663 1.43 30 39 41
-0.137108 0.374796 1.486 30 39 41
-0.164741 0.344511 1.381 27 33 35
-0.161011 0.34452 1.381 27 33 35
-0.155106 0.348032 1.395 23 30 29
-0.152748 0.351284 1.408 24 31 30
-0.148309 0.349796 1.402 24 31 30
-0.144418 0.349556 1.401 26 33 32
-0.140632 0.349565 1.401 27 34 33
-0.136748 0.349324 1.4 25 32 31
-0.134009 0.352077 1.411 26 33 32
-0.136932 0.370301 1.484 27 34 33
-0.168969 0.341773 1.385 28 34 36
-0.16654 0.344498 1.396 26 32 34
-0.163352 0.345741 1.401 26 33 32
-0.158884 0.34427 1.395 26 33 32
-0.156339 0.346994 1.406 25 32 31
-0.152974 0.347991 1.41 23 30 29
-0.148106 0.345532 1.4 23 30 29
-0.143911 0.344554 1.396 23 30 29
-0.139737 0.343575 1.392 24 31 30
-0.136464 0.344818 1.397 24 30 32
-0.134588 0.349763 1.417 26 32 34
-0.132603 0.354708 1.437 24 30 32
-0.131854 0.363356 1.472 26 32 34
-0.171663 0.343417 1.407 25 32 31
-0.166788 0.341231 1.398 27 34 33
-0.163245 0.341729 1.4 26 33 32
-0.158552 0.339785 1.392 26 33 32
-0.154458 0.339063 1.389 25 32 31
-0.152766 0.34371 1.408 24 31 30
-0.148433 0.342499 1.403 24 31 30
-0.144332 0.341775 1.4 23 30 29
-0.139947 0.340319 1.394 20 27 26
-0.136374 0.340816 1.396 22 29 28
-0.134216 0.344975 1.413 24 30 32
-0.133258 0.352552 1.444 25 31 33
-0.130787 0.356467 1.46 27 34 33
-0.128752 0.361846 1.482 28 35 34
-0.181694 0.344198 1.426 26 33 32
-0.177967 0.344449 1.427 24 31 30
-0.174845 0.345908 1.433 27 31 31
-0.167395 0.338677 1.403 26 30 30
-0.162672 0.336755 1.395 26 30 30
-0.158106 0.335075 1.388 28 32 32
-0.154467 0.335326 1.389 24 31 28
-0.152667 0.339681 1.407 25 32 29
-0.148865 0.33969 1.407 23 30 27
-0.144754 0.338975 1.404 25 32 29
-0.140457 0.337776 1.399 24 31 30
-0.13609 0.336336 1.393 23 30 29
-0.13261 0.337069 1.396 23 30 29
-0.13142 0.343838 1.424 26 33 32
-0.130437 0.351573 1.456 28 35 32
-0.12876 0.35786 1.482 30 37 34
-0.125595 0.360283 1.492 32 39 35
-0.12205 0.361739 1.498 37 44 40
-0.192461 0.345829 1.449 24 31 28
-0.191931 0.352045 1.475 26 33 30
-0.190114 0.356114 1.492 26 33 30
-0.181345 0.347055 1.454 24 31 28
-0.174733 0.341814 1.432 27 31 31
-0.16645 0.332992 1.395 25 30 27
-0.161282 0.330137 1.383 25 29 29
-0.157546 0.330147 1.383 27 31 31
-0.154588 0.331828 1.39 26 31 28
-0.152351 0.335179 1.404 24 31 28
-0.148874 0.335904 1.407 21 28 25
-0.144969 0.335675 1.406 24 31 28
-0.140968 0.335206 1.404 23 30 27
-0.136489 0.333544 1.397 26 33 30
-0.132808 0.333791 1.398 24 31 28
-0.130967 0.338813 1.419 27 34 31
-0.129729 0.345746 1.448 28 35 32
-0.128247 0.35244 1.476 32 39 36
-0.125435 0.355791 1.49 34 41 37
-0.0894045 0.356809 1.494 79 85 88
-0.189361 0.350683 1.486 23 30 27
-0.173157 0.334892 1.419 26 30 30
-0.165028 0.326406 1.383 25 29 29
-0.160942 0.325708 1.38 23 30 29
-0.157328 0.325954 1.381 24 31 28
-0.15482 0.328559 1.392 23 30 27
-0.152252 0.331165 1.403 22 29 25
-0.148672 0.331647 1.405 24 31 27
-0.144875 0.331656 1.405 24 31 27
-0.141178 0.331901 1.406 22 27 23
-0.137279 0.331673 1.405 22 29 25
-0.133671 0.332154 1.407 30 35 31
-0.131252 0.335703 1.422 27 34 30
-0.129827 0.342086 1.449 30 37 33
-0.128081 0.347996 1.474 32 37 33
-0.125274 0.35131 1.488 36 41 37
-0.1987 0.341984 1.466 23 30 27
-0.192214 0.344573 1.477 23 30 27
-0.187842 0.343884 1.474 26 33 32
-0.180119 0.336896 1.444 25 32 31
-0.170971 0.326874 1.401 26 30 30
-0.164442 0.321518 1.378 25 30 27
-0.160135 0.320361 1.373 26 31 28
-0.156768 0.32107 1.376 24 29 26
-0.153939 0.322947 1.384 24 29 26
-0.151719 0.326223 1.398 22 29 25
-0.147835 0.325999 1.397 23 30 26
-0.143853 0.325541 1.395 25 30 26
-0.140584 0.326717 1.4 25 30 26
-0.137777 0.329059 1.41 28 33 29
-0.13425 0.329768 1.413 28 33 29
-0.131814 0.333277 1.428 30 35 31
-0.130193 0.33912 1.453 31 36 32
-0.128263 0.344497 1.476 30 35 31
-0.125367 0.347539 1.489 34 39 35
-0.190663 0.337831 1.465 21 28 27
-0.187854 0.339917 1.474 25 32 31
-0.180005 0.332779 1.443 30 34 34
-0.170615 0.322412 1.398 32 37 34
-0.164929 0.318732 1.382 31 36 33
-0.160145 0.316666 1.373 28 33 29
-0.157461 0.318751 1.382 28 33 29
-0.154616 0.320606 1.39 27 32 28
-0.152162 0.323383 1.402 26 31 27
-0.14795 0.32247 1.398 26 31 27
-0.143449 0.320864 1.391 27 32 28
-0.13999 0.321565 1.394 29 34 30
-0.137688 0.325034 1.409 27 32 28
-0.133973 0.325273 1.41 28 33 29
-0.131269 0.32805 1.422 30 35 31
-0.129843 0.334287 1.449 33 36 32
-0.128967 0.34237 1.484 34 37 33
-0.125375 0.343532 1.489 38 41 37
-0.190674 0.333887 1.465 22 29 28
-0.188119 0.336405 1.476 26 33 32
-0.178643 0.326388 1.432 33 37 37
-0.170259 0.317965 1.395 36 41 38
-0.165177 0.315467 1.384 38 43 39
-0.160621 0.313882 1.377 36 41 37
-0.158268 0.316627 1.389 32 37 33
-0.154959 0.317548 1.393 32 37 33
-0.151846 0.318925 1.399 31 36 32
-0.147959 0.318707 1.398 30 35 31
-0.143664 0.317576 1.393 29 35 28
-0.139798 0.317357 1.392 29 34 30
-0.137599 0.321013 1.408 29 34 30
-0.133317 0.319882 1.403 29 34 30
-0.130354 0.321942 1.412 33 36 32
-0.130389 0.331755 1.455 35 38 34
-0.129062 0.338603 1.485 35 38 34
-0.125467 0.339752 1.49 38 41 37
-0.191597 0.33152 1.472 21 28 27
-0.187748 0.331756 1.473 26 33 32
-0.177032 0.319605 1.419 35 39 39
-0.168927 0.311732 1.384 37 42 39
-0.165665 0.312643 1.388 40 45 42
-0.161564 0.311977 1.385 38 43 40
-0.159759 0.315816 1.402 38 43 39
-0.155859 0.3156 1.401 37 42 38
-0.152289 0.31606 1.403 37 41 34
-0.148497 0.31607 1.403 37 41 34
-0.144498 0.315628 1.401 37 41 34
-0.14061 0.315412 1.4 35 39 32
-0.137412 0.316772 1.406 35 39 32
-0.133325 0.316105 1.403 36 40 33
-0.130085 0.317465 1.409 34 38 31
-0.131921 0.331668 1.472 33 37 30
-0.130026 0.337084 1.496 36 40 33
-0.190697 0.325999 1.465 21 28 27
-0.186994 0.326455 1.467 25 32 31
-0.17592 0.313781 1.41 42 49 48
-0.167716 0.30578 1.374 43 47 47
-0.165078 0.307793 1.383 40 45 42
-0.161691 0.30847 1.386 42 47 44
-0.160338 0.313154 1.407 42 47 43
-0.15687 0.313832 1.41 46 49 45
-0.15295 0.313618 1.409 45 49 42
-0.148612 0.312515 1.404 42 46 39
-0.144714 0.312301 1.403 42 46 39
-0.140921 0.31231 1.403 41 45 38
-0.137616 0.313432 1.408 41 45 38
-0.133239 0.312105 1.402 38 42 35
-0.13074 0.31523 1.416 38 42 35
-0.133274 0.331045 1.487 38 42 35
-0.17593 0.309985 1.41 33 39 41
-0.167238 0.301201 1.37 49 56 55
-0.164252 0.30253 1.376 50 54 54
-0.160417 0.30232 1.375 44 49 46
-0.160234 0.309146 1.406 45 50 47
-0.157435 0.311134 1.415 48 51 47
-0.153394 0.310704 1.413 49 52 48
-0.148833 0.309174 1.406 46 50 43
-0.144619 0.308304 1.402 48 52 45
-0.140528 0.307653 1.399 47 48 42
-0.137038 0.308321 1.402 45 49 42
-0.133342 0.30855 1.403 46 47 41
-0.130564 0.310977 1.414 42 43 37
-0.132655 0.325501 1.48 42 43 37
-0.130217 0.329468 1.498 43 44 38
-0.17644 0.307056 1.414 30 34 34
-0.166393 0.295991 1.363 40 44 44
-0.163426 0.297304 1.369 53 57 57
-0.159727 0.297314 1.369 58 63 60
-0.159218 0.303405 1.397 50 55 52
-0.156666 0.305803 1.408 47 52 49
-0.152643 0.305378 1.406 49 52 48
-0.148525 0.304736 1.403 52 56 49
-0.143906 0.303007 1.395 53 54 48
-0.139833 0.302365 1.392 55 56 50
-0.137047 0.304546 1.402 54 55 49
-0.133445 0.304989 1.404 54 55 49
-0.130757 0.307604 1.416 50 49 43
-0.128988 0.312608 1.439 49 48 42
-0.129964 0.324782 1.495 48 47 41
-0.176076 0.302604 1.411 32 36 38
-0.166891 0.293178 1.367 35 39 39
-0.163675 0.294046 1.371 41 45 45
-0.15962 0.293412 1.368 52 57 54
-0.159228 0.299642 1.397 61 66 63
-0.156342 0.301368 1.405 58 63 60
-0.152544 0.301377 1.405 50 55 51
-0.147793 0.299456 1.396 51 54 50
-0.143399 0.298178 1.39 54 55 49
-0.13944 0.297757 1.388 57 58 52
-0.136762 0.300126 1.399 58 59 53
-0.133074 0.300349 1.4 57 56 50
-0.130395 0.302932 1.412 56 55 49
-0.130252 0.311736 1.453 57 56 50
-0.174963 0.296898 1.402 31 35 37
-0.166779 0.289284 1.366 35 39 39
-0.164162 0.2912 1.375 35 42 41
-0.160096 0.290574 1.372 42 49 46
-0.159921 0.29715 1.403 50 57 54
-0.157909 0.300548 1.419 58 65 62
-0.15277 0.298016 1.407 59 64 60
-0.147378 0.294848 1.392 52 57 53
-0.143305 0.294222 1.389 57 61 54
-0.139147 0.293383 1.385 57 61 54
-0.136966 0.296781 1.401 60 61 55
-0.132892 0.296154 1.398 64 64 56
-0.13105 0.300611 1.419 64 64 56
-0.131425 0.310576 1.466 63 63 55
-0.176097 0.295002 1.411 29 33 33
-0.167644 0.287068 1.373 35 39 39
-0.165366 0.289587 1.385 34 41 40
-0.161156 0.28876 1.381 36 43 40
-0.160729 0.294834 1.41 42 49 46
-0.15803 0.296934 1.42 47 54 51
-0.153106 0.294853 1.41 56 63 59
-0.147493 0.291307 1.393 70 75 71
-0.143211 0.29027 1.388 59 63 56
-0.139156 0.289652 1.385 60 64 57
-0.136486 0.291961 1.396 62 63 57
-0.13252 0.291551 1.394 64 66 58
-0.131705 0.298252 1.426 67 67 59
-0.129461 0.302025 1.444 67 67 59
-0.17723 0.293058 1.42 23 29 31
-0.167532 0.283162 1.372 28 35 34
-0.165973 0.286887 1.39 31 38 37
-0.161166 0.285039 1.381 35 42 39
-0.160283 0.290209 1.406 37 44 41
-0.157706 0.292489 1.417 40 47 44
-0.152463 0.289815 1.404 51 58 54
-0.147291 0.287141 1.391 63 70 66
-0.143013 0.286118 1.386 72 77 73
-0.138863 0.285301 1.382 70 73 69
-0.136299 0.287786 1.394 62 66 59
-0.132623 0.288001 1.395 65 66 60
-0.131806 0.294616 1.427 70 69 63
-0.12947 0.298134 1.444 70 70 62
-0.177366 0.289435 1.421 25 29 29
-0.167542 0.279465 1.372 26 33 32
-0.166222 0.283549 1.392 26 33 30
-0.161059 0.281114 1.38 29 36 33
-0.159152 0.284383 1.396 33 40 37
-0.156937 0.287245 1.41 40 47 44
-0.151387 0.283994 1.394 41 48 44
-0.1473 0.283392 1.391 49 56 52
-0.142816 0.281975 1.384 61 66 63
-0.139475 0.282799 1.388 73 78 74
-0.136307 0.28403 1.394 74 77 73
-0.132917 0.284853 1.398 71 75 68
-0.131814 0.290771 1.427 69 70 64
-0.130285 0.296077 1.453 67 68 62
-0.176627 0.2844 1.415 25 29 29
-0.166819 0.274561 1.366 24 31 30
-0.164799 0.277385 1.38 24 31 28
-0.160018 0.275586 1.371 25 32 29
-0.155628 0.274389 1.365 27 34 31
-0.155722 0.281233 1.399 30 37 34
-0.150853 0.279232 1.389 34 41 38
-0.146885 0.278839 1.387 41 46 43
-0.142515 0.277642 1.381 49 54 51
-0.139182 0.278455 1.385 55 60 57
-0.136316 0.280273 1.394 70 73 70
-0.132735 0.280683 1.396 73 76 73
-0.131545 0.286321 1.424 76 79 75
-0.130562 0.292764 1.456 72 73 67
-0.178135 0.282965 1.427 23 27 27
-0.167561 0.272069 1.372 25 29 29
-0.165047 0.274062 1.382 25 29 29
-0.159911 0.271692 1.37 26 33 30
-0.155865 0.271106 1.367 23 30 27
-0.154729 0.275677 1.39 24 31 28
-0.150753 0.27529 1.388 30 37 34
-0.147212 0.275695 1.39 33 40 37
-0.142627 0.274118 1.382 37 42 39
-0.139592 0.275515 1.389 42 47 44
-0.136618 0.27711 1.397 50 55 52
-0.133124 0.277713 1.4 62 65 62
-0.131646 0.282681 1.425 67 70 66
-0.131915 0.291814 1.471 69 73 66
-0.180518 0.282835 1.446 23 27 27
-0.169281 0.271109 1.386 24 28 28
-0.164818 0.269945 1.38 23 30 29
-0.159804 0.267803 1.369 24 31 30
-0.155184 0.272712 1.394 25 32 31
-0.150763 0.271548 1.388 23 30 29
-0.146903 0.271361 1.387 28 35 34
-0.142429 0.27 1.38 34 39 36
-0.1393 0.271183 1.386 38 42 42
-0.136528 0.273148 1.396 41 45 45
-0.132752 0.273156 1.396 48 53 50
-0.131377 0.278252 1.422 51 56 53
-0.131834 0.287653 1.47 55 60 56
-0.181402 0.280287 1.453 23 27 27
-0.17039 0.269108 1.395 23 30 29
-0.164111 0.265067 1.374 25 32 31
-0.16028 0.264884 1.373 25 32 31
-0.155427 0.262964 1.363 23 30 29
-0.156195 0.27069 1.403 24 31 30
-0.151532 0.269156 1.395 23 30 29
-0.147336 0.268393 1.391 23 30 29
-0.143057 0.267437 1.386 28 33 30
-0.13961 0.268025 1.389 32 36 36
-0.136928 0.270156 1.4 35 39 39
-0.132665 0.269199 1.395 38 43 40
-0.131108 0.273839 1.419 40 45 42
-0.130856 0.281566 1.459 44 49 45
-0.1704 0.265347 1.395 21 28 27
-0.164599 0.262123 1.378 27 34 33
-0.16099 0.262323 1.379 25 32 31
-0.155665 0.259669 1.365 26 33 32
-0.155982 0.266526 1.401 25 32 31
-0.152084 0.266345 1.4 25 32 31
-0.147874 0.265593 1.396 24 31 30
-0.143582 0.264651 1.391 23 30 27
-0.140121 0.26523 1.394 23 30 29
-0.137034 0.266571 1.401 28 35 34
-0.132483 0.265057 1.393 33 38 35
-0.130931 0.269631 1.417 34 41 38
-0.129249 0.274206 1.441 37 42 39
-0.170532 0.261772 1.396 22 29 26
-0.164847 0.258782 1.38 24 31 30
-0.161466 0.259354 1.383 25 32 31
-0.155446 0.255612 1.363 28 35 34
-0.156548 0.263686 1.406 28 35 34
-0.152528 0.26332 1.404 27 34 33
-0.148201 0.262391 1.399 24 31 30
-0.143591 0.260899 1.391 23 30 27
-0.140129 0.26147 1.394 24 31 28
-0.137629 0.263917 1.407 23 30 27
-0.133442 0.263175 1.403 24 31 28
-0.131401 0.266747 1.422 25 32 29
-0.127912 0.267506 1.426 30 35 32
-0.121309 0.278972 1.487 41 44 40
-0.171153 0.258931 1.401 20 27 24
-0.163662 0.253211 1.37 22 29 26
-0.160892 0.254699 1.378 22 29 28
-0.154999 0.251197 1.359 23 30 29
-0.155889 0.258784 1.4 27 34 33
-0.151994 0.258608 1.399 28 35 34
-0.147574 0.257508 1.393 27 34 33
-0.143186 0.256408 1.387 25 32 31
-0.140238 0.257895 1.395 24 31 30
-0.137638 0.260122 1.407 25 32 29
-0.133735 0.259945 1.406 24 31 28
-0.131409 0.262911 1.422 25 30 27
-0.126933 0.261625 1.415 25 30 27
-0.123066 0.269961 1.46 31 34 31
-0.119766 0.271448 1.468 30 33 29
-0.171896 0.256244 1.407 22 29 25
-0.162477 0.247694 1.36 20 27 24
-0.15985 0.249343 1.369 20 27 24
-0.154095 0.246073 1.351 21 28 25
-0.155675 0.254643 1.398 23 30 27
-0.151677 0.254288 1.396 25 32 31
-0.147371 0.253386 1.391 29 36 35
-0.142782 0.251937 1.383 28 35 34
-0.139945 0.253585 1.392 27 34 33
-0.13745 0.255962 1.405 27 34 33
-0.133553 0.255787 1.404 26 31 28
-0.130585 0.257435 1.413 25 30 27
-0.126312 0.256532 1.408 24 29 26
-0.120376 0.260191 1.428 30 33 29
-0.11292 0.252181 1.384 31 34 30
-0.172272 0.252987 1.41 19 26 22
-0.163203 0.245101 1.366 18 25 21
-0.15986 0.245649 1.369 22 27 23
-0.154903 0.243684 1.358 23 28 24
-0.155239 0.250153 1.394 21 28 24
-0.151468 0.250162 1.394 22 29 26
-0.147062 0.249094 1.388 25 32 29
-0.142997 0.248564 1.385 31 38 37
-0.139752 0.24947 1.39 27 34 33
-0.137067 0.251452 1.401 27 34 33
-0.13261 0.250204 1.394 26 33 30
-0.130131 0.252725 1.408 24 29 26
-0.125871 0.251835 1.403 22 27 23
-0.126946 0.261895 1.459 25 30 26
-0.115578 0.246106 1.371 29 33 26
-0.108603 0.238932 1.331 32 36 29
-0.172771 0.249889 1.414 19 26 22
-0.164049 0.242653 1.373 20 27 23
-0.159869 0.241955 1.369 20 25 21
-0.155254 0.24055 1.361 21 26 22
-0.156361 0.248159 1.404 21 26 22
-0.152455 0.247991 1.403 20 27 24
-0.148024 0.246939 1.397 21 28 25
-0.143934 0.246418 1.394 24 31 30
-0.139961 0.246072 1.392 30 37 36
-0.136977 0.247495 1.4 30 37 36
-0.132713 0.246619 1.395 28 35 32
-0.129862 0.248395 1.405 28 33 30
-0.12561 0.247518 1.4 25 30 26
-0.124343 0.252653 1.429 22 27 23
-0.172292 0.245377 1.41 18 25 22
-0.164775 0.239991 1.379 20 25 21
-0.159995 0.238434 1.37 21 26 22
-0.156061 0.238095 1.368 21 26 22
-0.157039 0.245414 1.41 21 26 22
-0.153116 0.245249 1.409 22 27 24
-0.148562 0.244039 1.402 19 26 23
-0.144459 0.243525 1.399 20 27 24
-0.13997 0.242315 1.392 22 29 28
-0.136985 0.243716 1.4 28 35 34
-0.13253 0.242505 1.393 30 37 36
-0.130054 0.24495 1.407 29 33 33
-0.125348 0.243217 1.397 27 32 29
-0.122785 0.245662 1.411 25 30 26
-0.17374 0.238306 1.391 18 25 22
-0.17169 0.240714 1.405 19 26 23
-0.165382 0.237126 1.384 20 27 24
-0.16012 0.234908 1.371 18 25 21
-0.156869 0.235602 1.375 20 25 21
-0.1556 0.239381 1.397 21 26 22
-0.153342 0.241788 1.411 21 28 25
-0.148889 0.240769 1.405 20 27 24
-0.144364 0.239578 1.398 20 27 24
-0.139777 0.238215 1.39 21 28 27
-0.137189 0.240279 1.402 23 30 29
-0.133109 0.239773 1.399 29 36 33
-0.130154 0.241323 1.408 33 38 35
-0.125086 0.238931 1.394 26 31 28
-0.121225 0.238767 1.393 26 32 25
-0.107643 0.226097 1.319 27 31 24
-0.171333 0.236416 1.402 19 26 23
-0.165749 0.233896 1.387 19 26 23
-0.160013 0.231038 1.37 21 28 25
-0.156763 0.231721 1.374 20 27 24
-0.15416 0.233417 1.384 20 27 24
-0.152481 0.23663 1.403 20 27 24
-0.148155 0.235795 1.398 21 28 25
-0.14334 0.234117 1.388 19 26 23
-0.139181 0.23345 1.384 20 27 24
-0.136904 0.235988 1.399 20 27 24
-0.132927 0.235659 1.397 21 28 25
-0.129885 0.237016 1.405 25 30 27
-0.124825 0.234661 1.391 30 35 32
-0.12071 0.233994 1.387 27 32 28
-0.115774 0.231639 1.373 27 33 26
-0.16528 0.229487 1.383 20 25 22
-0.158503 0.225182 1.357 20 27 24
-0.155403 0.22602 1.362 22 27 24
-0.152387 0.227024 1.368 19 26 23
-0.151077 0.230684 1.39 20 27 24
-0.147104 0.23036 1.388 19 26 23
-0.142522 0.229041 1.38 20 27 24
-0.138686 0.228883 1.379 18 25 21
-0.136226 0.231049 1.392 22 29 26
-0.132458 0.231056 1.392 19 26 22
-0.129152 0.231894 1.397 20 25 21
-0.124473 0.230241 1.387 22 27 23
-0.122284 0.233236 1.405 27 32 28
-0.107656 0.218973 1.319 29 33 26
-0.16573 0.221336 1.356 21 26 22
-0.164333 0.224447 1.375 21 26 23
-0.157694 0.220375 1.35 22 27 24
-0.154385 0.220873 1.353 21 26 23
-0.151616 0.222187 1.361 22 27 23
-0.149998 0.225298 1.38 21 28 24
-0.146264 0.225306 1.38 20 27 23
-0.14253 0.225314 1.38 20 27 23
-0.138795 0.225322 1.38 20 27 23
-0.135745 0.226473 1.387 21 28 24
-0.131419 0.225501 1.381 22 27 23
-0.128698 0.227304 1.392 20 26 19
-0.124121 0.225842 1.383 21 27 20
-0.11968 0.224542 1.375 23 27 20
-0.11874 0.229938 1.408 27 31 24
-0.162683 0.213661 1.331 20 25 21
-0.164223 0.220573 1.374 21 26 22
-0.15817 0.217371 1.354 20 25 22
-0.154051 0.216737 1.35 22 27 24
-0.152292 0.219475 1.367 20 25 21
-0.149137 0.220286 1.372 22 27 23
-0.145848 0.220936 1.376 23 28 24
-0.142228 0.221105 1.377 22 27 23
-0.138702 0.221434 1.379 21 26 22
-0.135459 0.222245 1.384 21 26 22
-0.131332 0.22161 1.38 22 27 23
-0.129075 0.224187 1.396 19 25 18
-0.124128 0.222106 1.383 19 25 18
-0.118991 0.219543 1.367 23 27 20
-0.108566 0.213614 1.33 31 35 28
-0.1067 0.217154 1.352 30 31 25
-0.165136 0.213223 1.351 22 27 23
-0.16459 0.217335 1.377 21 26 22
-0.158529 0.214187 1.357 21 26 22
-0.154059 0.213091 1.35 20 25 21
-0.152301 0.215782 1.367 21 26 22
-0.14958 0.217211 1.376 22 27 23
-0.146175 0.217693 1.379 21 26 22
-0.142029 0.21707 1.375 22 27 23
-0.138509 0.217393 1.377 21 26 22
-0.135271 0.21819 1.382 22 27 23
-0.13172 0.218513 1.384 20 25 21
-0.129637 0.221363 1.402 20 25 21
-0.123776 0.217738 1.379 20 26 19
-0.118997 0.21585 1.367 20 24 17
-0.115801 0.216804 1.373 24 28 21
-0.113062 0.218706 1.385 23 27 20
-0.168201 0.213452 1.376 22 28 21
-0.164001 0.21284 1.372 23 29 22
-0.159238 0.211452 1.363 23 28 24
-0.153725 0.208978 1.347 21 26 22
-0.151863 0.211469 1.363 19 24 20
-0.148719 0.212253 1.368 21 26 22
-0.146395 0.214278 1.381 20 25 21
-0.141624 0.212734 1.371 22 27 23
-0.138818 0.214138 1.38 22 27 23
-0.136159 0.215853 1.391 22 27 23
-0.132964 0.216791 1.397 21 26 22
-0.130199 0.218506 1.408 18 23 19
-0.123873 0.214167 1.38 19 25 18
-0.118422 0.217906 1.404 22 26 19
-0.114048 0.216826 1.397 23 27 20
-0.163173 0.208066 1.365 21 27 20
-0.159013 0.207465 1.361 23 29 22
-0.153961 0.205644 1.349 23 29 22
-0.151314 0.207024 1.358 24 28 21
-0.148292 0.207947 1.364 23 26 22
-0.14619 0.210241 1.379 25 28 24
-0.142458 0.210249 1.379 24 27 23
-0.140033 0.212239 1.392 21 26 22
-0.136754 0.213009 1.397 21 27 20
-0.132876 0.212864 1.396 20 26 19
-0.129651 0.213786 1.402 20 26 19
-0.123341 0.209523 1.374 19 25 18
-0.11632 0.210299 1.379 22 26 19
-0.161508 0.202281 1.351 25 30 26
-0.158788 0.203488 1.359 25 30 26
-0.154312 0.202448 1.352 23 29 22
-0.150654 0.202456 1.352 24 30 23
-0.147647 0.203362 1.358 23 27 20
-0.14535 0.205317 1.371 24 28 21
-0.142569 0.206672 1.38 24 28 21
-0.141248 0.210274 1.404 24 28 21
-0.137251 0.209982 1.402 24 28 21
-0.133169 0.20954 1.399 22 26 19
-0.129751 0.210146 1.403 22 26 19
-0.122899 0.20506 1.369 22 26 19
-0.120497 0.207314 1.384 22 26 19
-0.116749 0.20732 1.384 21 25 18
-0.111693 0.20493 1.368 26 27 21
-0.157332 0.193484 1.316 26 31 27
-0.158913 0.199962 1.36 27 32 28
-0.154434 0.198941 1.353 25 30 26
-0.14977 0.197625 1.344 27 33 26
-0.146568 0.198221 1.348 28 32 25
-0.144085 0.199846 1.359 24 28 21
-0.142267 0.202501 1.377 24 28 21
-0.141155 0.206332 1.403 23 27 20
-0.136964 0.205751 1.399 24 28 21
-0.133557 0.206347 1.403 23 27 20
-0.12948 0.205912 1.4 21 25 18
-0.122367 0.200477 1.363 22 26 19
-0.118588 0.200337 1.362 22 26 19
-0.111693 0.194753 1.324 23 24 18
-0.112271 0.202261 1.375 23 24 18
-0.159038 0.19643 1.361 22 27 23
-0.154442 0.195283 1.353 27 32 28
-0.149109 0.193126 1.338 26 31 27
-0.146032 0.193856 1.343 28 33 29
-0.143987 0.196028 1.358 25 31 24
-0.142997 0.199789 1.384 27 31 24
-0.14086 0.202106 1.4 25 29 22
-0.136678 0.201536 1.396 23 27 20
-0.133659 0.202698 1.404 22 26 19
-0.129117 0.20155 1.396 22 26 19
-0.121925 0.19607 1.358 20 24 17
-0.118508 0.19651 1.361 20 24 17
-0.105499 0.186559 1.292 23 24 18
-0.15741 0.190768 1.347 20 25 21
-0.155249 0.192617 1.36 23 28 24
-0.150008 0.190642 1.346 26 31 27
-0.146692 0.191075 1.349 28 33 29
-0.144949 0.193632 1.367 27 33 26
-0.142901 0.195905 1.383 26 32 25
-0.140767 0.198179 1.399 28 32 25
-0.136294 0.197195 1.392 25 29 22
-0.133381 0.198477 1.401 23 27 20
-0.128107 0.196217 1.385 21 25 18
-0.121303 0.191406 1.351 19 23 16
-0.119123 0.193821 1.368 19 23 16
-0.109934 0.184618 1.303 19 23 16
-0.155782 0.185181 1.333 16 23 19
-0.156398 0.190329 1.37 16 23 20
-0.151465 0.188809 1.359 21 28 25
-0.14833 0.189511 1.364 23 30 27
-0.145698 0.190908 1.374 25 32 29
-0.143115 0.192444 1.385 25 32 29
-0.140472 0.193979 1.396 27 32 29
-0.136007 0.193014 1.389 24 29 25
-0.132817 0.193854 1.395 23 27 20
-0.127281 0.191221 1.376 22 26 19
-0.126607 0.195952 1.41 21 25 18
-0.110361 0.181789 1.308 19 23 16
-0.15652 0.186761 1.371 15 22 19
-0.151918 0.185679 1.363 19 26 23
-0.148338 0.185823 1.364 20 27 24
-0.145282 0.186647 1.37 23 30 27
-0.142503 0.187881 1.379 25 32 29
-0.140278 0.189931 1.394 28 33 30
-0.135524 0.188576 1.384 26 31 27
-0.132252 0.189264 1.389 22 27 23
-0.12664 0.186545 1.369 23 27 20
-0.128679 0.195273 1.433 21 25 18
-0.123664 0.193508 1.42 18 22 15
-0.115767 0.186973 1.372 18 22 14
-0.155615 0.181985 1.363 16 23 20
-0.151703 0.181726 1.361 16 23 20
-0.147692 0.181332 1.358 17 24 21
-0.144334 0.18174 1.361 19 26 23
-0.14189 0.18335 1.373 19 26 25
-0.140084 0.185894 1.392 22 29 28
-0.135433 0.184699 1.383 24 31 28
-0.131878 0.184973 1.385 23 30 27
-0.125906 0.181774 1.361 20 25 21
-0.1228 0.188331 1.41 16 22 15
-0.113157 0.17912 1.341 18 22 14
-0.153681 0.176075 1.346 13 20 17
-0.150818 0.176998 1.353 13 20 17
-0.146394 0.176089 1.346 16 23 20
-0.143493 0.177012 1.353 17 24 21
-0.141483 0.179112 1.369 18 25 22
-0.139789 0.181736 1.389 20 27 24
-0.135048 0.180434 1.379 20 27 24
-0.131313 0.180441 1.379 21 28 25
-0.125172 0.177045 1.353 20 27 23
-0.129859 0.189221 1.446 20 27 23
-0.121761 0.182946 1.398 18 24 17
-0.113416 0.175885 1.344 17 21 14
-0.153003 0.171665 1.34 12 19 15
-0.150825 0.173337 1.353 12 19 16
-0.146184 0.172191 1.344 14 21 18
-0.143394 0.173223 1.352 14 21 18
-0.141077 0.174896 1.365 17 24 21
-0.139393 0.177465 1.385 16 23 20
-0.134565 0.176062 1.374 18 25 22
-0.130462 0.175556 1.37 19 26 23
-0.124253 0.172102 1.343 18 25 22
-0.127351 0.18172 1.418 18 25 21
-0.120635 0.177497 1.385 18 24 17
-0.114856 0.174427 1.361 16 22 15
-0.196841 0.159398 1.272 35 36 30
-0.193556 0.159532 1.273 42 43 37
-0.190266 0.159665 1.274 46 47 41
-0.185797 0.158796 1.267 38 39 33
-0.17863 0.155545 1.241 30 34 27
-0.153239 0.16829 1.342 13 20 16
-0.150833 0.169677 1.353 11 18 14
-0.146408 0.168806 1.346 13 20 17
-0.143294 0.16944 1.351 14 21 18
-0.141187 0.171328 1.366 17 24 21
-0.138796 0.172965 1.379 15 22 19
-0.133886 0.171466 1.367 13 20 17
-0.129516 0.170594 1.36 15 22 18
-0.123057 0.166837 1.33 13 20 16
-0.126638 0.176879 1.41 13 20 16
-0.119508 0.172118 1.372 15 23 16
-0.116381 0.173002 1.379 14 22 15
-0.104089 0.165359 1.318 16 20 13
-0.0981525 0.161475 1.287 16 20 12
-0.199789 0.158288 1.291 21 26 22
-0.197366 0.159154 1.298 24 29 25
-0.194307 0.159531 1.301 31 36 33
-0.189471 0.158435 1.292 32 37 34
-0.183244 0.156113 1.273 27 32 29
-0.181498 0.157592 1.285 23 28 24
-0.15336 0.164782 1.343 11 18 14
-0.151174 0.166384 1.356 11 18 14
-0.146415 0.165163 1.346 12 19 15
-0.142771 0.16517 1.346 13 20 17
-0.140676 0.167017 1.361 14 21 18
-0.137997 0.168251 1.371 15 22 19
-0.133696 0.167521 1.365 14 21 17
-0.129427 0.166791 1.359 13 20 16
-0.123525 0.163851 1.335 13 20 16
-0.125477 0.171467 1.397 13 20 16
-0.118904 0.167545 1.365 14 22 15
-0.116302 0.169146 1.378 16 22 15
-0.110444 0.16596 1.352 12 18 11
-0.102988 0.160073 1.304 16 20 13
-0.100979 0.162533 1.324 17 21 14
-0.0995968 0.166221 1.354 17 21 13
-0.0962094 0.166717 1.358 15 19 11
-0.197678 0.155883 1.3 18 25 21
-0.194315 0.156011 1.301 18 25 22
-0.189625 0.15506 1.293 15 22 19
-0.186131 0.155068 1.293 15 22 19
-0.1945 0.16515 1.377 15 22 19
-0.192301 0.166478 1.388 19 26 23
-0.153938 0.161747 1.348 14 20 13
-0.150735 0.162234 1.352 11 18 14
-0.146204 0.161281 1.344 11 18 14
-0.141929 0.160567 1.338 12 19 15
-0.140786 0.163454 1.362 12 19 15
-0.137601 0.16406 1.367 13 20 16
-0.134094 0.164307 1.369 11 18 14
-0.1301 0.163953 1.366 12 20 13
-0.124456 0.161438 1.345 12 20 13
-0.122878 0.164204 1.368 10 18 11
-0.118387 0.16313 1.359 13 21 14
-0.116645 0.165896 1.382 13 19 12
-0.109877 0.16146 1.345 13 19 12
-0.103941 0.157983 1.316 12 18 11
-0.102357 0.16111 1.342 14 18 11
-0.0990866 0.161715 1.347 12 16 8
-0.0963557 0.16328 1.36 14 18 10
-0.093077 0.164005 1.366 14 18 10
-0.0902889 0.16569 1.38 12 16 8
-0.199961 0.151421 1.292 10 17 13
-0.196926 0.151781 1.295 14 21 17
-0.193576 0.151906 1.296 13 20 17
-0.189193 0.15121 1.29 13 20 17
-0.187002 0.152273 1.299 12 19 16
-0.190695 0.158259 1.35 13 20 17
-0.188846 0.159791 1.363 14 21 18
-0.172951 0.158767 1.354 14 21 17
-0.171788 0.161119 1.374 14 21 17
-0.166725 0.159837 1.363 13 21 14
-0.154973 0.159154 1.357 13 19 12
-0.150519 0.15834 1.35 13 19 12
-0.145667 0.157056 1.339 12 18 11
-0.141511 0.156476 1.334 10 17 13
-0.140689 0.15965 1.361 10 17 13
-0.137305 0.160008 1.364 12 20 13
-0.134296 0.160835 1.371 11 19 12
-0.130201 0.160372 1.367 11 19 12
-0.124925 0.158383 1.35 9 17 10
-0.121536 0.158741 1.353 10 18 11
-0.117347 0.158042 1.347 13 19 12
-0.1153 0.160277 1.366 12 18 11
-0.110046 0.158053 1.347 12 18 11
-0.105763 0.157119 1.339 11 17 10
-0.102209 0.157241 1.34 11 17 10
-0.0976936 0.155838 1.328 13 17 9
-0.0943055 0.156194 1.331 12 16 8
-0.0917867 0.158076 1.347 12 16 8
-0.0897043 0.160897 1.371 12 16 8
-0.0827249 0.154799 1.319 13 17 10
-0.0789675 0.15445 1.316 12 16 9
-0.0741754 0.159504 1.359 11 15 7
-0.196934 0.148277 1.295 13 20 16
-0.193733 0.148514 1.297 12 19 15
-0.188321 0.147033 1.284 13 20 16
-0.186722 0.148529 1.297 11 18 14
-0.18816 0.152545 1.332 11 18 14
-0.187052 0.154614 1.35 11 18 14
-0.186119 0.156913 1.37 12 19 15
-0.174142 0.152919 1.335 12 19 15
-0.169509 0.15201 1.327 13 20 16
-0.169295 0.15511 1.354 13 21 14
-0.168077 0.157408 1.374 14 22 15
-0.161488 0.154665 1.35 15 23 16
-0.157484 0.154329 1.347 16 22 15
-0.154979 0.155481 1.357 14 20 13
-0.150414 0.154571 1.349 12 18 11
-0.145782 0.153546 1.34 12 18 11
-0.141305 0.152636 1.332 12 18 11
-0.140385 0.155621 1.358 12 18 11
-0.136808 0.155742 1.359 13 19 12
-0.134302 0.157123 1.371 13 19 12
-0.129921 0.156327 1.364 12 18 11
-0.12456 0.15427 1.346 13 19 12
-0.120553 0.153817 1.342 12 18 11
-0.115697 0.152217 1.328 12 20 13
-0.114377 0.155317 1.355 13 19 12
-0.109887 0.154176 1.345 11 17 10
-0.106873 0.155098 1.353 11 17 10
-0.102443 0.153957 1.343 11 17 10
-0.0972567 0.151554 1.322 14 18 11
-0.0933888 0.1511 1.318 11 17 9
-0.0902237 0.151792 1.324 12 16 8
-0.0876146 0.153515 1.339 12 16 8
-0.0844849 0.154437 1.347 11 17 9
-0.0812516 0.155243 1.354 10 16 8
-0.0778081 0.155705 1.358 13 17 9
-0.0737422 0.154906 1.351 12 16 9
-0.0682617 0.150896 1.316 13 17 10
-0.198767 0.146115 1.307 9 17 10
-0.194936 0.145899 1.305 11 18 14
-0.189355 0.144341 1.291 10 17 13
-0.185146 0.14379 1.286 10 17 13
-0.185624 0.146928 1.314 9 16 12
-0.184566 0.148948 1.332 9 16 12
-0.183681 0.151192 1.352 10 17 13
-0.178693 0.150081 1.342 9 16 12
-0.175454 0.150424 1.345 9 17 10
-0.17041 0.149201 1.334 9 17 10
-0.165426 0.147977 1.323 10 18 11
-0.166005 0.151787 1.357 12 20 13
-0.160897 0.150452 1.345 15 21 14
-0.158309 0.151465 1.354 16 22 15
-0.154301 0.151136 1.351 14 20 13
-0.150309 0.150807 1.348 14 20 13
-0.14568 0.149806 1.339 13 19 12
-0.141099 0.148806 1.33 12 18 11
-0.140288 0.151833 1.357 12 18 11
-0.136613 0.151839 1.357 11 17 10
-0.134014 0.153075 1.368 11 17 10
-0.129356 0.151962 1.358 11 17 10
-0.123825 0.14973 1.338 11 17 10
-0.119391 0.148728 1.329 11 17 10
-0.11335 0.145599 1.301 9 17 10
-0.113369 0.150305 1.343 9 17 10
-0.109484 0.149974 1.34 12 18 11
-0.107194 0.151882 1.357 10 16 9
-0.102905 0.150991 1.349 9 15 8
-0.0978497 0.148869 1.33 11 15 8
-0.0933221 0.147418 1.317 10 16 8
-0.0899552 0.147758 1.32 12 16 8
-0.086768 0.148433 1.326 11 17 9
-0.0840498 0.150004 1.34 9 15 7
-0.0806552 0.150456 1.344 10 16 8
-0.0770095 0.15046 1.344 12 16 9
-0.0735273 0.150799 1.347 12 16 9
-0.0700285 0.151138 1.35 12 16 9
-0.0667591 0.152037 1.358 12 16 9
-0.0637247 0.153607 1.372 13 17 9
-0.19923 0.142905 1.31 9 15 8
-0.195093 0.142476 1.306 11 17 10
-0.190389 0.141611 1.298 10 16 9
-0.186161 0.141073 1.293 12 18 11
-0.181818 0.140425 1.287 10 18 11
-0.183465 0.14447 1.324 10 18 11
-0.182466 0.14655 1.343 8 16 9
-0.179765 0.147321 1.35 7 15 8
-0.176244 0.147438 1.351 9 17 10
-0.170928 0.146026 1.338 11 17 10
-0.164932 0.143959 1.319 11 17 10
-0.165522 0.147677 1.353 12 18 11
-0.159947 0.145937 1.337 12 18 11
-0.157731 0.147254 1.349 13 19 12
-0.152822 0.146059 1.338 13 19 12
-0.150203 0.147048 1.347 11 17 10
-0.145686 0.146181 1.339 12 18 11
-0.140999 0.145095 1.329 10 16 9
-0.139777 0.147612 1.352 11 17 10
-0.135914 0.1474 1.35 10 16 9
-0.133628 0.148934 1.364 13 19 12
-0.128694 0.14752 1.351 12 18 11
-0.12346 0.145669 1.334 9 15 8
-0.118677 0.144255 1.321 11 17 10
-0.112745 0.141311 1.294 11 17 10
