# .PCD v0.7 - Point Cloud Data file format
VERSION 0.7
FIELDS x y z rgb
SIZE 4 4 4 4
TYPE F F F U
COUNT 1 1 1 1
WIDTH 1065
HEIGHT 1
VIEWPOINT 0 0 0 1 0 0 0
POINTS 1065
DATA ascii
0.45079499 0.075911798 0.653 4287335034
0.45142201 0.075715698 0.65100002 4287269241
-0.19912601 0.071978398 0.64600003 4289639083
-0.19708399 0.071870498 0.64499998 4289508011
-0.195352 0.071874 0.64499998 4289836976
-0.193619 0.071877502 0.64499998 4289968562
-0.19188599 0.071881197 0.64499998 4290034355
-0.190153 0.071884803 0.64499998 4289441704
-0.18842 0.071888603 0.64499998 4289243555
-0.186398 0.071780898 0.64399999 4289309348
-0.18466701 0.071784697 0.64399999 4289375141
-0.18265299 0.071677104 0.64300001 4289572520
-0.180925 0.071681097 0.64300001 4289375141
-0.178918 0.071573503 0.64200002 4289506213
-0.177193 0.071577497 0.64200002 4289572006
-0.175741 0.0716931 0.64300001 4289440420
-0.174283 0.071808599 0.64399999 4289835178
-0.172552 0.071812801 0.64399999 4289966764
-0.17055599 0.071705401 0.64300001 4290032557
-0.168828 0.071709603 0.64300001 4290295729
-0.167619 0.071936801 0.64499998 4290229936
-0.165884 0.0719411 0.64499998 4290164143
-0.16415 0.071945302 0.64499998 4289900457
-0.16266701 0.072061203 0.64600003 4289768871
-0.16092999 0.072065502 0.64600003 4289637285
-0.159192 0.072069801 0.64600003 4289637285
-0.15721101 0.071962602 0.64499998 4289308320
-0.155476 0.071966901 0.64499998 4288781975
-0.15374 0.071971297 0.64499998 4288781715
-0.151769 0.071864098 0.64399999 4288584335
-0.150269 0.071980096 0.64499998 4288255370
-0.148533 0.0719845 0.64499998 4288452749
-0.14702401 0.072100498 0.64600003 4287729026
-0.14483599 0.071881697 0.64399999 4287466106
-0.143324 0.071997702 0.64499998 4287729278
-0.141368 0.071890503 0.64399999 4287663740
-0.13985001 0.072006501 0.64499998 4287532154
-0.13811301 0.072010897 0.64499998 4287663228
-0.13616399 0.071903601 0.64399999 4287663228
-0.134638 0.072019704 0.64499998 4287597437
-0.13310599 0.072135702 0.64600003 4287859839
-0.131162 0.072028399 0.64499998 4287860093
-0.129223 0.071921103 0.64399999 4288057472
-0.127685 0.072037101 0.64499998 4288057472
-0.125946 0.0720414 0.64499998 4287991679
-0.124399 0.072157398 0.64600003 4288386437
-0.122467 0.072049998 0.64499998 4288320644
-0.120915 0.072166003 0.64600003 4288254851
-0.119172 0.072170198 0.64600003 4288189058
-0.117611 0.072286204 0.64700001 4288188806
-0.116045 0.072402097 0.648 4287991678
-0.114472 0.072518103 0.64899999 4288123264
-0.112373 0.072298698 0.64700001 4288650635
-0.110456 0.072191097 0.64600003 4288519049
-0.108375 0.0719717 0.64399999 4288452743
-0.106471 0.071863897 0.64300001 4288518536
-0.104897 0.071979702 0.64399999 4288781194
-0.103158 0.071983702 0.64399999 4288452229
-0.101576 0.072099403 0.64499998 4288649608
-0.099523798 0.0718797 0.64300001 4288386436
-0.097786501 0.0718835 0.64300001 4288649608
-0.095750101 0.0716637 0.64099997 4288584329
-0.094457597 0.072002903 0.64399999 4288518796
-0.092860803 0.072118402 0.64499998 4288781968
-0.091540799 0.0724575 0.648 4288453003
-0.089511603 0.072237499 0.64600003 4288650635
-0.087493002 0.072017498 0.64399999 4288848014
-0.085618101 0.071909197 0.64300001 4288716428
-0.084139697 0.072136298 0.64499998 4288584842
-0.082650296 0.072363399 0.64700001 4288781708
-0.081024803 0.072478697 0.648 4288584842
-0.079271302 0.072481997 0.648 4288848014
-0.077278398 0.072261602 0.64600003 4288848014
-0.075529903 0.072264798 0.64600003 4288913294
-0.0736669 0.072156101 0.64499998 4288650122
-0.072143704 0.072382897 0.64700001 4288584329
-0.070391901 0.0723859 0.64700001 4288846987
-0.0686398 0.072388902 0.64700001 4288583815
-0.066680796 0.072168097 0.64499998 4288979341
-0.064732403 0.071947098 0.64300001 4288584582
-0.062892601 0.071837999 0.64200002 4288716169
-0.0612486 0.071952596 0.64300001 4288649862
-0.0596915 0.072179101 0.64499998 4288781708
-0.0578539 0.072069697 0.64399999 4288913294
-0.056195699 0.072184198 0.64499998 4289045134
-0.054531999 0.072298497 0.64600003 4288650376
-0.052781001 0.072300903 0.64600003 4288715915
-0.050950799 0.072191298 0.64499998 4288715915
-0.0492022 0.072193503 0.64499998 4288386950
-0.0476005 0.072419599 0.64700001 4288847501
-0.045704499 0.072197802 0.64499998 4288650122
-0.044023499 0.072311804 0.64600003 4288913294
-0.0421407 0.072089799 0.64399999 4288781708
-0.040456802 0.072203703 0.64499998 4288650380
-0.038767301 0.072317399 0.64600003 4288518542
-0.037014998 0.072319098 0.64600003 4288453003
-0.035317101 0.072432697 0.64700001 4288255370
-0.0335618 0.072434299 0.64700001 4287794819
-0.031757299 0.072323903 0.64600003 4287926659
-0.030004499 0.072325297 0.64600003 4288255367
-0.0281641 0.072102703 0.64399999 4288518285
-0.0264166 0.072104 0.64399999 4288386699
-0.024630601 0.071993202 0.64300001 4288650125
-0.0229568 0.072218202 0.64499998 4288452492
-0.021173401 0.0721073 0.64399999 4288386956
-0.019455699 0.072220199 0.64499998 4288518542
-0.0177051 0.072221003 0.64499998 4288584335
-0.015954399 0.072221801 0.64499998 4288518539
-0.0142036 0.072222501 0.64499998 4288255365
-0.0124335 0.072111197 0.64399999 4288057471
-0.0106853 0.072111703 0.64399999 4288978573
-0.0089232903 0.072000198 0.64300001 4287729020
-0.0071777999 0.0720006 0.64300001 4289110673
-0.00543229 0.072000898 0.64300001 4289110931
-0.00369823 0.072224997 0.64499998 4289242517
-0.0019563099 0.0725611 0.648 4289308572
-0.00019474801 0.071665302 0.63999999 4289176987
0.00149927 0.069649696 0.62199998 4289440159
0.00314681 0.068753801 0.61400002 4288980122
0.0047665802 0.068081699 0.60799998 4289308572
0.00631154 0.066961698 0.59799999 4288519310
0.0075500798 0.063714102 0.56900001 4288913815
0.0089508202 0.062705897 0.56 4288849314
0.0104335 0.0624815 0.55800003 4288454816
0.0118411 0.061921101 0.55299997 4284968050
0.0131974 0.061248701 0.54699999 4282600021
0.0145211 0.060576301 0.54100001 4288061095
0.015930399 0.060351599 0.53899997 4284573549
0.0173933 0.060350802 0.53899997 4284310373
0.0188911 0.060462002 0.54000002 4284441443
0.020356599 0.060461 0.54000002 4284178011
0.021822 0.060460102 0.54000002 4284112217
0.023158001 0.060123101 0.537 4283980115
0.024569299 0.060010102 0.53600001 4283848529
0.025975101 0.059897002 0.53500003 4283782222
0.0273754 0.059783801 0.53399998 4283453257
0.0288241 0.059782501 0.53399998 4283321671
0.0302728 0.059781101 0.53399998 4282927427
0.031721301 0.0597797 0.53399998 4283059015
0.033045501 0.059554402 0.53200001 4283387980
0.034488399 0.0595528 0.53200001 4282993736
0.0359312 0.059551202 0.53200001 4282401600
0.0375144 0.059773501 0.53399998 4282992967
0.039035399 0.059883699 0.53500003 4283256394
0.040713001 0.060217701 0.53799999 4283190601
0.042171501 0.060215801 0.53799999 4283256392
0.043467801 0.05999 0.53600001 4283124806
0.044753101 0.0597643 0.53399998 4283059013
0.046113901 0.059650298 0.53299999 4282861634
0.047736801 0.059872098 0.53500003 4283256392
0.049094599 0.059758 0.53399998 4283322185
0.050446901 0.059643999 0.53299999 4283650636
0.051793501 0.0595298 0.53200001 4283190340
0.0532347 0.059527501 0.53200001 4283387719
0.054984 0.0598609 0.53500003 4283255617
0.056644 0.060082201 0.537 4283321410
0.058314499 0.060303502 0.53899997 4282729272
0.0595522 0.060077298 0.537 4282663733
0.060778901 0.059850901 0.53500003 4282861110
0.061761901 0.059400901 0.53100002 4282729526
0.0627231 0.0589508 0.52700001 4283123770
0.064149402 0.0589481 0.52700001 4282992184
0.065575503 0.058945399 0.52700001 4282991930
0.067255698 0.059166402 0.52899998 4282860344
0.068427101 0.0589399 0.52700001 4282992184
0.069852702 0.058937099 0.52700001 4282860598
0.071277998 0.058934201 0.52700001 4282663219
0.0729791 0.059154902 0.52899998 4282729012
0.075394101 0.059934702 0.53600001 4282794803
0.0789937 0.061608799 0.551 4282794803
0.085011199 0.065071702 0.58200002 4282531633
0.091047399 0.068422303 0.61199999 4282663219
0.095427804 0.070431001 0.63 4282663219
0.098055102 0.071098 0.63599998 4282531633
0.100087 0.071317703 0.63800001 4282794803
0.10197 0.071425699 0.639 4282926131
0.103858 0.071533501 0.63999999 4282794031
0.105917 0.0717531 0.64200002 4282465320
0.107818 0.071860798 0.64300001 4282070047
0.109724 0.071968503 0.64399999 4282399526
0.111636 0.072076201 0.64499998 4282662959
0.113377 0.072071999 0.64499998 4282728752
0.115474 0.0722913 0.64700001 4282597679
0.117039 0.072175398 0.64600003 4282728758
0.118782 0.072171196 0.64600003 4282794551
0.120338 0.072055198 0.64499998 4283057720
0.122267 0.072162703 0.64600003 4282926132
0.124201 0.072270103 0.64700001 4283254582
0.125945 0.072265796 0.64700001 4283320375
0.127689 0.072261401 0.64700001 4283451961
0.129434 0.072257102 0.64700001 4283188789
0.13117699 0.072252698 0.64700001 4282926131
0.132921 0.072248399 0.64700001 4283255096
0.13508099 0.072467297 0.64899999 4283189816
0.136618 0.072351202 0.648 4283057717
0.138364 0.072346799 0.648 4283386936
0.139461 0.0720075 0.64499998 4283584315
0.141636 0.072226301 0.64700001 4283518521
0.143378 0.072221898 0.64700001 4283650107
0.145344 0.072329096 0.648 4283781947
0.14731599 0.072436303 0.64899999 4283519034
0.14883301 0.072320297 0.648 4283519034
0.150112 0.072092697 0.64600003 4283913279
0.15161601 0.071976699 0.64499998 4283782206
0.153589 0.072083898 0.64600003 4283847744
0.15532701 0.072079502 0.64600003 4284176711
0.157065 0.072075099 0.64600003 4284110918
0.158803 0.0720708 0.64600003 4283979332
0.16054 0.072066396 0.64600003 4284045125
0.16252901 0.0721737 0.64700001 4283979332
0.16452301 0.072280899 0.648 4284045125
0.166522 0.072388202 0.64899999 4284374090
0.168008 0.072272398 0.648 4284242504
0.170012 0.072379701 0.64899999 4284176452
0.171757 0.072375402 0.64899999 4284242244
0.173768 0.072482802 0.64999998 4284374084
0.175246 0.072367102 0.64899999 4284505927
0.17699 0.072362997 0.64899999 4284571722
0.178183 0.072135903 0.64700001 4284769101
0.1802 0.072243303 0.648 4284571722
0.18166099 0.072127901 0.64700001 4284768588
0.18339901 0.0721239 0.64700001 4284636488
0.185138 0.072120003 0.64700001 4284702535
0.186876 0.072116204 0.64700001 4284701767
0.18861499 0.0721123 0.64700001 4284636489
0.19064701 0.072219998 0.648 4284373831
0.192388 0.072216302 0.648 4284833868
0.193829 0.072101198 0.64700001 4284899921
0.19587 0.072209097 0.648 4284439883
0.197611 0.072205499 0.648 4284834641
0.199352 0.072201997 0.648 4284834641
0.200472 0.071975797 0.64600003 4284834641
0.201895 0.071861103 0.64499998 4285163606
0.20362701 0.071857803 0.64499998 4285031761
0.205679 0.071966 0.64600003 4285492050
0.207736 0.072074302 0.64700001 4285031500
0.209474 0.072071202 0.64700001 4284965967
0.211539 0.072179601 0.648 4284900175
0.212951 0.072065301 0.64700001 4284834128
0.215022 0.072173901 0.648 4284636749
0.21575999 0.071837001 0.64499998 4284900434
0.21783 0.071945801 0.64600003 4284637262
0.219567 0.071943201 0.64600003 4284966227
0.221646 0.072052099 0.64700001 4285097811
0.22304 0.071938403 0.64600003 4284965972
0.225125 0.072047502 0.64700001 4284900179
0.22686499 0.072045296 0.64700001 4285294937
0.228605 0.072043203 0.64700001 4284900434
0.230345 0.072041303 0.64700001 4285163606
0.232086 0.072039403 0.64700001 4285360983
0.23418801 0.072149001 0.648 4285295959
0.235568 0.072035998 0.64700001 4285361750
0.23730899 0.072034501 0.64700001 4285559131
0.239051 0.0720331 0.64700001 4285361752
0.241537 0.072254501 0.64899999 4285822303
0.243285 0.072253302 0.64899999 4285822050
0.244278 0.072029598 0.64700001 4285756257
0.24564099 0.071917303 0.64600003 4286019429
0.246998 0.071805201 0.64499998 4286018915
0.24912301 0.071915902 0.64600003 4286018913
0.250476 0.071804002 0.64499998 4285755741
0.252215 0.0718036 0.64499998 4286019168
0.25356099 0.071692102 0.64399999 4286216547
0.255696 0.071803302 0.64499998 4286150754
0.25743601 0.071803302 0.64499998 4285887841
0.25917801 0.071803503 0.64499998 4286282085
0.26091999 0.071803801 0.64499998 4286479466
0.26266199 0.0718043 0.64499998 4286216808
0.264815 0.071916297 0.64600003 4286479725
0.26656201 0.071917102 0.64600003 4286348139
0.267894 0.071806699 0.64499998 4286085485
0.26922101 0.071696497 0.64399999 4286479473
0.27054301 0.0715864 0.64300001 4286480495
0.27270699 0.071699202 0.64399999 4286283368
0.27402601 0.0715895 0.64300001 4286283107
0.27619699 0.0717026 0.64399999 4286152035
0.27794299 0.071704596 0.64399999 4286085987
0.27969 0.071706802 0.64399999 4286480745
0.28143701 0.071709096 0.64399999 4286612594
0.28362501 0.071823001 0.64499998 4286612594
0.285377 0.071825698 0.64499998 4286546034
0.28713 0.071828596 0.64499998 4286611827
0.28888401 0.071831703 0.64499998 4286808690
0.29063901 0.071834996 0.64499998 4286742897
0.292395 0.071838498 0.64499998 4286940017
0.29415199 0.071842201 0.64499998 4286084708
0.296368 0.071957499 0.64600003 4286545259
0.29813001 0.071961597 0.64600003 4286874222
0.29896399 0.071743198 0.64399999 4287203956
0.300722 0.071747698 0.64399999 4287072370
0.30248201 0.071752504 0.64399999 4286612848
0.30518699 0.071980298 0.64600003 4286415469
0.30600399 0.071762703 0.64399999 4287138424
0.307767 0.071768098 0.64399999 4287204217
0.30953199 0.071773797 0.64399999 4286809460
0.312264 0.072002597 0.64600003 4286940531
0.31355101 0.071897298 0.64499998 4287203703
0.31532201 0.071903698 0.64499998 4287072117
0.31660199 0.071798898 0.64399999 4287072115
0.31837401 0.071805701 0.64399999 4287532666
0.32014599 0.071812898 0.64399999 4287335801
0.32142001 0.071708702 0.64300001 4287533180
0.32369599 0.071827903 0.64399999 4287532666
0.32547301 0.071835801 0.64399999 4287532666
0.32776001 0.071955599 0.64499998 4287204217
0.32903299 0.071852498 0.64399999 4287467389
0.33030099 0.071749598 0.64300001 4287138425
0.332082 0.071758598 0.64300001 4287138425
0.33438399 0.071879499 0.64399999 4287072632
0.336171 0.071889102 0.64399999 4287138171
0.33796099 0.0718989 0.64399999 4287006585
0.33975199 0.0719091 0.64399999 4287071348
0.34207499 0.0720312 0.64499998 4286873969
0.34387299 0.072042003 0.64499998 4287005555
0.34513599 0.071941301 0.64399999 4287400829
0.34585801 0.071729198 0.64200002 4287665029
0.34819499 0.071852602 0.64300001 4287928201
0.34999499 0.071864597 0.64300001 4287796615
0.35179701 0.071876898 0.64300001 4287862408
0.35250199 0.071665898 0.64099997 4287927689
0.355409 0.071902402 0.64300001 4287796103
0.357218 0.071915701 0.64300001 4287467397
0.359588 0.072041199 0.64399999 4287270018
0.361404 0.072055198 0.64399999 4287204992
0.36322299 0.072069503 0.64399999 4287534717
0.36504501 0.072084203 0.64399999 4287797382
0.367439 0.072211199 0.64499998 4287665543
0.36984101 0.072338603 0.64600003 4287204994
0.37167501 0.072354399 0.64600003 4287468164
0.37351301 0.072370604 0.64600003 4287599490
0.37535301 0.072387099 0.64600003 4287928454
0.37661299 0.072292 0.64499998 4287796354
0.37786901 0.072197199 0.64399999 4287928201
0.37971199 0.072214797 0.64399999 4287730310
0.382743 0.072457202 0.64600003 4287664776
0.38578901 0.072700098 0.648 4287467397
0.387054 0.072606802 0.64700001 4287533445
0.38891801 0.072626203 0.64700001 4286283893
0.389577 0.072421402 0.64499998 4285889649
0.391442 0.0724416 0.64499998 4283981652
0.39269999 0.072349802 0.64399999 4287863952
0.395794 0.072595499 0.64600003 4288324503
0.398287 0.072729401 0.64700001 4287929232
0.40140799 0.072976202 0.64899999 4288126611
0.402679 0.072886199 0.648 4288060817
0.40457299 0.072909102 0.648 4288060304
0.405844 0.072819903 0.64700001 4288060304
0.407112 0.0727311 0.64600003 4288388501
0.40964499 0.0728679 0.64700001 4288454294
0.41218701 0.073005296 0.648 4287796879
0.41473901 0.073143303 0.64899999 4288257430
0.41666001 0.073169097 0.64899999 4288389015
0.41858399 0.073195398 0.64899999 4288125843
0.42051199 0.073222198 0.64899999 4287796878
0.423096 0.073362403 0.64999998 4287928718
0.424382 0.073277399 0.64899999 4288586133
0.42566699 0.073192902 0.648 4287665031
0.42761001 0.073221803 0.648 4287665031
0.43022099 0.073364198 0.64899999 4287994508
0.43284199 0.073507302 0.64999998 4287731336
0.434136 0.073424801 0.64899999 4287862925
0.43542901 0.0733428 0.648 4287862925
0.43739599 0.073374502 0.648 4288256913
0.44004601 0.073519997 0.64899999 4287861896
0.44202599 0.073552899 0.64899999 4287533183
0.44469601 0.073699802 0.64999998 4287006324
0.44668901 0.073733903 0.64999998 4287335034
0.45006901 0.073995598 0.65200001 4287138425
0.45069301 0.073804103 0.64999998 4287466620
-0.19962101 0.069796398 0.64200002 4290033841
-0.198204 0.0699085 0.64300001 4289902769
-0.196171 0.069803096 0.64200002 4289705136
-0.194446 0.069806598 0.64200002 4289573550
-0.19272199 0.0698101 0.64200002 4289639343
-0.190997 0.069813602 0.64200002 4289310378
-0.188977 0.069708496 0.64099997 4289244071
-0.187547 0.069820903 0.64200002 4289507243
-0.18582299 0.069824599 0.64200002 4289309348
-0.184384 0.069937102 0.64300001 4289704106
-0.181804 0.069614597 0.63999999 4289572522
-0.18036599 0.069727197 0.64099997 4289506729
-0.178086 0.0695135 0.639 4289506213
-0.176645 0.069626197 0.63999999 4289440420
-0.174925 0.069630198 0.63999999 4289572006
-0.173746 0.069851801 0.64200002 4289506727
-0.171753 0.069747001 0.64099997 4289375141
-0.17003 0.069751099 0.64099997 4289506727
-0.168044 0.069646299 0.63999999 4289572520
-0.166843 0.069868103 0.64200002 4289769899
-0.165374 0.069981098 0.64300001 4289704106
-0.16415399 0.070202902 0.64499998 4289506213
-0.162168 0.070098303 0.64399999 4289637799
-0.15993799 0.069884799 0.64200002 4289966764
-0.157965 0.069780201 0.64099997 4290032557
-0.15624 0.069784403 0.64099997 4289901485
-0.15475699 0.0698976 0.64200002 4289506727
-0.15326799 0.070010699 0.64300001 4289440673
-0.15130199 0.069906101 0.64200002 4289177501
-0.14980701 0.070019297 0.64300001 4289637538
-0.147847 0.069914699 0.64200002 4289242780
-0.146346 0.070027903 0.64300001 4289505437
-0.14416499 0.069814399 0.64099997 4289505691
-0.142662 0.069927603 0.64200002 4289308310
-0.140494 0.069714002 0.63999999 4289308565
-0.138987 0.069827303 0.64099997 4288782221
-0.137261 0.069831602 0.64099997 4288781966
-0.135745 0.069944799 0.64200002 4288518794
-0.133807 0.069840103 0.64099997 4288518796
-0.13208 0.069844402 0.64099997 4288189574
-0.13035201 0.069848597 0.64099997 4287992193
-0.12862501 0.069852903 0.64099997 4287531642
-0.12689701 0.069857098 0.64099997 4287531642
-0.12516899 0.0698613 0.64099997 4287794299
-0.123633 0.069974497 0.64200002 4287465849
-0.121902 0.069978699 0.64200002 4287794814
-0.120357 0.070091903 0.64300001 4287991425
-0.118808 0.070205003 0.64399999 4288386437
-0.117252 0.0703182 0.64499998 4288320644
-0.115512 0.070322298 0.64499998 4287794552
-0.113947 0.070435397 0.64600003 4288189057
-0.111856 0.070221402 0.64399999 4288255365
-0.109947 0.070116401 0.64300001 4288386950
-0.108043 0.070011303 0.64200002 4288320653
-0.106309 0.070015296 0.64200002 4287992195
-0.104738 0.070128202 0.64300001 4288255364
-0.102681 0.069913998 0.64099997 4288057471
-0.10095 0.069917798 0.64099997 4288649094
-0.098908499 0.0697034 0.639 4288254850
-0.097333997 0.069816299 0.63999999 4288386436
-0.095455103 0.069710903 0.639 4288320643
-0.094168 0.070041798 0.64200002 4288321158
-0.092576496 0.0701546 0.64300001 4288124038
-0.091120698 0.070376404 0.64499998 4288189577
-0.089099497 0.0701617 0.64300001 4288321163
-0.087360598 0.070165202 0.64300001 4288518796
-0.085621499 0.070168696 0.64300001 4288255622
-0.084143102 0.070390299 0.64499998 4288321415
-0.082653701 0.070611998 0.64700001 4288650635
-0.080903098 0.070615299 0.64700001 4288321157
-0.079029903 0.070509396 0.64600003 4288518536
-0.077042297 0.070294298 0.64399999 4288321157
-0.075182199 0.070188299 0.64300001 4288781194
-0.073441602 0.070191398 0.64300001 4288978574
-0.071923703 0.070412703 0.64499998 4289043852
-0.070177197 0.070415698 0.64499998 4288978059
-0.068324499 0.070309497 0.64399999 4289110412
-0.066476896 0.070203103 0.64300001 4288913034
-0.064634502 0.070096701 0.64200002 4289110412
-0.062797397 0.069990203 0.64099997 4289045134
-0.061060701 0.0699929 0.64099997 4289044880
-0.059323899 0.0699955 0.64099997 4288847502
-0.057586901 0.069998004 0.64099997 4288518539
-0.056024 0.070218898 0.64300001 4288452746
-0.054365601 0.070330501 0.64399999 4288781708
-0.052619901 0.070332803 0.64399999 4288518536
-0.050795101 0.070225798 0.64300001 4288847501
-0.049051799 0.070228003 0.64300001 4288781962
-0.0473819 0.070339397 0.64399999 4288847755
-0.045493901 0.070123002 0.64200002 4288847501
-0.043684699 0.070015699 0.64099997 4288584842
-0.042011701 0.070126802 0.64200002 4288848014
-0.040395901 0.0703471 0.64399999 4288519049
-0.038589001 0.0702397 0.64300001 4288584587
-0.036901999 0.070350602 0.64399999 4288650380
-0.0351003 0.070243001 0.64300001 4288650380
-0.033355799 0.070244499 0.64300001 4288584589
-0.0316112 0.070246004 0.64300001 4288913554
-0.0298665 0.0702473 0.64300001 4288847504
-0.0280779 0.070139401 0.64200002 4289242265
-0.026335699 0.0701406 0.64200002 4288979093
-0.0245935 0.0701418 0.64200002 4288913554
-0.0229223 0.070361398 0.64399999 4288913554
-0.021141499 0.070253097 0.64300001 4288913552
-0.0194264 0.070363298 0.64399999 4288979345
-0.017678401 0.0703642 0.64399999 4288715915
-0.0159056 0.070255697 0.64300001 4288518536
-0.0141822 0.0703656 0.64399999 4288386950
-0.0123954 0.070147701 0.64200002 4288978574
-0.0106527 0.0701482 0.64200002 4288715915
-0.0088959504 0.070039399 0.64099997 4288057985
-0.0071669701 0.070148997 0.64200002 4289110931
-0.0054240902 0.070149302 0.64200002 4289242517
-0.00369266 0.070368104 0.64399999 4289242517
-0.00195036 0.070586704 0.64600003 4289242779
-0.000194757 0.069931202 0.63999999 4289111708
0.0014993401 0.067964301 0.62199998 4288980122
0.00313671 0.066871502 0.61199999 4289505951
0.0047276001 0.065888003 0.60299999 4289176724
0.0063012801 0.065232098 0.597 4289176724
0.0075238901 0.061953802 0.56699997 4288847768
0.0089672199 0.0612978 0.56099999 4288453786
0.010434 0.060969599 0.55800003 4288520611
0.0118631 0.060532 0.55400002 4285362809
0.0132463 0.059985101 0.54900002 4283587430
0.0145755 0.059328899 0.54299998 4287205016
0.0159902 0.059109699 0.54100001 4284968050
0.017394099 0.058890399 0.53899997 4284967787
0.018857 0.058889601 0.53899997 4284704869
0.020395201 0.059107199 0.54100001 4284441697
0.021863399 0.059106302 0.54100001 4284375904
0.023331599 0.059105199 0.54100001 4283849560
0.024707999 0.058885701 0.53899997 4283783253
0.026121899 0.058775298 0.53799999 4283651666
0.0275304 0.058664799 0.537 4283322955
0.0289874 0.058663499 0.537 4282993222
0.030444199 0.058662198 0.537 4282533185
0.031900998 0.058660802 0.537 4282730311
0.0332334 0.058440901 0.53500003 4282401348
0.034749299 0.058548599 0.53600001 4281677625
0.036203001 0.058547001 0.53600001 4281414453
0.037726901 0.058654599 0.537 4281809211
0.039110102 0.058543701 0.53600001 4283321934
0.040639099 0.058651201 0.537 4283190601
0.042095002 0.058649398 0.537 4283322185
0.043388601 0.0584291 0.53500003 4283124806
0.044755001 0.0583179 0.53399998 4283190601
0.046202399 0.058315899 0.53399998 4282862151
0.047738899 0.058423098 0.53500003 4282862150
0.0491887 0.058421001 0.53500003 4282270013
0.050449099 0.058200501 0.53299999 4282993220
0.051698402 0.0579799 0.53100002 4282861373
0.053036898 0.057868499 0.52999997 4283322179
0.054678001 0.0580846 0.53200001 4283321663
0.056224398 0.0581914 0.53299999 4283321663
0.057884201 0.0584074 0.53500003 4283058489
0.0591111 0.058186602 0.53299999 4283058489
0.060554199 0.058184098 0.53299999 4282992951
0.061648201 0.057854101 0.52999997 4282730040
0.062844701 0.057633199 0.528 4283190075
0.064273797 0.057630599 0.528 4283255354
0.065827101 0.057737101 0.52899998 4282992182
0.067512698 0.057952601 0.53100002 4282794805
0.068949297 0.057949901 0.53100002 4282860596
0.070385702 0.057947099 0.53100002 4282926132
0.071821898 0.057944201 0.53100002 4282794546
0.073671803 0.0582687 0.53399998 4282400045
0.076241098 0.0591387 0.542 4282071080
0.080287099 0.0610996 0.56 4282071080
0.086621404 0.064696699 0.59299999 4282729010
0.091794796 0.0673116 0.61699998 4282794546
0.095582902 0.068835303 0.63099998 4282729010
0.097750597 0.069158897 0.634 4282071080
0.099620402 0.069264203 0.63499999 4282728752
0.101655 0.069478601 0.63700002 4282728752
0.103862 0.069801897 0.63999999 4282465580
0.105921 0.070016101 0.64200002 4282005029
0.10799 0.070230298 0.64399999 4282004515
0.109558 0.070117302 0.64300001 4282136101
0.111294 0.070113301 0.64300001 4282070822
0.112853 0.070000201 0.64200002 4282202408
0.115121 0.070323199 0.64499998 4282597166
0.116499 0.070101097 0.64300001 4282202668
0.118418 0.070206001 0.64399999 4282333995
0.120155 0.070201799 0.64399999 4282860338
0.121892 0.070197597 0.64399999 4282860338
0.123629 0.070193499 0.64399999 4282926131
0.12556 0.070298202 0.64499998 4283254582
0.127496 0.070403002 0.64600003 4283122996
0.12923799 0.070398703 0.64600003 4283122997
0.130979 0.070394397 0.64600003 4283649340
0.132925 0.0704991 0.64700001 4283583547
0.134877 0.070603803 0.648 4283320628
0.13641199 0.070490502 0.64700001 4283189042
0.138155 0.070486203 0.64700001 4283123249
0.139465 0.070263997 0.64499998 4283255349
0.141202 0.070259698 0.64499998 4283386936
0.142939 0.070255302 0.64499998 4283912766
0.145124 0.070468798 0.64700001 4283650108
0.14732 0.070682302 0.64899999 4283255096
0.148837 0.070569098 0.648 4283452475
0.15011699 0.070346899 0.64600003 4283781693
0.15115 0.0700159 0.64300001 4283584827
0.153356 0.070229404 0.64499998 4283518779
0.155091 0.070225097 0.64499998 4283913280
0.157069 0.070329703 0.64600003 4283781953
0.158315 0.070107698 0.64399999 4284045125
0.16029599 0.070212297 0.64499998 4283979332
0.16203099 0.070208102 0.64499998 4283979332
0.16427299 0.070421599 0.64700001 4283979332
0.165756 0.070308499 0.64600003 4283979332
0.167753 0.070413202 0.64700001 4283913539
0.16949201 0.070409 0.64700001 4284308295
0.17176101 0.070622496 0.64899999 4284110658
0.17323799 0.070509598 0.648 4283781947
0.17498 0.0705055 0.648 4284176705
0.176449 0.070392698 0.64700001 4284308550
0.178187 0.070388697 0.64700001 4284242502
0.17992599 0.070384704 0.64700001 4284505676
0.181384 0.070271999 0.64600003 4284505676
0.182836 0.070159301 0.64499998 4284703055
0.184283 0.070046701 0.64399999 4284571469
0.18630201 0.070151702 0.64499998 4284834128
0.188327 0.070256703 0.64600003 4284439883
0.190357 0.0703618 0.64700001 4284637262
0.192095 0.070358098 0.64700001 4284702795
0.19383299 0.070354603 0.64700001 4285032018
0.19587301 0.070459701 0.648 4284505674
0.197919 0.070565 0.64899999 4284900432
0.19935501 0.070452802 0.648 4284571469
0.20078599 0.070340797 0.64700001 4284505676
0.20189799 0.070119999 0.64499998 4284637262
0.203315 0.070008099 0.64399999 4284703308
0.20568199 0.0702224 0.64600003 4284966221
0.207739 0.070327997 0.64700001 4284637002
0.209153 0.070216298 0.64600003 4284834381
0.210889 0.070213303 0.64600003 4284702796
0.21229599 0.070101798 0.64499998 4285031507
0.214029 0.070099004 0.64499998 4284965714
0.21475901 0.069770299 0.64200002 4285097813
0.217159 0.069985099 0.64399999 4284703055
0.21889 0.069982499 0.64399999 4284703055
0.220963 0.070088796 0.64499998 4285032020
0.222697 0.070086397 0.64499998 4285031765
0.22477899 0.070192903 0.64600003 4285163351
0.22686701 0.070299298 0.64700001 4285031765
0.22825401 0.070188597 0.64600003 4285097813
0.229991 0.070186697 0.64600003 4285032020
0.231729 0.070184797 0.64600003 4285361238
0.23382799 0.070291698 0.64700001 4285427029
0.23520499 0.070181496 0.64600003 4285230164
0.236944 0.070179902 0.64600003 4285230166
0.238313 0.070069902 0.64499998 4285558617
0.240794 0.070285901 0.64700001 4285163859
0.24216101 0.070176102 0.64600003 4284966739
0.243901 0.070175 0.64600003 4285229913
0.244881 0.069956802 0.64399999 4285558362
0.246999 0.070064597 0.64499998 4285689948
0.24873801 0.070063896 0.64499998 4285821789
0.250476 0.070063397 0.64499998 4285624410
0.251825 0.069954298 0.64399999 4285690717
0.253562 0.069954097 0.64399999 4285888096
0.255299 0.069953904 0.64399999 4285953634
0.25703701 0.069953904 0.64399999 4285427806
0.25837401 0.069845401 0.64300001 4286151015
0.26010999 0.069845699 0.64300001 4286347880
0.26144001 0.069737501 0.64200002 4286084967
0.26399499 0.069955297 0.64399999 4286216553
0.26532301 0.069847398 0.64300001 4286479727
0.26706201 0.069848299 0.64300001 4286874231
0.268383 0.069740698 0.64200002 4286479223
0.26969999 0.069633298 0.64099997 4286216058
0.27143499 0.069634698 0.64099997 4286546540
0.27274501 0.069527604 0.63999999 4286546538
0.27533701 0.069746599 0.64200002 4286678379
0.277078 0.069748402 0.64200002 4286349414
0.27925301 0.069859102 0.64300001 4286678124
0.280561 0.069752701 0.64200002 4286612848
0.28230399 0.0697551 0.64200002 4286612594
0.28360501 0.0696491 0.64099997 4286612341
0.28579199 0.069760501 0.64200002 4286546034
0.28753701 0.069763497 0.64200002 4286480241
0.28883299 0.069657996 0.64099997 4286611311
0.29057801 0.069661297 0.64099997 4287203189
0.29278001 0.0697736 0.64200002 4286874224
0.29590499 0.070103399 0.64499998 4286018913
0.297203 0.069998696 0.64399999 4286545257
0.298031 0.069785401 0.64200002 4287532407
0.299784 0.069789797 0.64200002 4287466873
0.30200699 0.069903098 0.64300001 4287467389
0.303765 0.069907904 0.64300001 4286744180
0.30457401 0.069695503 0.64099997 4287138425
0.306328 0.069700703 0.64099997 4287072632
0.30856499 0.069815002 0.64200002 4286875253
0.31129101 0.070038199 0.64399999 4287072117
0.312572 0.069935396 0.64300001 4287203703
0.313849 0.069832802 0.64200002 4287401082
0.315613 0.069839202 0.64200002 4287532666
0.31787199 0.069954596 0.64300001 4287664252
0.32013899 0.070070297 0.64399999 4287270008
0.32141301 0.0699687 0.64300001 4287336056
0.323688 0.0700849 0.64399999 4287532919
0.32495999 0.069983803 0.64300001 4287400827
0.32724401 0.070100501 0.64399999 4287532666
0.32800201 0.069890998 0.64200002 4287532668
0.33029199 0.0700083 0.64300001 4287533182
0.33103999 0.069799297 0.64099997 4287664768
0.333336 0.069917098 0.64200002 4287664769
0.33564001 0.070035301 0.64300001 4287336318
0.33742601 0.070044897 0.64300001 4287664769
0.33868599 0.069945797 0.64200002 4287598461
0.34100401 0.070064798 0.64300001 4287400568
0.34332901 0.070184201 0.64399999 4287071603
0.34512499 0.070194997 0.64399999 4287400568
0.346385 0.070096999 0.64300001 4286743152
0.34818301 0.070108302 0.64300001 4287401082
0.34998301 0.070119902 0.64300001 4287006838
0.35123801 0.070022799 0.64200002 4287137910
0.35248899 0.069926001 0.64099997 4287203703
0.35484299 0.070047602 0.64200002 4287137910
0.35720399 0.070169598 0.64300001 4287137141
0.359016 0.070182897 0.64300001 4287269241
0.360829 0.070196398 0.64300001 4287138173
0.362645 0.0702103 0.64300001 4287402111
0.36502999 0.070333801 0.64399999 4287665029
0.36742401 0.070457697 0.64499998 4287796617
0.36982501 0.070581898 0.64600003 4287796615
0.371084 0.070487998 0.64499998 4287862148
0.37291899 0.070503697 0.64499998 4287664769
0.375337 0.070629098 0.64600003 4287993219
0.376012 0.070426904 0.64399999 4287927426
0.37726501 0.0703343 0.64300001 4288058759
0.379105 0.070351399 0.64300001 4287664515
0.38154 0.070478402 0.64399999 4287861894
0.383984 0.0706058 0.64499998 4287401857
0.38464299 0.0704052 0.64300001 4287796615
0.38649499 0.070423901 0.64300001 4287402373
0.38774601 0.070333503 0.64200002 4286086774
0.38960099 0.070352897 0.64200002 4282731585
0.39207 0.0704825 0.64300001 4285692784
0.39515999 0.070722103 0.64499998 4288390297
0.39765 0.070852697 0.64600003 4288389783
0.40014899 0.0709837 0.64700001 4288126610
0.40141401 0.070895702 0.64600003 4287994511
0.40330201 0.070917897 0.64600003 4287731339
0.40393901 0.070721 0.64399999 4288126097
0.405828 0.070744 0.64399999 4288125329
0.408355 0.070877403 0.64499998 4288586394
0.41089001 0.071011297 0.64600003 4287928465
0.413436 0.071145803 0.64700001 4288125844
0.41534999 0.071170799 0.64700001 4288586395
0.416623 0.071086302 0.64600003 4288389015
0.41918999 0.071222402 0.64700001 4287928464
0.42111599 0.071248896 0.64700001 4287862925
0.42304701 0.071275897 0.64700001 4288191889
0.42498201 0.071303502 0.64700001 4288257682
0.42626199 0.071221299 0.64600003 4287994248
0.42820299 0.071249902 0.64600003 4287731076
0.43081501 0.071389303 0.64700001 4288059787
0.43276799 0.071419001 0.64700001 4287993996
0.434726 0.071449198 0.64700001 4287862671
0.43669 0.071479999 0.64700001 4287796879
0.438658 0.071511298 0.64700001 4288059536
0.44131199 0.071653798 0.648 4287664776
0.44397801 0.071796998 0.64899999 4287466883
0.445281 0.071719497 0.648 4287334782
0.44727299 0.071753196 0.648 4286742899
0.44927099 0.071787603 0.648 4286940278
-0.199002 0.067851402 0.63999999 4289770669
-0.19759101 0.067960598 0.64099997 4289705390
-0.195563 0.067857899 0.63999999 4289639343
-0.19384401 0.067861304 0.63999999 4289836723
-0.192425 0.067970797 0.64099997 4289902516
-0.190703 0.067974299 0.64099997 4289902002
-0.18927599 0.068083897 0.64200002 4289770416
-0.187259 0.0679814 0.64099997 4290033841
-0.185247 0.067878999 0.63999999 4290033841
-0.18352801 0.067882702 0.63999999 4290033071
-0.18095601 0.067568198 0.63700002 4289901487
-0.179526 0.067677997 0.63800001 4290164145
-0.177811 0.067681797 0.63800001 4290361524
-0.176373 0.0677917 0.639 4290229938
-0.174656 0.067795597 0.639 4290230452
-0.173209 0.067905597 0.63999999 4290098866
-0.171489 0.067909598 0.63999999 4289836208
-0.169503 0.067807503 0.639 4289836208
-0.167523 0.067705303 0.63800001 4289770415
-0.166068 0.067815498 0.639 4289967280
-0.164864 0.068031803 0.64099997 4290098864
-0.163395 0.068141997 0.64200002 4289967278
-0.16141701 0.068039998 0.64099997 4289704106
-0.15919501 0.067831799 0.639 4289572520
-0.15747599 0.067835897 0.639 4289573290
-0.155757 0.067840099 0.639 4289441704
-0.15452 0.068056598 0.64099997 4289375911
-0.153034 0.068167001 0.64200002 4289770669
-0.151071 0.068065003 0.64099997 4289244325
-0.14934599 0.068069197 0.64099997 4289506727
-0.14715999 0.067860998 0.639 4289703592
-0.145667 0.067971401 0.63999999 4289703845
-0.14394499 0.067975603 0.63999999 4289835686
-0.142444 0.068085998 0.64099997 4289769893
-0.140498 0.067984 0.63999999 4289572512
-0.138991 0.068094403 0.64099997 4289506719
-0.137051 0.067992397 0.63999999 4289572514
-0.135538 0.068102904 0.64099997 4288980122
-0.133811 0.068107001 0.64099997 4288980122
-0.132084 0.068111204 0.64099997 4289045915
-0.130153 0.068009101 0.63999999 4288782998
-0.12822799 0.067906998 0.639 4289176986
-0.126505 0.0679112 0.639 4288847761
-0.124587 0.067809001 0.63800001 4288716175
-0.122867 0.067813098 0.63800001 4288453003
-0.121336 0.067923501 0.639 4288189831
-0.120174 0.068246402 0.64200002 4288386953
-0.118627 0.068356797 0.64300001 4287925632
-0.117074 0.0684672 0.64399999 4287729021
-0.114978 0.068258502 0.64200002 4288057985
-0.113422 0.068368897 0.64300001 4288057471
-0.111339 0.068160199 0.64099997 4287794814
-0.109609 0.068164103 0.64099997 4287992705
-0.107542 0.0679553 0.639 4288057738
-0.105816 0.0679591 0.639 4287794814
-0.104254 0.068069302 0.63999999 4287860859
-0.102685 0.068179399 0.64099997 4288386690
-0.100954 0.068183199 0.64099997 4288583815
-0.099067003 0.0680805 0.63999999 4288057471
-0.097185597 0.067977801 0.639 4288254850
-0.095458701 0.067981496 0.639 4288320643
-0.094024897 0.068197802 0.64099997 4288386953
-0.0922921 0.0682014 0.64099997 4288123781
-0.090700403 0.068311296 0.64200002 4288320906
-0.088964403 0.068314798 0.64200002 4288123527
-0.087092303 0.068211801 0.64099997 4288058245
-0.085491799 0.068321601 0.64200002 4288387210
-0.083755098 0.068324901 0.64200002 4288255622
-0.082273699 0.068540998 0.64399999 4288189571
-0.0804061 0.0684378 0.64300001 4288057985
-0.0787884 0.068547502 0.64399999 4288321157
-0.076925799 0.068444103 0.64300001 4288320644
-0.075068399 0.068340801 0.64200002 4288386437
-0.073330402 0.068343803 0.64200002 4288320644
-0.071703702 0.0684532 0.64300001 4288320129
-0.070071302 0.068562597 0.64399999 4288714887
-0.068221197 0.0684589 0.64300001 4287926138
-0.066376299 0.0683553 0.64200002 4288255104
-0.064637199 0.068357997 0.64200002 4288386690
-0.062799998 0.068254203 0.64099997 4288649608
-0.060968101 0.068150297 0.63999999 4288321158
-0.059141301 0.068046302 0.639 4288584332
-0.057499502 0.068155304 0.63999999 4288583562
-0.0558521 0.068264201 0.64099997 4289109908
-0.054114699 0.068266504 0.64099997 4288650125
-0.052295301 0.0681623 0.63999999 4288979088
-0.050560299 0.068164498 0.63999999 4288650122
-0.048901401 0.068273097 0.64099997 4288452743
-0.0471633 0.068275198 0.64099997 4288979087
-0.045283299 0.068064101 0.639 4288650122
-0.043550398 0.068066098 0.639 4289044880
-0.041882701 0.068174496 0.63999999 4288847501
-0.040272199 0.068389297 0.64200002 4288584587
-0.0384707 0.068284497 0.64099997 4288518796
-0.036731798 0.068286099 0.64099997 4288584587
-0.034992699 0.0682877 0.64099997 4288452743
-0.033253599 0.068289198 0.64099997 4288584330
-0.031514298 0.068290599 0.64099997 4288979087
-0.029774901 0.068291999 0.64099997 4288913295
-0.027991701 0.0681867 0.63999999 4288716175
-0.0262549 0.0681879 0.63999999 4288716175
-0.024517899 0.068189003 0.63999999 4288650382
-0.0228165 0.068296596 0.64099997 4288847761
-0.0210438 0.068191104 0.63999999 4288782221
-0.019336799 0.068298496 0.64099997 4289045393
-0.0176243 0.068405896 0.64200002 4288715915
-0.015856899 0.068300098 0.64099997 4288452743
-0.0140948 0.068194203 0.63999999 4289044366
-0.0123188 0.067981698 0.63800001 4289044367
-0.0106034 0.0680888 0.639 4288650123
-0.0088547198 0.067982599 0.63800001 4288255365
-0.00712264 0.067983001 0.63800001 4289110931
-0.0053989901 0.068089798 0.639 4289308310
-0.0036756301 0.068303198 0.64099997 4289176724
-0.00195045 0.0688361 0.64600003 4289177240
-0.00019507 0.068303302 0.64099997 4289308573
0.0015018201 0.066385299 0.62300003 4289308573
0.0031214701 0.064893402 0.60900003 4289243033
0.0047199801 0.064147301 0.602 4289374105
0.0062593501 0.063188002 0.59299999 4289045138
0.0074976902 0.0602041 0.565 4288584596
0.0089995898 0.0599907 0.56300002 4288782490
0.0104345 0.059457399 0.55800003 4288783269
0.0118636 0.0590307 0.55400002 4284836465
0.0132228 0.0583909 0.54799998 4285166462
0.0145761 0.057857499 0.54299998 4285692031
0.015991 0.0576437 0.54100001 4284836718
0.0173949 0.057429802 0.53899997 4284310111
0.018857799 0.057429001 0.53899997 4283980631
0.020358499 0.057534698 0.54000002 4283783253
0.021864399 0.057640299 0.54100001 4283191376
0.0233326 0.057639301 0.54100001 4282796104
0.024800699 0.057638202 0.54100001 4282401600
0.026220201 0.057530601 0.54000002 4281612084
0.027685501 0.057529401 0.54000002 4281743923
0.0290966 0.057421599 0.53899997 4281414188
0.0306157 0.057526801 0.54000002 4282203704
0.032021198 0.057418901 0.53899997 4282467392
0.0334212 0.057310998 0.53799999 4281940797
0.034815699 0.057202999 0.537 4281677625
0.0363397 0.057307899 0.53799999 4281874749
0.037868999 0.057412799 0.53899997 4282006335
0.039257701 0.057304699 0.53799999 4283124555
0.0407166 0.0573029 0.53799999 4283255625
0.0421752 0.057301201 0.53799999 4283124294
0.0436338 0.057299301 0.53799999 4282926915
0.044924598 0.0570844 0.53600001 4282071865
0.046290901 0.056976002 0.53500003 4282006074
0.047740899 0.056974001 0.53500003 4281809463
0.049098901 0.056865498 0.53399998 4281743669
0.0504512 0.056756899 0.53299999 4282204474
0.051700599 0.0565418 0.53100002 4282861887
0.0530391 0.0564331 0.52999997 4283124800
0.054474801 0.056430899 0.52999997 4283321663
0.056121301 0.0566415 0.53200001 4283190075
0.057670299 0.0567456 0.53299999 4283321661
0.059224501 0.056849699 0.53399998 4282926903
0.060670301 0.0568473 0.53399998 4283124282
0.061767001 0.056525402 0.53100002 4283387456
0.062966302 0.056310002 0.52899998 4283058491
0.064276397 0.056201 0.528 4283255354
0.065954097 0.0564113 0.52999997 4283255354
0.067642599 0.056621499 0.53200001 4283057975
0.069081903 0.056618799 0.53200001 4282860596
0.070653602 0.056722399 0.53299999 4282794546
0.072095297 0.056719601 0.53299999 4282860339
0.073950604 0.057036001 0.53600001 4282662960
0.076666102 0.057990801 0.54500002 4282400045
0.0814372 0.060435001 0.56800002 4282662960
0.0876472 0.0638365 0.60000002 4282860339
0.092393503 0.066067301 0.62099999 4282860339
0.095586598 0.0671276 0.63099998 4282597167
0.097600102 0.067336701 0.63300002 4282334252
0.099310301 0.067333102 0.63300002 4282662959
0.101339 0.067542098 0.63499999 4282991925
0.103542 0.0678574 0.63800001 4282400040
0.10543 0.067960002 0.639 4282399274
0.107658 0.068275198 0.64200002 4282333480
0.109221 0.068164997 0.64099997 4282070308
0.111298 0.068373702 0.64300001 4281939237
0.113033 0.068369702 0.64300001 4282070823
0.114947 0.068472102 0.64399999 4281939749
0.116141 0.068149097 0.64099997 4282202668
0.117687 0.068038799 0.63999999 4282465581
0.1196 0.068140998 0.64099997 4282531373
0.121329 0.068136998 0.64099997 4282466599
0.123057 0.0681329 0.64099997 4282860851
0.12498 0.068235099 0.64200002 4282794545
0.127106 0.0684435 0.64399999 4282926132
0.128842 0.068439297 0.64399999 4282728755
0.130578 0.068435103 0.64399999 4283254582
0.132313 0.068430901 0.64399999 4283188789
0.134257 0.068533003 0.64499998 4283254836
0.135784 0.068422496 0.64399999 4283254835
0.137518 0.068418302 0.64399999 4283518261
0.13882101 0.068201602 0.64200002 4283255349
0.14055 0.068197399 0.64200002 4283518008
0.1425 0.068299398 0.64300001 4283518008
0.14467999 0.068507597 0.64499998 4283912512
0.14641599 0.068503402 0.64499998 4283584061
0.14792299 0.068392903 0.64399999 4284109891
0.149424 0.0682825 0.64300001 4283912765
0.15091901 0.068172097 0.64200002 4283584568
0.152647 0.068167903 0.64200002 4283584568
0.15413301 0.0680575 0.64099997 4283584314
0.156101 0.068159498 0.64200002 4283979073
0.157582 0.0680492 0.64099997 4284110405
0.159803 0.068257302 0.64300001 4284176198
0.161281 0.068147101 0.64200002 4284045125
0.16326199 0.068249099 0.64300001 4284045125
0.16499101 0.068245001 0.64300001 4283913539
0.166979 0.068347 0.64399999 4284308295
0.168972 0.068449102 0.64499998 4284374343
0.17097101 0.068551198 0.64600003 4284242498
0.17270701 0.0685471 0.64600003 4283979326
0.173904 0.068330899 0.64399999 4284110912
0.17536201 0.068220899 0.64300001 4284242244
0.176814 0.068110898 0.64200002 4284439883
0.178818 0.068213098 0.64300001 4284308297
0.18026499 0.068103202 0.64200002 4284242249
0.18199 0.068099402 0.64200002 4284505421
0.183428 0.067989603 0.64099997 4284702800
0.185728 0.068198003 0.64300001 4284439628
0.187747 0.068300404 0.64399999 4284637007
0.18977199 0.068402797 0.64499998 4284505676
0.191208 0.068293199 0.64399999 4284768846
0.192938 0.068289697 0.64399999 4284703308
0.19466799 0.068286203 0.64399999 4284637515
0.196398 0.068282798 0.64399999 4284703308
0.19843601 0.068385497 0.64499998 4284571467
0.200168 0.068382204 0.64499998 4284571469
0.20127501 0.068166897 0.64300001 4284834641
0.202687 0.068057701 0.64200002 4284768846
0.20473 0.068160698 0.64300001 4284703053
0.206457 0.068157598 0.64300001 4284768589
0.20786101 0.068048701 0.64200002 4284965968
0.20958599 0.068045802 0.64200002 4284637003
0.21164 0.068149 0.64300001 4284570956
0.213368 0.068146303 0.64300001 4284702542
0.21442699 0.067931697 0.64099997 4284768335
0.21648701 0.068035103 0.64200002 4284900175
0.21787199 0.067926601 0.64099997 4284768848
0.219938 0.068030201 0.64200002 4284703055
0.221664 0.068027899 0.64200002 4284965972
0.224086 0.068237603 0.64399999 4285360732
0.22581699 0.068235502 0.64399999 4285229144
0.22719599 0.068127498 0.64300001 4285032020
0.228925 0.068125598 0.64300001 4285229397
0.230655 0.068123698 0.64300001 4285163859
0.232384 0.068122 0.64300001 4285032273
0.23411401 0.068120398 0.64300001 4285032018
0.235845 0.0681189 0.64300001 4284900432
0.23757599 0.068117499 0.64300001 4285097813
0.23967899 0.068222098 0.64399999 4285097813
0.241413 0.068220899 0.64399999 4285492571
0.24277 0.068113901 0.64300001 4285624157
0.24450199 0.068112999 0.64300001 4285426776
0.246234 0.068112202 0.64300001 4285755741
0.247967 0.068111502 0.64300001 4285558617
0.249312 0.068005003 0.64200002 4285689948
0.25104299 0.068004496 0.64200002 4286019682
0.252774 0.068004198 0.64200002 4286348392
0.25450599 0.068003997 0.64200002 4286217322
0.256239 0.068003997 0.64200002 4286217069
0.25837401 0.068109997 0.64300001 4286216808
0.25970599 0.068004303 0.64200002 4286151015
0.26144001 0.068004698 0.64200002 4285953383
0.263174 0.068005197 0.64200002 4286216555
0.26449701 0.067900002 0.64099997 4286150762
0.26581499 0.067794897 0.63999999 4286019429
0.26796401 0.067901798 0.64099997 4286150762
0.26969901 0.0679029 0.64099997 4286348141
0.27143401 0.067904197 0.64099997 4286283115
0.27231801 0.0676938 0.639 4286085989
0.27447799 0.067801401 0.63999999 4286086242
0.27578101 0.067697197 0.639 4286020449
0.278382 0.067910999 0.64099997 4286283113
0.27968499 0.067807198 0.63999999 4286085736
0.28098199 0.067703597 0.639 4286677359
0.28271699 0.067706101 0.639 4286808692
0.284899 0.0678147 0.63999999 4286874738
0.286639 0.067817502 0.63999999 4286874224
0.28837901 0.067820601 0.63999999 4287005808
0.29012099 0.067823797 0.63999999 4286874477
0.29232001 0.067933202 0.64099997 4286940268
0.294525 0.0680428 0.64200002 4285492822
0.29673699 0.068152599 0.64300001 4286151256
0.29756299 0.067944601 0.64099997 4287005810
0.299312 0.067948803 0.64099997 4287071603
0.301063 0.067953303 0.64099997 4286809206
0.30328801 0.0680639 0.64200002 4286940792
0.304093 0.067856699 0.63999999 4287138425
0.30536699 0.067755803 0.639 4286875252
0.308079 0.0679731 0.64099997 4287138424
0.309836 0.067978598 0.64099997 4286875252
0.31159401 0.067984402 0.64099997 4287203703
0.31335399 0.067990303 0.64099997 4286875252
0.315115 0.067996502 0.64099997 4287270010
0.31687701 0.068002902 0.64099997 4287203703
0.31814399 0.067903496 0.63999999 4287401596
0.319906 0.067910403 0.63999999 4287598714
0.322173 0.068023697 0.64099997 4287335028
0.32394099 0.068031102 0.64099997 4287270002
0.325203 0.067932598 0.63999999 4287598459
0.32646099 0.067834303 0.639 4287993219
0.32822901 0.067842498 0.639 4287664254
0.329999 0.067850903 0.639 4287533182
0.33177 0.067859598 0.639 4287862148
0.33406499 0.067974702 0.63999999 4287731075
0.33584201 0.067983903 0.63999999 4287599489
0.337621 0.067993402 0.63999999 4287730561
0.339403 0.0680032 0.63999999 4287795326
0.340653 0.067906998 0.639 4286479466
0.342971 0.068023697 0.63999999 4287005810
0.344758 0.068034299 0.63999999 4287137394
0.34654701 0.068045199 0.63999999 4287268980
0.347794 0.0679501 0.639 4287269494
0.349585 0.0679617 0.639 4287071601
0.35137701 0.067973502 0.639 4287005810
0.353172 0.067985602 0.639 4286874224
0.35552499 0.068104498 0.63999999 4286676845
0.35732701 0.068117298 0.63999999 4287334775
0.35969299 0.068236902 0.64099997 4287005555
0.360939 0.068143897 0.63999999 4287467390
0.363316 0.068264097 0.64099997 4287401343
0.36570001 0.068384796 0.64200002 4286809722
0.36809301 0.068505801 0.64300001 4287137920
0.36934301 0.0684141 0.64200002 4286940541
