# .PCD v0.7 - Point Cloud Data file format
VERSION 0.7
FIELDS x y z rgb
SIZE 4 4 4 4
TYPE F F F U
COUNT 1 1 1 1
WIDTH 1112
HEIGHT 1
VIEWPOINT 0 0 0 1 0 0 0
POINTS 1112
DATA ascii
0.127543 0.24396899 0.63099998 4286286227
0.133754 0.252478 0.653 4286286227
0.140499 0.26176 0.67699999 4286286227
0.147163 0.27065599 0.69999999 4286286227
0.15501601 0.281486 0.72799999 4286286227
0.16086499 0.28844899 0.74599999 4286482577
0.1655 0.293093 0.75800002 4286350475
0.167991 0.29387 0.75999999 4285626491
0.170716 0.295035 0.76300001 4284376420
0.17277899 0.29504001 0.76300001 4286020971
0.175299 0.295818 0.76499999 4287073913
0.17783099 0.29659599 0.76700002 4287401857
0.180609 0.29776201 0.76999998 4287796615
0.182928 0.298154 0.77100003 4287730824
0.184773 0.29777399 0.76999998 4287533445
0.186856 0.29778001 0.76999998 4287598724
0.189184 0.29817301 0.77100003 4287599238
0.19151799 0.298567 0.77200001 4287467652
0.19410899 0.299348 0.77399999 4287796868
0.19620299 0.299355 0.77399999 4287467903
0.19829801 0.29936299 0.77399999 4287467903
0.199876 0.29859799 0.77200001 4287467903
0.202489 0.29938 0.77399999 4287533696
0.204321 0.29900199 0.773 4287467650
0.206949 0.29978499 0.77499998 4287336064
0.209048 0.29979399 0.77499998 4287533443
0.21142 0.30019099 0.77600002 4287665029
0.213523 0.300201 0.77600002 4287598724
0.215627 0.300212 0.77600002 4287467136
0.217731 0.30022299 0.77600002 4287533183
0.219835 0.300235 0.77600002 4287533183
0.221368 0.29947299 0.77399999 4287598975
0.22346701 0.299485 0.77399999 4287401596
0.22527599 0.29911101 0.773 4287532666
0.227962 0.299898 0.77499998 4287730300
0.23066001 0.300686 0.77700001 4287664507
0.23307 0.30108699 0.778 4287730300
0.234881 0.30071399 0.77700001 4287532666
0.236687 0.30034199 0.77600002 4287795840
0.238796 0.300358 0.77600002 4287598975
0.240595 0.29998699 0.77499998 4287664769
0.243329 0.30077699 0.77700001 4287927687
0.245758 0.30118099 0.778 4287729794
0.247556 0.30081201 0.77700001 4287663999
0.249993 0.30121699 0.778 4287598206
0.25178701 0.30084801 0.77700001 4287598206
0.25455701 0.301642 0.77899998 4287729792
0.256679 0.301662 0.77899998 4287533183
0.25913501 0.30206901 0.77999997 4287533182
0.26025701 0.300928 0.77700001 4287664768
0.26237601 0.30094999 0.77700001 4287401596
0.26415601 0.30058399 0.77600002 4287927940
0.26696101 0.30138099 0.778 4287598461
0.26908499 0.30140501 0.778 4287730047
0.27190799 0.302203 0.77999997 4287532415
0.27404001 0.302228 0.77999997 4287598724
0.276173 0.30225301 0.77999997 4287532931
0.27830601 0.302279 0.77999997 4287730310
0.28008199 0.301918 0.77899998 4287861894
0.28185201 0.301557 0.778 4287730308
0.28361899 0.30119801 0.77700001 4287467136
0.285748 0.30122599 0.77700001 4287532929
0.28824899 0.30164301 0.778 4287796101
0.29038399 0.301673 0.778 4288058759
0.29251999 0.30170399 0.778 4287730561
0.294278 0.30134699 0.77700001 4287401596
0.297176 0.30215499 0.77899998 4287927426
0.29970199 0.30257601 0.77999997 4287598208
0.30184799 0.30261001 0.77999997 4287533182
0.30399501 0.30264401 0.77999997 4287533182
0.306144 0.30267999 0.77999997 4287532668
0.308294 0.30271599 0.77999997 4287137910
0.31044501 0.302753 0.77999997 4287466875
0.312998 0.303179 0.78100002 4287532154
0.315155 0.30321801 0.78100002 4287268982
0.31731299 0.30325699 0.78100002 4286676845
0.31906399 0.30291 0.77999997 4286413673
0.32122201 0.30295101 0.77999997 4287532154
0.32338199 0.302993 0.77999997 4287466875
0.325544 0.303036 0.77999997 4287466875
0.32770699 0.30307999 0.77999997 4287335804
0.330295 0.303514 0.78100002 4287270011
0.33246401 0.30355999 0.78100002 4287335034
0.33463499 0.30360699 0.78100002 4287598206
0.337239 0.30404401 0.78200001 4287401082
0.339416 0.304093 0.78200001 4287861372
0.341158 0.303754 0.78100002 4287137649
0.343337 0.30380499 0.78100002 4287269233
0.34551701 0.30385801 0.78100002 4287268727
0.34680799 0.30313301 0.77899998 4287203187
0.349435 0.30357599 0.77999997 4287400566
0.35116699 0.303242 0.77899998 4287335028
0.35380301 0.30368701 0.77999997 4287466359
0.35599101 0.303745 0.77999997 4287598198
0.358639 0.30419299 0.78100002 4287598198
0.361296 0.30464199 0.78200001 4287466612
0.363031 0.30431399 0.78100002 4287532405
0.36522999 0.30437601 0.78100002 4285689943
0.366961 0.30405 0.77999997 4286346843
0.36963499 0.30450401 0.78100002 4285754960
0.37184101 0.30456999 0.78100002 4286280790
0.37452799 0.30502701 0.78200001 4286872927
0.37626001 0.30470499 0.78100002 4286610015
0.37798899 0.30438501 0.77999997 4286346843
0.38020301 0.304456 0.77999997 4286478683
0.382909 0.30491799 0.78100002 4286281295
0.38562399 0.30538201 0.78200001 4287202659
0.387851 0.305457 0.78200001 4286610269
0.39008099 0.30553401 0.78200001 4286676576
0.391812 0.30522099 0.78100002 4286742885
0.39353999 0.30490899 0.77999997 4287269229
0.39627999 0.30537999 0.78100002 4287269227
0.39954001 0.306245 0.78299999 4287203440
0.4023 0.30671901 0.78399998 4286808931
0.40352201 0.30602199 0.78200001 4286940515
0.404735 0.30532601 0.77999997 4286479703
0.40541801 0.304239 0.77700001 4286939487
0.40713701 0.303936 0.77600002 4286348127
0.409908 0.30441901 0.77700001 4284177476
0.413219 0.30529499 0.77899998 4283979583
0.41601101 0.30578101 0.77999997 4286743658
0.41934901 0.30666101 0.78200001 4286808937
0.42216399 0.30715099 0.78299999 4287137643
0.42390299 0.306858 0.78200001 4287268976
0.425641 0.306566 0.78100002 4287268715
0.42847201 0.307062 0.78200001 4287071589
0.43186399 0.30795199 0.78399998 4287005794
0.43360999 0.30766499 0.78299999 4287267937
0.437024 0.30856001 0.78500003 4287596903
0.439336 0.30867001 0.78500003 4287465063
0.442213 0.309176 0.78600001 4287267685
0.443405 0.308503 0.78399998 4287136359
0.44572601 0.30861899 0.78399998 4287202152
0.44919401 0.309524 0.78600001 4287334254
0.452104 0.310038 0.787 4287137129
0.45502499 0.310554 0.78799999 4286940262
0.45621499 0.30989 0.78600001 4286940515
0.45798099 0.30962199 0.78500003 4286809689
0.46091899 0.31014401 0.78600001 4286939748
0.46445701 0.311064 0.78799999 4287202416
0.46742001 0.311591 0.78899997 4286939757
0.46979901 0.311726 0.78899997 4287136876
0.47218299 0.31186301 0.78899997 4287203183
0.475173 0.31239799 0.79000002 4287268715
0.47757101 0.31253999 0.79000002 4287071334
0.479366 0.31228799 0.78899997 4286940003
0.48054999 0.31164199 0.787 4286545496
0.48295501 0.311791 0.787 4286874469
0.48536599 0.311941 0.787 4287005550
0.48716301 0.31169701 0.78600001 4286874222
0.48895901 0.31145599 0.78500003 4287005808
0.49326 0.31280401 0.78799999 4287268980
0.495698 0.31296501 0.78799999 4286742891
0.498142 0.31312799 0.78799999 4287729784
-0.198503 0.29687899 0.773 4287860866
-0.196666 0.29725599 0.77399999 4288057991
-0.194823 0.29763299 0.77499998 4287729540
-0.192726 0.29762599 0.77499998 4287730310
-0.19062901 0.29761899 0.77499998 4287466883
-0.188776 0.297997 0.77600002 4287270020
-0.186437 0.297607 0.77499998 4286217077
-0.184103 0.29721701 0.77399999 4286152054
-0.18130501 0.29606 0.77100003 4287204742
-0.179453 0.29643801 0.77200001 4286875007
-0.177596 0.29681799 0.773 4287072641
-0.175961 0.29758099 0.77499998 4287137918
-0.17364199 0.29719201 0.77399999 4286808953
-0.171772 0.29757199 0.77499998 4286940539
-0.169459 0.29718399 0.77399999 4287203197
-0.167367 0.29718101 0.77399999 4287268736
-0.16527601 0.29717699 0.77399999 4287268990
-0.163185 0.29717401 0.77399999 4287005818
-0.160886 0.29678699 0.773 4287532162
-0.158388 0.29601601 0.77100003 4287400575
-0.156508 0.296397 0.77200001 4287466622
-0.154623 0.29677901 0.773 4287466108
-0.152338 0.29639199 0.77200001 4287729280
-0.149864 0.29562199 0.76999998 4287729280
-0.14759301 0.29523599 0.76899999 4287663487
-0.14551701 0.29523501 0.76899999 4287795073
-0.143254 0.29484901 0.76800001 4287926659
-0.14117999 0.294848 0.76800001 4287729278
-0.139107 0.294846 0.76800001 4287926657
-0.137391 0.29561299 0.76999998 4287861119
-0.135488 0.29599601 0.77100003 4287926912
-0.133579 0.296379 0.77200001 4288058239
-0.13132501 0.29599401 0.77100003 4287663227
-0.12890901 0.29522601 0.76899999 4287663227
-0.12650301 0.29445699 0.76700002 4287597434
-0.124595 0.29484099 0.76800001 4287597947
-0.122842 0.29560801 0.76999998 4287663740
-0.12092 0.29599199 0.77100003 4287663740
-0.118685 0.29560801 0.76999998 4287597945
-0.116456 0.29522401 0.76899999 4287400566
-0.114083 0.29445601 0.76700002 4287729274
-0.112013 0.29445601 0.76700002 4287926139
-0.109799 0.294072 0.76599997 4287991417
-0.107873 0.29445601 0.76700002 4287991164
-0.105665 0.29407299 0.76599997 4287991417
-0.103463 0.29368901 0.76499999 4287991417
-0.101133 0.29292199 0.76300001 4288188796
-0.098944098 0.292539 0.76200002 4287926138
-0.096506298 0.29138699 0.759 4288057725
-0.093586899 0.288701 0.75199997 4287859831
-0.089731298 0.28294301 0.73699999 4288057211
-0.083932698 0.27065799 0.70499998 4287991164
-0.076677904 0.25299901 0.65899998 4287859317
-0.072740003 0.24570499 0.63999999 4287990903
-0.069903299 0.24186701 0.63 4287860092
-0.067445397 0.23918 0.62300003 4287728506
-0.065236397 0.237261 0.61799997 4287662713
-0.063362896 0.236494 0.616 4287793785
-0.0593968 0.22766399 0.59299999 4287268475
-0.057211701 0.225361 0.58700001 4288847769
-0.0553433 0.22420999 0.58399999 4284243034
-0.053767301 0.22421101 0.58399999 4284046685
-0.052012499 0.223444 0.58200002 4284309343
-0.050441898 0.223445 0.58200002 4284244066
-0.048787199 0.223061 0.58099997 4284375650
-0.047219299 0.22306199 0.58099997 4284441696
-0.045415599 0.221911 0.57800001 4284112985
-0.043703999 0.22114401 0.57599998 4283521361
-0.0422226 0.22152799 0.57700002 4283652947
-0.040806402 0.222297 0.579 4283784020
-0.039243702 0.222298 0.579 4283915092
-0.037681099 0.222298 0.579 4283980631
-0.0361185 0.22229899 0.579 4284046424
-0.034615502 0.222683 0.57999998 4284046424
-0.0329362 0.22191601 0.57800001 4283717459
-0.031321902 0.221533 0.57700002 4283716943
-0.029712999 0.221149 0.57599998 4283914322
-0.0281584 0.22115 0.57599998 4283716943
-0.026603799 0.22115099 0.57599998 4283914322
-0.0250492 0.22115099 0.57599998 4283848529
-0.023494501 0.22115099 0.57599998 4283914322
-0.021901799 0.220768 0.57499999 4283849299
-0.0203145 0.220384 0.574 4283849045
-0.0187652 0.220385 0.574 4283914839
-0.0172159 0.220385 0.574 4283980378
-0.015666701 0.220386 0.574 4283914587
-0.0140928 0.220002 0.57300001 4283980378
-0.0125243 0.21961799 0.57200003 4283717459
-0.0109804 0.21961799 0.57200003 4283585873
-0.0094365198 0.21961901 0.57200003 4283783506
-0.0078926096 0.21961901 0.57200003 4284243287
-0.0063376101 0.219235 0.57099998 4283783253
-0.0047964002 0.219235 0.57099998 4283848792
-0.00324378 0.218467 0.56900001 4284177757
-0.00170797 0.218467 0.56900001 4283915099
-0.00017154599 0.2177 0.56699997 4283915099
0.00136127 0.21808299 0.56800002 4284046171
0.00288929 0.21769901 0.56699997 4283914839
0.0044196998 0.21769901 0.56699997 4284046425
0.0059501198 0.21769901 0.56699997 4283783252
0.0074805301 0.21769901 0.56699997 4284112217
0.0090268301 0.21808299 0.56800002 4284112217
0.0105042 0.216931 0.565 4284112217
0.0120292 0.216931 0.565 4284046424
0.0135542 0.21693 0.565 4283980632
0.0150525 0.216546 0.56400001 4284112217
0.016516 0.21577799 0.56199998 4283914839
0.017968699 0.21501 0.56 4284112217
0.019445401 0.214625 0.55900002 4283783506
0.0210291 0.21539301 0.56099999 4284046424
0.0225433 0.21539199 0.56099999 4283914838
0.024057399 0.21539199 0.56099999 4283980632
0.0255716 0.21539199 0.56099999 4284178011
0.027085699 0.215391 0.56099999 4284243552
0.028599801 0.215391 0.56099999 4284243552
0.030006601 0.21462201 0.55900002 4284111966
0.0315153 0.21462201 0.55900002 4284111711
0.033082999 0.215005 0.56 4284309345
0.034532599 0.21461999 0.55900002 4283848792
0.035912301 0.213852 0.55699998 4284046687
0.037281301 0.213083 0.55500001 4283849822
0.038709201 0.212699 0.55400002 4283915615
0.0401318 0.21231399 0.55299997 4284046948
0.041549001 0.21193001 0.55199999 4284112995
0.0431167 0.212313 0.55299997 4284112732
0.0446091 0.212312 0.55299997 4283784281
0.046101499 0.212312 0.55299997 4283718487
0.0475078 0.211927 0.55199999 4283783767
0.048908699 0.211542 0.551 4284112731
0.050395701 0.211542 0.551 4283981146
0.051882699 0.211541 0.551 4284177757
0.053272799 0.21115699 0.55000001 4284111964
0.054557901 0.210388 0.54799998 4283915353
0.0559345 0.210003 0.54699999 4283981659
0.057305701 0.209619 0.546 4284179038
0.058779102 0.209618 0.546 4284244831
0.0601422 0.209234 0.54500002 4284179039
0.061726 0.209617 0.546 4283981662
0.063199401 0.209617 0.546 4283981662
0.064672902 0.20961601 0.546 4284047455
0.065903999 0.208848 0.54400003 4284178271
0.067372099 0.208847 0.54400003 4283783767
0.068713598 0.208463 0.54299998 4284178011
0.070178904 0.208463 0.54299998 4284046939
0.071512297 0.208078 0.542 4284046939
0.072975002 0.208078 0.542 4284573283
0.074300297 0.20769399 0.54100001 4284375904
0.075900398 0.208077 0.542 4283981660
0.077077597 0.20730899 0.54000002 4284047455
0.078244001 0.206541 0.53799999 4284442211
0.079399697 0.20577399 0.53600001 4284179039
0.080695502 0.20539001 0.53500003 4284508004
0.082139298 0.20539001 0.53500003 4284836969
0.083426997 0.205006 0.53399998 4284508004
0.084868297 0.205006 0.53399998 4284244832
0.086309597 0.205006 0.53399998 4284574056
0.087750897 0.205007 0.53399998 4284310630
0.089192197 0.205007 0.53399998 4284573802
0.090633601 0.205007 0.53399998 4284640112
0.092074998 0.205008 0.53399998 4284705905
0.093341403 0.204625 0.53299999 4284772212
0.094780304 0.204625 0.53299999 4285298556
0.0962191 0.20462599 0.53299999 4285167484
0.097658098 0.20462701 0.53299999 4285825414
0.099283002 0.20501199 0.53399998 4286154124
0.101102 0.205781 0.53600001 4286548370
0.10408 0.208854 0.54400003 4286285198
0.109235 0.21615 0.56300002 4286285198
0.116461 0.227285 0.59200001 4286614678
0.123444 0.237653 0.61900002 4286483092
0.128552 0.24418201 0.63599998 4286483092
0.134776 0.25263 0.65799999 4286483092
0.141533 0.26184699 0.68199998 4286483092
0.148211 0.27068099 0.70499998 4286483092
0.155652 0.28066599 0.73100001 4286614678
0.16107699 0.28681299 0.74699998 4286548370
0.165278 0.290656 0.75700003 4286679440
0.167766 0.291428 0.759 4286152328
0.170488 0.292584 0.76200002 4283060307
0.172774 0.292972 0.76300001 4287205246
0.175295 0.29374501 0.76499999 4287533445
0.17759401 0.29413301 0.76599997 4287730824
0.180134 0.29490599 0.76800001 4287664776
0.182448 0.29529601 0.76899999 4287730569
0.184287 0.29491699 0.76800001 4287796362
0.186364 0.29492301 0.76800001 4287927948
0.188196 0.29454601 0.76700002 4287664776
0.19076701 0.29532 0.76899999 4287665031
0.19309901 0.29571101 0.76999998 4287533696
0.195436 0.29610199 0.77100003 4287402110
0.197778 0.29649299 0.77200001 4287665282
0.19935 0.295733 0.76999998 4287731075
0.20169599 0.29612499 0.77100003 4287862662
0.203784 0.296134 0.77100003 4287599236
0.206406 0.296911 0.773 4287598983
0.20876899 0.297304 0.77399999 4287599238
0.211138 0.29769701 0.77499998 4287928203
0.212963 0.29732299 0.77399999 4287467138
0.214505 0.296565 0.77200001 4287532931
0.21659701 0.29657599 0.77200001 4287730308
0.21868999 0.29658699 0.77200001 4287467136
0.22078399 0.29659799 0.77200001 4287796354
0.22287799 0.29661 0.77200001 4287533182
0.224681 0.29623801 0.77100003 4287401080
0.22706699 0.29663399 0.77200001 4287796093
0.23005299 0.2978 0.77499998 4287664507
0.23215701 0.29781401 0.77499998 4287598459
0.234262 0.29782799 0.77499998 4287466875
0.23575699 0.29707399 0.773 4287598461
0.23816501 0.29747301 0.77399999 4287598461
0.24026901 0.297488 0.77399999 4287401597
0.242999 0.298273 0.77600002 4287796355
0.245425 0.29867399 0.77700001 4287730047
0.247539 0.298691 0.77700001 4287861633
0.249332 0.29832399 0.77600002 4287795840
0.25079599 0.297573 0.77399999 4287795585
0.253557 0.29835999 0.77600002 4287729794
0.256001 0.29876399 0.77700001 4287664515
0.25845 0.29916799 0.778 4287664769
0.260236 0.29880399 0.77700001 4287598976
0.262355 0.29882401 0.77700001 4287598975
0.26413399 0.29846099 0.77600002 4287665021
0.26625201 0.29848301 0.77600002 4287467387
0.26837 0.29850501 0.77600002 4287862147
0.27048999 0.298529 0.77600002 4287862147
0.27296099 0.29893699 0.77700001 4287664769
0.27473101 0.29857701 0.77600002 4287533183
0.27721 0.298987 0.77700001 4287927941
0.27897701 0.29862699 0.77600002 4287663999
0.28073901 0.298269 0.77499998 4287664001
0.28249601 0.29791099 0.77399999 4287927173
0.28461701 0.297939 0.77399999 4287663748
0.28747901 0.29873699 0.77600002 4287926920
0.289608 0.29876599 0.77600002 4287861896
0.29211301 0.29918101 0.77700001 4287533443
0.29386801 0.29882601 0.77600002 4287401857
0.296381 0.299243 0.77700001 4287401857
0.29851699 0.29927501 0.77700001 4287270525
0.30104101 0.29969299 0.778 4287467650
0.30357099 0.30011201 0.77899998 4287270525
0.306108 0.30053201 0.77999997 4287598975
0.308258 0.300567 0.77999997 4287533182
0.31000999 0.30021799 0.77899998 4287335803
0.312159 0.300255 0.77899998 4287466875
0.314309 0.300293 0.77899998 4287597945
0.316461 0.30033201 0.77899998 4287071601
0.31779599 0.29960001 0.77700001 4286347878
0.32035699 0.300026 0.778 4287466359
0.32209599 0.29968199 0.77700001 4287532668
0.32466599 0.300109 0.778 4287664515
0.32640299 0.29976699 0.77700001 4287730308
0.32898101 0.30019701 0.778 4287401596
0.330715 0.29985601 0.77700001 4287335803
0.333303 0.30028799 0.778 4287730045
0.335466 0.30033401 0.778 4287663993
0.338065 0.30076799 0.77899998 4287729784
0.34023499 0.30081701 0.77899998 4286874730
0.34196699 0.30048099 0.778 4287466865
0.344138 0.30053201 0.778 4287203946
0.34542 0.29981101 0.77600002 4287137647
0.348037 0.30025101 0.77700001 4287664246
0.34976 0.299918 0.77600002 4286940529
0.352386 0.30035999 0.77700001 4287269494
0.35456401 0.30041599 0.77700001 4287729786
0.35720301 0.30085999 0.778 4287203956
0.358926 0.30053201 0.77700001 4287532921
0.36111099 0.30059099 0.77700001 4286940268
0.36329699 0.300652 0.77700001 4286413666
0.365486 0.30071399 0.77700001 4286347097
0.36815 0.301164 0.778 4286214997
0.370823 0.30161601 0.77899998 4286346068
0.373503 0.30206901 0.77999997 4286609754
0.375229 0.30174899 0.77899998 4286478683
0.37695101 0.301429 0.778 4286478683
0.37867001 0.30111101 0.77700001 4286412890
0.38136601 0.30157 0.778 4286544222
0.383578 0.301642 0.778 4286676578
0.38579199 0.30171499 0.778 4285426257
0.38751099 0.301402 0.77700001 4285623890
0.39022899 0.30186599 0.778 4286281820
0.392452 0.301943 0.778 4286940264
0.394678 0.30202201 0.778 4287202929
0.396907 0.30210301 0.778 4287268723
0.39965099 0.302573 0.77899998 4286940262
0.400857 0.30187899 0.77700001 4286940770
0.403611 0.30235201 0.778 4286545496
0.40428701 0.301272 0.77499998 4286676828
0.405999 0.300971 0.77399999 4286414171
0.40770799 0.30067101 0.773 4285624659
0.41100499 0.301539 0.77499998 4283190581
0.413784 0.30202001 0.77600002 4286282852
0.41710901 0.30289301 0.778 4286941037
0.41991001 0.30337799 0.77899998 4287269486
0.42271999 0.30386499 0.77999997 4287466608
0.42499501 0.30396399 0.77999997 4287203182
0.42782101 0.30445501 0.78100002 4287203182
0.430657 0.304948 0.78200001 4287203434
0.43294999 0.30505201 0.78200001 4287465577
0.435803 0.305549 0.78299999 4287597163
0.437547 0.30526701 0.78200001 4287202405
0.44041401 0.30576801 0.78299999 4287333992
0.442725 0.30588001 0.78299999 4287596910
0.445041 0.305994 0.78299999 4287005543
0.44736201 0.30610999 0.78299999 4287137390
0.449687 0.306227 0.78299999 4287334254
0.452593 0.30673799 0.78399998 4287202930
0.45377001 0.306077 0.78200001 4287006055
0.455522 0.30580899 0.78100002 4286874724
0.45785999 0.305935 0.78100002 4287136622
0.46255901 0.30763 0.78500003 4287071083
0.46551099 0.30815199 0.78600001 4286873450
0.46728301 0.30789199 0.78500003 4287268461
0.46905401 0.307634 0.78399998 4287400299
0.47142601 0.307771 0.78399998 4287005796
0.47440699 0.30830199 0.78500003 4287137380
0.4774 0.30883601 0.78600001 4287202659
0.47857299 0.30819401 0.78399998 4287136613
0.480353 0.307946 0.78299999 4286939244
0.481516 0.307307 0.78100002 4287137137
0.484532 0.30785 0.78200001 4287071343
0.48818201 0.30879 0.78399998 4286808171
0.49310201 0.31052101 0.78799999 4287202669
0.494908 0.310285 0.787 4287268461
0.49671501 0.31005099 0.78600001 4287137129
0.49979201 0.31060901 0.787 4287006314
-0.198239 0.29440001 0.77200001 4287926399
-0.195896 0.294011 0.77100003 4288057986
-0.194313 0.29476699 0.773 4288058243
-0.192222 0.294761 0.773 4288321417
-0.18988501 0.29437301 0.77200001 4287401090
-0.187554 0.29398599 0.77100003 4287006334
-0.185229 0.29359901 0.76999998 4285229933
-0.182671 0.292831 0.76800001 4288388248
-0.180124 0.29206401 0.76599997 4288124560
-0.178286 0.29244 0.76700002 4288453525
-0.176673 0.29319799 0.76899999 4288190608
-0.174821 0.29357499 0.76999998 4288059022
-0.17274 0.293571 0.76999998 4288190353
-0.170881 0.29394901 0.77100003 4288387732
-0.168798 0.29394501 0.77100003 4288387732
-0.166715 0.29394099 0.77100003 4288058767
-0.164846 0.29431999 0.77200001 4287861388
-0.16255 0.293935 0.77100003 4288321939
-0.160051 0.29317001 0.76899999 4287730057
-0.15776899 0.292786 0.76800001 4287598469
-0.1561 0.29354599 0.76999998 4287335297
-0.154221 0.29392499 0.77100003 4287663747
-0.151941 0.293542 0.76999998 4287466368
-0.149473 0.29277799 0.76800001 4286940024
-0.14739899 0.29277599 0.76800001 4286940024
-0.14494701 0.29201201 0.76599997 4287071610
-0.14287899 0.29201099 0.76599997 4287005817
-0.140444 0.29124701 0.764 4287137657
-0.13856301 0.291628 0.76499999 4286808690
-0.136676 0.29200801 0.76599997 4287005555
-0.13496 0.29276901 0.76800001 4287137141
-0.132714 0.29238799 0.76700002 4287202934
-0.130643 0.29238701 0.76700002 4287202934
-0.12823801 0.29162401 0.76499999 4287268727
-0.126173 0.29162401 0.76499999 4287466106
-0.124271 0.292005 0.76599997 4287597692
-0.122203 0.292005 0.76599997 4287860864
-0.120136 0.292005 0.76599997 4287796093
-0.118069 0.292005 0.76599997 4287598714
-0.11585 0.29162401 0.76499999 4287466106
-0.113637 0.29124299 0.764 4287466361
-0.111575 0.29124299 0.764 4287531641
-0.109513 0.29124299 0.764 4287860606
-0.107311 0.29086301 0.76300001 4287925885
-0.105114 0.29048201 0.76200002 4287663227
-0.102922 0.29010099 0.76099998 4287597434
-0.100868 0.29010201 0.76099998 4287860606
-0.098684996 0.28972101 0.75999999 4287729020
-0.096379802 0.28896001 0.75800002 4287794813
-0.0935876 0.28667301 0.75199997 4287531381
-0.090340801 0.28286201 0.74199998 4287794299
-0.085004903 0.27218899 0.71399999 4287662713
-0.077376701 0.25351 0.66500002 4287662452
-0.072740696 0.24398001 0.63999999 4287991417
-0.070236899 0.241312 0.63300002 4288123003
-0.0678792 0.239026 0.62699997 4287860092
-0.065448202 0.236358 0.62 4287794553
-0.063466497 0.23521499 0.61699998 4288056957
-0.059597898 0.22682901 0.59500003 4287465855
-0.057309899 0.224161 0.588 4288979102
-0.055533599 0.2234 0.58600003 4283848792
-0.053860102 0.223019 0.58499998 4284770408
-0.052102599 0.222258 0.583 4285427824
-0.0503559 0.221496 0.58099997 4284046687
-0.048788 0.221497 0.58099997 4284178271
-0.0473013 0.22187901 0.58200002 4284310111
-0.045651998 0.221498 0.58099997 4283915352
-0.0439323 0.220737 0.579 4283060811
-0.042369701 0.220737 0.579 4283849813
-0.040877499 0.221119 0.57999998 4283784020
-0.039312199 0.22112 0.57999998 4283783506
-0.037746899 0.221121 0.57999998 4283849045
-0.0361191 0.22074001 0.579 4283849045
-0.034616102 0.221122 0.57999998 4284243289
-0.032993801 0.220742 0.579 4283915092
-0.031376801 0.22036099 0.57800001 4283980115
-0.029816801 0.22036199 0.57800001 4284045908
-0.0282079 0.219981 0.57700002 4283782736
-0.0266505 0.219981 0.57700002 4283716943
-0.025049699 0.21960101 0.57599998 4283651150
-0.023535799 0.219982 0.57700002 4283980115
-0.0219023 0.21922 0.57499999 4283980885
-0.0203503 0.219221 0.57499999 4283980631
-0.018798299 0.219221 0.57499999 4284178011
-0.0172763 0.219603 0.57599998 4284046171
-0.0156943 0.21922199 0.57499999 4283980378
-0.0141423 0.21922199 0.57499999 4283980378
-0.0125246 0.218079 0.57200003 4284243289
-0.0109998 0.21845999 0.57300001 4284243287
-0.0094367201 0.218079 0.57200003 4284177494
-0.0079065803 0.21846101 0.57300001 4284243542
-0.00633774 0.21769901 0.57099998 4283980631
-0.0047964999 0.21769901 0.57099998 4284112218
-0.0032552599 0.21769901 0.57099998 4284178011
-0.00171101 0.217318 0.56999999 4284112478
-0.00017245801 0.217318 0.56999999 4283980892
0.00136849 0.21769901 0.57099998 4284243550
0.00290464 0.217318 0.56999999 4283848792
0.0044276002 0.216555 0.56800002 4283849046
0.0059607401 0.216555 0.56800002 4283980631
0.0074938899 0.216555 0.56800002 4284178010
0.0090270303 0.216554 0.56800002 4283915092
0.010523 0.215792 0.56599998 4283783252
0.0120294 0.21540999 0.565 4283717459
0.0135544 0.21540999 0.565 4283849045
0.0151062 0.215791 0.56599998 4283849045
0.0166045 0.215409 0.565 4284046424
0.0180653 0.214646 0.56300002 4283849045
0.0195501 0.214265 0.56199998 4283717459
0.021067001 0.21426401 0.56199998 4283651666
0.0226241 0.214645 0.56300002 4284046424
0.024100799 0.21426301 0.56199998 4283915353
0.025617599 0.21426301 0.56199998 4283849560
0.0271345 0.21426199 0.56199998 4283849308
0.0287023 0.214643 0.56300002 4284046173
0.0301145 0.21388 0.56099999 4284046173
0.0315722 0.213498 0.56 4284046173
0.033083599 0.213497 0.56 4284177757
0.034595001 0.213497 0.56 4284112218
0.035977501 0.212734 0.55800003 4283849306
0.037349101 0.21197 0.55599999 4283980894
0.038709901 0.211207 0.55400002 4284309859
0.040205099 0.211206 0.55400002 4283915101
0.041775499 0.211587 0.55500001 4283652443
0.0433513 0.211968 0.55599999 4283849306
0.044851799 0.21196701 0.55599999 4283586902
0.046268899 0.211585 0.55500001 4283783767
0.047680601 0.21120299 0.55400002 4283652181
0.048998199 0.21043999 0.55199999 4284112732
0.050579298 0.21082 0.55299997 4283981146
0.052071702 0.21081901 0.55299997 4284046425
0.053467199 0.210437 0.55199999 4284112218
0.054757699 0.209674 0.55000001 4283915353
0.0561397 0.20929199 0.54900002 4283981145
0.0576212 0.209291 0.54900002 4283981659
0.059102699 0.209291 0.54900002 4284047452
0.060584299 0.20929 0.54900002 4284113246
0.062065799 0.209289 0.54900002 4283784283
0.063547298 0.209289 0.54900002 4284046685
0.0649103 0.20890699 0.54799998 4284112732
0.066267997 0.208525 0.54699999 4283849560
0.0676203 0.208143 0.546 4284375389
0.069093697 0.208143 0.546 4284178010
0.070437796 0.207761 0.54500002 4283783766
0.071908496 0.20776001 0.54500002 4283849559
0.073379301 0.20776001 0.54500002 4284310110
0.074575298 0.20699701 0.54299998 4284112732
0.076180696 0.207378 0.54400003 4284113246
0.077505998 0.20699599 0.54299998 4284179041
0.0786805 0.20623399 0.54100001 4284244832
0.079844303 0.20547099 0.53899997 4284047453
0.080997199 0.204708 0.537 4284442211
0.082446396 0.204708 0.537 4283915866
0.0837394 0.204327 0.53600001 4284310624
0.085185997 0.204327 0.53600001 4284310624
0.086470999 0.20394599 0.53500003 4284310624
0.087914899 0.20394599 0.53500003 4284047453
0.089358903 0.20394599 0.53500003 4284244834
0.0908029 0.20394699 0.53500003 4284310373
0.092247002 0.20394699 0.53500003 4284639595
0.093516 0.203566 0.53399998 4284376423
0.094957396 0.203567 0.53399998 4284376937
0.0962184 0.20318601 0.53299999 4284442730
0.097474001 0.202806 0.53200001 4284837488
0.099281996 0.20356899 0.53399998 4285298042
0.10129 0.204713 0.537 4285495419
0.104844 0.20890801 0.54799998 4286087556
0.110398 0.216915 0.56900001 4285495419
0.117639 0.227971 0.59799999 4285298042
0.123641 0.23636 0.62 4285298042
0.12895399 0.24322399 0.63800001 4285298042
0.135388 0.25199401 0.66100001 4285298042
0.141738 0.26038301 0.68300003 4285298042
0.14862899 0.26953501 0.70700002 4285298042
0.155862 0.27906901 0.73199999 4285429628
0.161073 0.28479099 0.74699998 4285495419
0.164838 0.287844 0.755 4287073174
0.167099 0.28822899 0.75599998 4282401617
0.16981301 0.28937599 0.759 4283849046
0.172317 0.29014301 0.76099998 4286808700
0.174603 0.290528 0.76200002 4287467138
0.17689399 0.290914 0.76300001 4287335804
0.178956 0.29091901 0.76300001 4287138425
0.181494 0.291686 0.76499999 4287598976
0.183562 0.29169101 0.76499999 4287467390
0.185388 0.291316 0.764 4287861378
0.187454 0.29132101 0.764 4287663999
0.189769 0.29170901 0.76499999 4287927426
0.19259 0.29285899 0.76800001 4287927426
0.194922 0.29324701 0.76899999 4287927426
0.19725899 0.29363501 0.76999998 4287730561
0.198825 0.29288 0.76800001 4287796354
0.20116501 0.29326901 0.76899999 4287862148
0.20298199 0.292896 0.76800001 4287993734
0.205329 0.29328501 0.76899999 4287862408
0.207681 0.29367501 0.76999998 4287664515
0.209767 0.29368401 0.76999998 4287861894
0.211853 0.29369399 0.76999998 4287401343
0.213661 0.293322 0.76899999 4287730308
0.215464 0.29295 0.76800001 4287796101
0.21783 0.29334199 0.76899999 4287665029
0.2202 0.293735 0.76999998 4287467904
0.222289 0.29374599 0.76999998 4287402111
0.22437701 0.293758 0.76999998 4287664768
0.227054 0.29453301 0.77200001 4287467389
0.22944599 0.294927 0.773 4287598461
0.231544 0.29493999 0.773 4287467389
0.23334099 0.294572 0.77200001 4287270010
0.234828 0.293823 0.76999998 4287533182
0.23722699 0.294218 0.77100003 4287927426
0.23932201 0.29423299 0.77100003 4287664254
0.242044 0.295012 0.773 4287533183
0.244146 0.295028 0.773 4287795840
0.24624801 0.295044 0.773 4287796354
0.24770799 0.29429701 0.77100003 4287467389
0.249806 0.29431501 0.77100003 4287730562
0.25255901 0.29509601 0.773 4287664515
0.25499299 0.29549599 0.77399999 4287730308
0.25710201 0.295515 0.77399999 4287796355
0.259211 0.295535 0.77399999 4287467903
0.26132101 0.295555 0.77399999 4287598975
0.263432 0.29557499 0.77399999 4287796607
0.26485801 0.294833 0.77200001 4287730559
0.26730999 0.29523599 0.773 4287533182
0.269072 0.29487699 0.77200001 4287664768
0.27118099 0.2949 0.77200001 4287533183
0.27329099 0.29492301 0.77200001 4287664515
0.275758 0.29532999 0.773 4287663999
0.27787301 0.29535499 0.773 4287664001
0.27962601 0.29499799 0.77200001 4287598208
0.28100899 0.29426 0.76999998 4287861126
0.28348601 0.294669 0.77100003 4287729540
0.28634 0.295461 0.773 4287598724
0.28883201 0.29587099 0.77399999 4287598724
0.29133099 0.29628301 0.77499998 4287665029
0.29308 0.29593 0.77399999 4287467650
0.295587 0.296343 0.77499998 4287533443
0.29733199 0.29599199 0.77399999 4287467904
0.29984701 0.296406 0.77499998 4287402111
0.30236799 0.29682201 0.77600002 4287336318
0.30489701 0.29723799 0.77700001 4287533182
0.306642 0.29688999 0.77600002 4287533180
0.308382 0.29654199 0.77499998 4287336823
0.31092 0.29696101 0.77600002 4287533182
0.313061 0.29699799 0.77600002 4287795326
0.314798 0.296653 0.77499998 4286940017
0.31612101 0.295926 0.773 4286347878
0.31825799 0.29596499 0.773 4287203187
0.32039699 0.29600501 0.773 4287532154
0.32253799 0.29604599 0.773 4287467390
0.32509899 0.296471 0.77399999 4287861894
0.32766899 0.29689699 0.77499998 4288059526
0.32939401 0.29655799 0.77399999 4287533182
0.331972 0.29698601 0.77499998 4287664507
0.33369499 0.296648 0.77399999 4287795577
0.335848 0.29669499 0.77399999 4287861623
0.33843899 0.297126 0.77499998 4287401072
0.340599 0.29717499 0.77499998 4287532399
0.34276 0.29722399 0.77499998 4287137894
0.344033 0.29650801 0.773 4287137900
0.34663999 0.29694301 0.77399999 4287598451
0.34880501 0.296996 0.77399999 4287663991
0.35142401 0.297434 0.77499998 4287335542
0.35313901 0.29710501 0.77399999 4287796093
0.35576901 0.29754499 0.77499998 4287467128
0.35748199 0.29721799 0.77399999 4287532921
0.35919201 0.29689199 0.773 4287927163
0.360899 0.29656801 0.77200001 4286874218
0.36307299 0.296628 0.77200001 4286215257
0.365722 0.29707399 0.773 4286149718
0.368379 0.297521 0.77399999 4286346582
0.37104401 0.29797 0.77499998 4286675547
0.37323499 0.298035 0.77499998 4286478683
0.37494501 0.29771799 0.77399999 4286676062
0.377139 0.29778501 0.77399999 4286281050
0.37933499 0.29785499 0.77399999 4286742371
0.38153401 0.297925 0.77399999 4286281820
0.38324001 0.29761201 0.773 4285623888
0.38593999 0.29807001 0.77399999 4286413404
0.38864899 0.29853001 0.77499998 4286018648
0.391366 0.29899099 0.77600002 4286150234
0.39307699 0.29868299 0.77499998 4286544992
0.39529601 0.29876199 0.77499998 4287466094
0.39751801 0.29884201 0.77499998 4287268715
0.39974201 0.29892299 0.77499998 4287071848
0.40248901 0.29939201 0.77600002 4287006055
0.40420201 0.29909101 0.77499998 4286479966
0.405911 0.29879099 0.77399999 4286414171
0.406037 0.29733399 0.76999998 4286217051
0.40932399 0.298195 0.77200001 4283256629
0.41315901 0.29944399 0.77499998 4284507210
0.415943 0.299923 0.77600002 4287006828
0.41819701 0.300017 0.77600002 4287006312
0.42045501 0.30011201 0.77600002 4287203946
0.42380601 0.30098301 0.778 4287203687
0.425529 0.300695 0.77700001 4287203691
0.428352 0.30118299 0.778 4287006565
0.43063101 0.30128601 0.778 4287401068
0.43402699 0.302165 0.77999997 4287466092
0.43631899 0.30227101 0.77999997 4287400299
0.43861601 0.30237901 0.77999997 4287466092
0.44035199 0.30210099 0.77899998 4287466092
0.44265401 0.30221301 0.77899998 4287269229
0.44496101 0.30232701 0.77899998 4287400561
0.44669801 0.30205399 0.778 4287335022
0.449011 0.30217099 0.778 4287532401
0.450748 0.30190101 0.77700001 4287400815
0.45306599 0.30202201 0.77700001 4287334768
0.45597601 0.30253401 0.778 4287137389
0.45948499 0.30343699 0.77999997 4287465840
0.46241999 0.30395401 0.78100002 4287136875
0.46417499 0.30369401 0.77999997 4287071336
0.465929 0.30343699 0.77899998 4287268199
0.468885 0.30396 0.77999997 4287137380
0.47245601 0.304876 0.78200001 4287269472
0.47543699 0.30540401 0.78299999 4287597163
0.47782001 0.305545 0.78299999 4287136876
0.48020801 0.30568799 0.78299999 4287268722
0.48136899 0.305053 0.78100002 4287531894
0.483762 0.30520001 0.78100002 4287268729
0.48678401 0.30574101 0.78200001 4287400821
0.49106899 0.30706701 0.78500003 4287334001
0.49286401 0.306831 0.78399998 4287399795
0.49402699 0.30620599 0.78200001 4287137127
0.497724 0.30714899 0.78399998 4287137127
-0.199543 0.29117599 0.76899999 4288123264
-0.19694801 0.29041201 0.76700002 4288386436
-0.19487301 0.29040501 0.76700002 4288255364
-0.19305 0.29077801 0.76800001 4287926912
-0.191221 0.29115 0.76899999 4288058243
-0.188649 0.290387 0.76700002 4287466368
-0.186332 0.290003 0.76599997 4285953646
-0.18450201 0.29037601 0.76700002 4286611321
-0.18219 0.28999299 0.76599997 4288519832
-0.18012001 0.28998801 0.76599997 4288651159
-0.177817 0.28960499 0.76499999 4288782229
-0.175749 0.289601 0.76499999 4288584850
-0.173682 0.289597 0.76499999 4288650129
-0.171391 0.289215 0.764 4288387217
-0.169548 0.28959 0.76499999 4288453011
-0.167919 0.290344 0.76700002 4289110941
-0.16628 0.291098 0.76899999 4288321425
-0.164416 0.29147401 0.76999998 4288322194
-0.161915 0.290714 0.76800001 4288847768
-0.15942401 0.28995401 0.76599997 4288453264
-0.15735599 0.28995201 0.76599997 4288190606
-0.15569299 0.29070699 0.76800001 4288059020
-0.15381899 0.29108399 0.76899999 4288321678
-0.151545 0.29070401 0.76800001 4288585366
-0.14888801 0.28956699 0.76499999 4288058506
-0.14663 0.28918701 0.764 4288255885
-0.14437801 0.288807 0.76300001 4287861127
-0.14231899 0.28880599 0.76300001 4287796103
-0.140075 0.28842601 0.76200002 4287532929
-0.138381 0.28918299 0.764 4287466620
-0.136318 0.28918201 0.764 4287663485
-0.134432 0.28955999 0.76499999 4287268727
-0.132367 0.28955901 0.76499999 4286545004
-0.130473 0.289938 0.76599997 4286676085
-0.128405 0.28993699 0.76599997 4286742131
-0.12633801 0.28993699 0.76599997 4286807924
-0.124108 0.28955901 0.76499999 4286676592
-0.122044 0.28955901 0.76499999 4286479211
-0.119822 0.28918099 0.764 4286874483
-0.117761 0.28918099 0.764 4286940278
-0.115396 0.28842399 0.76200002 4287202691
-0.11334 0.288425 0.76200002 4286478970
-0.111137 0.28804699 0.76099998 4287005304
-0.109084 0.28804699 0.76099998 4287005304
-0.106749 0.28729099 0.759 4287662980
-0.104563 0.28691301 0.75800002 4287794566
-0.102517 0.28691399 0.75800002 4287926406
-0.100604 0.28729299 0.759 4287794819
-0.098426104 0.28691599 0.75800002 4288057992
-0.096380703 0.28691599 0.75800002 4287860613
-0.093712904 0.285025 0.75300002 4288058245
-0.090585202 0.28161901 0.74400002 4288057991
-0.086077303 0.273671 0.72299999 4287663487
-0.079122901 0.25739601 0.68000001 4287729278
-0.073650897 0.24528401 0.648 4287137396
-0.070681602 0.24112099 0.63700002 4287466359
-0.067988299 0.23771501 0.62800002 4287400055
-0.065554701 0.235066 0.62099999 4287466102
-0.063673101 0.23431 0.61900002 4287597940
-0.060099501 0.227119 0.60000002 4287728773
-0.0577006 0.22409201 0.59200001 4288058769
-0.055818699 0.222957 0.58899999 4283914587
-0.053952999 0.22182199 0.58600003 4284967789
-0.0521928 0.221066 0.58399999 4284967787
-0.0504435 0.22031 0.58200002 4283849560
-0.048872799 0.220311 0.58200002 4284046939
-0.047383402 0.22069 0.583 4284046938
-0.045809999 0.220691 0.583 4284178524
-0.044160701 0.220313 0.58200002 4283849559
-0.042516802 0.219936 0.58099997 4283914839
-0.041019302 0.22031499 0.58200002 4283783252
-0.039380699 0.219937 0.58099997 4283980117
-0.037812699 0.219938 0.58099997 4283979862
-0.036182199 0.21956 0.57999998 4283716945
-0.0346765 0.21994001 0.58099997 4283980117
-0.033051401 0.21956199 0.57999998 4283980885
-0.031431701 0.219184 0.579 4283849299
-0.029817401 0.218806 0.57800001 4283717713
-0.028257299 0.218807 0.57800001 4283717713
-0.0266973 0.218807 0.57800001 4283849299
-0.025093701 0.218429 0.57700002 4283520080
-0.0235363 0.21843 0.57700002 4284045908
-0.021902701 0.217673 0.57499999 4284112217
-0.0203507 0.217674 0.57499999 4284046424
-0.0187987 0.217674 0.57499999 4283849045
-0.017246701 0.217675 0.57499999 4283980631
-0.0157219 0.218054 0.57599998 4284046424
-0.0141426 0.217675 0.57499999 4284112217
-0.0125687 0.217297 0.574 4284111701
-0.0110001 0.216919 0.57300001 4283914322
-0.0094534401 0.216919 0.57300001 4283914322
-0.0079205697 0.217298 0.574 4284243287
-0.0063489899 0.21654101 0.57200003 4284046424
-0.0048050098 0.21654101 0.57200003 4284046424
-0.00326103 0.21654101 0.57200003 4283915352
-0.00171705 0.21654101 0.57200003 4283981145
-0.000173067 0.21654101 0.57200003 4283783766
0.00136852 0.21616299 0.57099998 4284046424
0.0029098 0.21616299 0.57099998 4284046424
0.0044355001 0.215405 0.56900001 4283914838
0.00597138 0.215405 0.56900001 4284046678
0.0074940599 0.215027 0.56800002 4283980885
0.0090113403 0.21464799 0.56699997 4284046678
0.0105232 0.214269 0.56599998 4283915092
0.0120723 0.214647 0.56699997 4283783252
0.0136027 0.214647 0.56699997 4283848531
0.0151599 0.21502499 0.56800002 4283980117
0.0166636 0.214646 0.56699997 4283651152
0.018162001 0.214267 0.56599998 4284045396
0.0196549 0.213888 0.565 4283979862
0.0211425 0.21350899 0.56400001 4283914069
0.022624601 0.21313 0.56300002 4283651413
0.024144201 0.21313 0.56300002 4283783513
0.025618199 0.21275 0.56199998 4283915099
0.0271834 0.213128 0.56300002 4284046687
0.0287029 0.213128 0.56300002 4283914846
0.0302225 0.213127 0.56300002 4284638310
0.031629302 0.21236899 0.56099999 4284111966
0.033143401 0.21236899 0.56099999 4283980632
0.034657501 0.212368 0.56099999 4283849045
0.0361716 0.212367 0.56099999 4283981145
0.037484199 0.21123099 0.55800003 4283783766
0.038920298 0.210852 0.55699998 4283783767
0.040351 0.210472 0.55599999 4283915099
0.041926801 0.21085 0.55699998 4283651927
0.043508001 0.211228 0.55800003 4283782999
0.045013901 0.211227 0.55800003 4283980632
0.0464365 0.21084701 0.55699998 4284112218
0.0478536 0.21046799 0.55599999 4283980631
0.049265299 0.210089 0.55500001 4283980631
0.0506716 0.209709 0.55400002 4284112217
0.0521667 0.20970801 0.55400002 4284046424
0.053564899 0.20932899 0.55299997 4283783766
0.054957598 0.20895 0.55199999 4283849559
0.056447301 0.208949 0.55199999 4283849559
0.057831898 0.20857 0.551 4283915352
0.0593188 0.20856901 0.551 4283981660
0.060695399 0.208189 0.55000001 4284441697
0.062179599 0.208189 0.55000001 4283849560
0.063663803 0.208188 0.55000001 4283980632
0.065029502 0.207809 0.54900002 4283783253
0.066389799 0.20742901 0.54799998 4283980631
0.067744799 0.20705 0.54699999 4284244057
0.069220804 0.207049 0.54699999 4284046678
0.070696898 0.207049 0.54699999 4283651920
0.0719091 0.20629101 0.54500002 4284178264
0.0733798 0.20629001 0.54500002 4284573022
0.074575797 0.205533 0.54299998 4284375904
0.076181099 0.205911 0.54400003 4284046685
0.077506401 0.205532 0.54299998 4284112478
0.078971699 0.205531 0.54299998 4284178271
0.080288902 0.205153 0.542 4284441697
0.081299096 0.204017 0.53899997 4284112731
0.082600102 0.203638 0.53799999 4284375903
0.084208198 0.204016 0.53899997 4283916120
0.085662797 0.204016 0.53899997 4284310878
0.086955898 0.203637 0.53799999 4284245085
0.088243499 0.20325901 0.537 4284047452
0.089358799 0.202502 0.53500003 4284179039
0.090972401 0.20288099 0.53600001 4284113246
0.092419103 0.20288099 0.53600001 4284244834
0.093865797 0.20288099 0.53600001 4283981662
0.095134698 0.202503 0.53500003 4283915869
0.096398301 0.202125 0.53399998 4284310625
0.097839803 0.202125 0.53399998 4284179039
0.099281304 0.202126 0.53399998 4284639592
0.101666 0.204019 0.53899997 4284508006
0.1058 0.209319 0.55299997 4284902764
0.111367 0.217269 0.574 4284508006
0.119015 0.229004 0.60500002 4284442213
0.124039 0.235441 0.62199998 4284442213
0.129558 0.242634 0.64099997 4284639592
0.13600001 0.251342 0.66399997 4284639592
0.142566 0.26005 0.68699998 4284639592
0.149257 0.26875901 0.70999998 4284639592
0.15607201 0.27746701 0.73299998 4284639592
0.160855 0.28239101 0.74599999 4284902764
0.16418 0.28466499 0.75199997 4281020724
0.16687401 0.285804 0.755 4281874751
0.169586 0.28694299 0.75800002 4284901463
0.17185999 0.28732499 0.759 4286413934
0.17436901 0.288086 0.76099998 4286939764
0.176658 0.28846899 0.76200002 4286676843
0.178717 0.28847301 0.76200002 4286742636
0.181014 0.288856 0.76300001 4286545259
0.18283699 0.28848201 0.76200002 4286413673
0.18514 0.28886601 0.76300001 4286611052
0.187203 0.28887099 0.76300001 4286611052
0.18951499 0.28925601 0.764 4286808431
0.192082 0.29001901 0.76599997 4286874224
0.19466101 0.290782 0.76800001 4286808431
0.196739 0.29078901 0.76800001 4286677359
0.198558 0.29041699 0.76700002 4286940531
0.20037299 0.29004601 0.76599997 4286940531
0.20218199 0.289675 0.76499999 4287006324
0.20452 0.290061 0.76599997 4287401082
0.206863 0.29044801 0.76700002 4287466875
0.209213 0.29083499 0.76800001 4287466620
0.211018 0.290465 0.76700002 4287335034
0.212818 0.29009601 0.76599997 4287598976
0.214893 0.29010499 0.76599997 4287533183
0.217253 0.29049399 0.76700002 4287270011
0.21961799 0.290883 0.76800001 4287467390
0.2217 0.290894 0.76800001 4287927426
0.223783 0.290905 0.76800001 4287598461
0.22616 0.29129601 0.76899999 4287861633
0.228543 0.29168701 0.76999998 4287598461
0.230333 0.29132 0.76899999 4287795840
0.23211899 0.29095399 0.76800001 4287598461
0.23420399 0.29096699 0.76800001 4287861633
0.236597 0.29135999 0.76899999 4287664254
0.238997 0.29175299 0.76999998 4287533182
0.241089 0.29176801 0.76999998 4287598975
0.243182 0.291783 0.76999998 4287796354
0.245276 0.29179901 0.76999998 4287730561
0.24737 0.29181501 0.76999998 4287927689
0.249789 0.292211 0.77100003 4287664001
0.25188801 0.29222801 0.77100003 4287729792
0.254316 0.29262501 0.77200001 4287730308
0.256419 0.29264301 0.77200001 4287861894
0.25885701 0.29304099 0.773 4287665029
0.26096299 0.29306 0.773 4287598976
0.263071 0.29308099 0.773 4287664766
0.26449299 0.29234299 0.77100003 4287664766
0.266251 0.29198501 0.76999998 4287402110
0.267656 0.29124799 0.76800001 4287533696
0.26975301 0.29126999 0.76800001 4287599490
0.271851 0.291293 0.76800001 4287533443
0.27466401 0.29207501 0.76999998 4287730562
0.27712899 0.29247901 0.77100003 4287664515
0.27923799 0.292503 0.77100003 4287598208
0.28061801 0.29177001 0.76899999 4287532415
0.28272399 0.291796 0.76899999 4287796101
0.28557101 0.29258201 0.77100003 4287401343
0.28805801 0.29298899 0.77200001 4287467903
0.29055101 0.29339701 0.773 4287665283
0.29229301 0.293046 0.77200001 4287731076
0.29403099 0.292696 0.77100003 4287665283
0.29614899 0.29272699 0.77100003 4287335803
0.29826701 0.29275799 0.77100003 4287401596
0.30077699 0.29316899 0.77200001 4287401594
0.303294 0.29358199 0.773 4287599228
0.30502701 0.293235 0.77200001 4287401594
0.307551 0.29365 0.773 4287533182
0.310083 0.294065 0.77399999 4287795840
0.31221801 0.29409999 0.77399999 4287926912
0.31354201 0.29337701 0.77200001 4287597947
0.31485599 0.29265499 0.76999998 4286150499
0.31780699 0.29345301 0.77200001 4286677098
0.31994301 0.29349199 0.77200001 4287334773
0.32249701 0.29391301 0.773 4287533182
0.32421699 0.29357299 0.77200001 4287533183
0.32635701 0.29361501 0.77200001 4287664769
0.32807299 0.29327801 0.77100003 4287730561
0.33021399 0.293322 0.77100003 4287598461
0.33149299 0.29260501 0.76899999 4287598459
0.33406499 0.29303101 0.76999998 4287401586
0.33708099 0.29383901 0.77200001 4287137898
0.33967099 0.294267 0.773 4287401070
0.34182599 0.29431599 0.773 4287269484
0.34309199 0.29360399 0.77100003 4287335020
0.34614101 0.29441601 0.773 4287400815
0.34830099 0.29446799 0.773 4287532407
0.35046399 0.294521 0.773 4287401335
0.35262799 0.29457501 0.773 4287665021
0.35479501 0.29462999 0.773 4287335801
0.35696301 0.29468599 0.773 4287730300
0.35774001 0.29359901 0.76999998 4287730039
0.359905 0.293657 0.76999998 4287400561
0.361601 0.29333499 0.76899999 4286478431
0.364714 0.29415801 0.77100003 4286675808
0.36736399 0.29460099 0.77200001 4286346582
0.36954299 0.294664 0.77200001 4286412376
0.37172499 0.29472801 0.77200001 4286544476
0.373909 0.29479301 0.77200001 4286676062
0.37560901 0.294478 0.77100003 4286742369
0.37779599 0.29454601 0.77100003 4286610783
0.379985 0.294615 0.77100003 4285821267
0.38267201 0.29506701 0.77200001 4286150746
0.38437101 0.29475701 0.77100003 4286874471
0.388073 0.295977 0.77399999 4286611045
0.39078599 0.29643399 0.77499998 4285558357
0.39249301 0.29612699 0.77399999 4285821269
0.393177 0.295057 0.77100003 4286478429
0.39538601 0.29513499 0.77100003 4287005289
0.397598 0.29521501 0.77100003 4287334262
0.40085 0.29606199 0.773 4286610539
0.40255299 0.295762 0.77200001 4287005037
0.40477699 0.29584599 0.77200001 4287005541
0.40542299 0.29478201 0.76899999 4286413918
0.40711501 0.294485 0.76800001 4285295694
0.41040301 0.29534101 0.76999998 4282927158
0.41424301 0.29658201 0.773 4286612576
0.417564 0.29744199 0.77499998 4286743901
0.41981801 0.29753599 0.77499998 4286546774
0.422075 0.297631 0.77499998 4286546514
0.42378801 0.297344 0.77399999 4286546517
0.42604899 0.297443 0.77399999 4286743140
0.428868 0.29792801 0.77499998 4287005803
0.432253 0.29879901 0.77700001 4287202922
0.434535 0.298904 0.77700001 4287137129
0.43738401 0.29939499 0.778 4287005541
0.43911201 0.29911801 0.77700001 4287202920
0.44140601 0.299227 0.77700001 4287663471
0.442563 0.29856801 0.77499998 4287532399
0.44428599 0.298296 0.77399999 4287269227
0.446585 0.29841101 0.77399999 4287203691
0.448309 0.29814199 0.773 4287532401
