# .PCD v0.7 - Point Cloud Data file format
VERSION 0.7
FIELDS x y z rgb
SIZE 4 4 4 4
TYPE F F F U
COUNT 1 1 1 1
WIDTH 1090
HEIGHT 1
VIEWPOINT 0 0 0 1 0 0 0
POINTS 1090
DATA ascii
0.22658101 -0.184844 0.59100002 4287928707
0.226649 -0.183605 0.58700001 4287731329
0.22591799 -0.181741 0.58099997 4287731328
0.223588 -0.178626 0.57099998 4287468156
0.21962801 -0.17425901 0.55699998 4287533950
0.218768 -0.17239501 0.551 4287797375
0.21827599 -0.170844 0.546 4288125572
0.215744 -0.16772901 0.53600001 4288125317
0.207486 -0.16023199 0.51200002 4287862662
-0.19971 -0.187866 0.59600002 4290294163
-0.197762 -0.187545 0.59500003 4290030990
-0.19582 -0.187224 0.59399998 4289964681
-0.19355699 -0.186588 0.59200001 4289503618
-0.192926 -0.187529 0.59500003 4289503618
-0.191315 -0.18752401 0.59500003 4288055917
-0.19034199 -0.18815 0.597 4287529316
-0.188411 -0.187831 0.59600002 4288582006
-0.18648399 -0.187512 0.59500003 4289700490
-0.185186 -0.187823 0.59600002 4290161295
-0.183265 -0.18750501 0.59500003 4290096784
-0.18135101 -0.187186 0.59399998 4289964944
-0.179442 -0.186868 0.59299999 4290030991
-0.177839 -0.186866 0.59299999 4289636747
-0.176237 -0.18686301 0.59299999 4290096784
-0.17463399 -0.18686099 0.59299999 4290030477
-0.173032 -0.186859 0.59299999 4288713847
-0.17143001 -0.186857 0.59299999 4287661159
-0.170114 -0.187171 0.59399998 4288779640
-0.168226 -0.186855 0.59299999 4289766535
-0.166906 -0.187169 0.59399998 4289635204
-0.16558 -0.187483 0.59500003 4289635204
-0.163974 -0.187482 0.59500003 4289438339
-0.16264001 -0.187797 0.59600002 4289569923
-0.161302 -0.18811101 0.597 4289964683
-0.15968999 -0.18811101 0.597 4289570439
-0.158079 -0.18811101 0.597 4289898890
-0.156206 -0.187796 0.59600002 4289635716
-0.154338 -0.187482 0.59500003 4289766788
-0.152733 -0.187482 0.59500003 4289635202
-0.15112799 -0.187483 0.59500003 4289700995
-0.149774 -0.18779901 0.59600002 4289306237
-0.148166 -0.18779901 0.59600002 4288648562
-0.146804 -0.188116 0.597 4288187756
-0.14470699 -0.18748701 0.59500003 4287727205
-0.14310201 -0.187488 0.59500003 4287530343
-0.141022 -0.186859 0.59299999 4287859308
-0.13918801 -0.186546 0.59200001 4288978303
-0.13735899 -0.186232 0.59100002 4289504647
-0.135995 -0.18654899 0.59200001 4289636233
-0.134625 -0.186866 0.59299999 4289636233
-0.133026 -0.186868 0.59299999 4289636233
-0.131427 -0.18686999 0.59299999 4289504647
-0.12982801 -0.18687201 0.59299999 4289438854
-0.12822901 -0.186875 0.59299999 4289504647
-0.12684301 -0.18719199 0.59399998 4289307268
-0.125453 -0.18751 0.59500003 4289767302
-0.124056 -0.187828 0.59600002 4289635719
-0.122244 -0.18751501 0.59500003 4289241981
-0.120639 -0.187518 0.59500003 4289438590
-0.118835 -0.187205 0.59399998 4289702017
-0.117233 -0.187208 0.59399998 4289241727
-0.115826 -0.187526 0.59500003 4289175168
-0.114414 -0.18784399 0.59600002 4288385652
-0.113185 -0.18847799 0.59799999 4287398757
-0.111573 -0.188481 0.59799999 4287267171
-0.10996 -0.188484 0.59799999 4289175168
-0.108529 -0.188802 0.59899998 4289044096
-0.106913 -0.188805 0.59899998 4288780924
-0.105474 -0.189124 0.60000002 4288452473
-0.103683 -0.188812 0.59899998 4288649852
-0.101897 -0.1885 0.59799999 4288320372
-0.100284 -0.188503 0.59799999 4288057201
-0.0985061 -0.188191 0.597 4287793000
-0.097220503 -0.188825 0.59899998 4288385135
-0.0956048 -0.18882801 0.59899998 4288056172
-0.094146103 -0.189147 0.60000002 4288187758
-0.092373401 -0.188835 0.59899998 4288385137
-0.091060601 -0.18946899 0.60100001 4288121963
-0.089141697 -0.188841 0.59899998 4288450928
-0.0875258 -0.18884499 0.59899998 4288319856
-0.085766397 -0.18853299 0.59799999 4289372032
-0.084434502 -0.18916699 0.60000002 4288911481
-0.082815699 -0.18917 0.60000002 4288780410
-0.0811968 -0.189173 0.60000002 4288977274
-0.0795779 -0.18917599 0.60000002 4288845686
-0.077699102 -0.188549 0.59799999 4288845686
-0.0759582 -0.188237 0.597 4288056425
-0.074471697 -0.188555 0.59799999 4288254063
-0.073101498 -0.189189 0.60000002 4287991408
-0.0717206 -0.189823 0.602 4287398766
-0.069979399 -0.189511 0.60100001 4284437321
-0.0681298 -0.18888301 0.59899998 4287332973
-0.066402003 -0.18857101 0.59799999 4287727468
-0.064787902 -0.188574 0.59799999 4287398757
-0.063173696 -0.188577 0.59799999 4287464549
-0.061662398 -0.188895 0.59899998 4287793514
-0.060045399 -0.188898 0.59899998 4287069789
-0.058428299 -0.18890101 0.59899998 4286806617
-0.056906 -0.189219 0.60000002 4287069791
-0.055194002 -0.188906 0.59899998 4287201378
-0.0536661 -0.189224 0.60000002 4287728243
-0.0518726 -0.188596 0.59799999 4287728245
-0.050257899 -0.18859801 0.59799999 4287925622
-0.0485618 -0.18828601 0.597 4287991668
-0.047107 -0.18891899 0.59899998 4288189301
-0.0455654 -0.189236 0.60000002 4287926129
-0.044018298 -0.18955401 0.60100001 4288123508
-0.042395201 -0.189556 0.60100001 4286808424
-0.040636402 -0.18892799 0.59899998 4288979594
-0.039018601 -0.18893 0.59899998 4288716681
-0.037525699 -0.18956199 0.60100001 4289308818
-0.035842702 -0.18924899 0.60000002 4288848520
-0.034108002 -0.18862 0.59799999 4289243276
-0.032438401 -0.188306 0.597 4289177485
-0.030825799 -0.188308 0.597 4289045644
-0.029262099 -0.18862499 0.59799999 4289176973
-0.0276004 -0.188311 0.597 4288321921
-0.026074801 -0.188943 0.59899998 4288519043
-0.0244566 -0.188945 0.59899998 4288716679
-0.0229147 -0.189577 0.60100001 4288519300
-0.021255599 -0.189263 0.60000002 4289440663
-0.0196019 -0.18894801 0.59899998 4289441179
-0.017953601 -0.18863399 0.59799999 4289112214
-0.0163927 -0.189266 0.60000002 4289506458
-0.0147716 -0.18926699 0.60000002 4288453254
-0.0131725 -0.189583 0.60100001 4288453509
-0.0115103 -0.188953 0.59899998 4289110919
-0.00989193 -0.188953 0.59899998 4288650368
-0.0082735298 -0.188954 0.59899998 4288979847
-0.0066440101 -0.188639 0.59799999 4288979593
-0.0050198799 -0.18832301 0.597 4288781961
-0.0034125701 -0.188639 0.59799999 4288716169
-0.00179684 -0.188639 0.59799999 4288782219
-0.000181412 -0.18895499 0.59899998 4288782219
0.00143462 -0.188639 0.59799999 4288847240
0.0030503499 -0.188639 0.59799999 4288780931
0.0046816799 -0.18927 0.60000002 4287399017
0.00631331 -0.189585 0.60100001 4287465064
0.0079371296 -0.189585 0.60100001 4287464550
0.0095450198 -0.18926901 0.60000002 4287794029
0.0111661 -0.18926799 0.60000002 4287465064
0.0127872 -0.18926699 0.60000002 4287793515
0.0144082 -0.18926699 0.60000002 4287990894
0.016055999 -0.18958101 0.60100001 4287991408
0.017620901 -0.188949 0.59899998 4287794029
0.019207001 -0.18863299 0.59799999 4288583805
0.020753 -0.18800101 0.59600002 4287860336
0.022400601 -0.188315 0.597 4287859831
0.0239732 -0.187999 0.59600002 4288649852
0.025712 -0.188944 0.59899998 4288518518
0.027284499 -0.188627 0.59799999 4288715645
0.028899901 -0.18862499 0.59799999 4288715384
0.0304642 -0.188308 0.597 4288846455
0.032076899 -0.188307 0.597 4287135837
0.0335766 -0.187674 0.59500003 4288583028
0.035183702 -0.187672 0.59500003 4288912510
0.036790799 -0.18767001 0.59500003 4288781438
0.0385269 -0.188299 0.597 4288583805
0.040072002 -0.18798199 0.59600002 4288518266
0.041681699 -0.18798 0.59600002 4288057715
0.043218601 -0.18766201 0.59500003 4288518780
0.0449761 -0.188291 0.597 4288452987
0.046588302 -0.188288 0.597 4287597678
0.048200399 -0.18828601 0.597 4287663726
0.049895901 -0.18859901 0.59799999 4287531885
0.051510599 -0.18859699 0.59799999 4287070812
0.053214099 -0.18890899 0.59899998 4286151509
0.055014499 -0.189537 0.60100001 4281809201
0.056637101 -0.18953501 0.60100001 4283716955
0.0581627 -0.189217 0.60000002 4288389266
0.059483599 -0.18826801 0.597 4288651924
0.061197601 -0.18858001 0.59799999 4288717457
0.062811799 -0.188577 0.59799999 4288914835
0.0645338 -0.18889 0.59899998 4288849556
0.065929703 -0.188256 0.597 4288849556
0.0675411 -0.188253 0.597 4288849810
0.069036603 -0.18793499 0.59600002 4288915603
0.0707637 -0.188247 0.597 4288783763
0.072132401 -0.187613 0.59500003 4288980628
0.073862001 -0.18792599 0.59600002 4288520077
0.075343698 -0.18760701 0.59500003 4288388491
0.0770787 -0.18791901 0.59600002 4288256905
0.0784228 -0.18728501 0.59399998 4288454284
0.080160297 -0.18759701 0.59500003 4288585868
0.0816283 -0.187279 0.59399998 4288980112
0.083511099 -0.187906 0.59600002 4288322182
0.085119098 -0.187903 0.59600002 4288520075
0.086872503 -0.188215 0.597 4288322698
0.088334799 -0.187896 0.59600002 4288256905
0.0897917 -0.18757799 0.59500003 4288520591
0.091243103 -0.187259 0.59399998 4288717970
0.093001701 -0.187571 0.59500003 4288520591
0.094765604 -0.187883 0.59600002 4288256905
0.0965349 -0.18819501 0.597 4288256905
0.0979807 -0.187876 0.59600002 4288322698
0.0995882 -0.18787301 0.59600002 4288322698
0.101196 -0.18787 0.59600002 4288520591
0.10263 -0.18755101 0.59500003 4288323213
0.104235 -0.187548 0.59500003 4288322959
0.10584 -0.187545 0.59500003 4288322959
0.107444 -0.18754201 0.59500003 4288322445
0.109232 -0.18785401 0.59600002 4288454285
0.110839 -0.187851 0.59600002 4288256391
0.112446 -0.187848 0.59600002 4288256391
0.113862 -0.18753 0.59500003 4288650633
0.115661 -0.187842 0.59600002 4288519302
0.117465 -0.188154 0.597 4288519300
0.119074 -0.188151 0.597 4288453762
0.120684 -0.18814901 0.597 4288256128
0.122294 -0.188146 0.597 4288716679
0.124111 -0.188458 0.59799999 4288716681
0.125513 -0.188141 0.597 4288453509
0.12691 -0.187823 0.59600002 4288321923
0.128517 -0.187821 0.59600002 4288387969
0.130124 -0.18781801 0.59600002 4288782725
0.131953 -0.188131 0.597 4288453760
0.133562 -0.18812899 0.597 4288585346
0.13517199 -0.188127 0.597 4288453760
0.136324 -0.18749499 0.59500003 4288519555
0.137465 -0.18686301 0.59299999 4288387969
0.139064 -0.18686099 0.59299999 4288453762
0.140901 -0.18717501 0.59399998 4288190337
0.14274301 -0.187488 0.59500003 4288585095
0.144105 -0.187172 0.59399998 4288190335
0.145707 -0.187171 0.59399998 4288453507
0.14755701 -0.18748499 0.59500003 4288124542
0.149413 -0.18779901 0.59600002 4288124797
0.150768 -0.187483 0.59500003 4288322176
0.152373 -0.187482 0.59500003 4288387714
0.15397801 -0.187482 0.59500003 4288190851
0.155322 -0.18716601 0.59399998 4288256644
0.15692499 -0.18716601 0.59399998 4288256644
0.158528 -0.18716601 0.59399998 4288388230
0.160401 -0.187481 0.59500003 4288322437
0.162007 -0.187481 0.59500003 4288124803
0.163614 -0.187482 0.59500003 4288059526
0.16522001 -0.187483 0.59500003 4287993733
0.166546 -0.187168 0.59399998 4288191112
0.16814999 -0.187169 0.59399998 4287862147
0.17004 -0.18748599 0.59500003 4287796354
0.171648 -0.18748701 0.59500003 4287796354
0.173255 -0.187489 0.59500003 4287862147
0.174863 -0.187491 0.59500003 4287796355
0.17647 -0.187493 0.59500003 4287796354
0.17807899 -0.18749499 0.59500003 4288059012
0.17968699 -0.187498 0.59500003 4287993219
0.18129601 -0.187501 0.59500003 4287795840
0.182905 -0.18750399 0.59500003 4287927426
0.184514 -0.187507 0.59500003 4287927426
0.186436 -0.18782599 0.59600002 4288191110
0.188049 -0.18783 0.59600002 4287730559
0.18998 -0.18814901 0.597 4288059779
0.191275 -0.187838 0.59600002 4287533433
0.19256499 -0.187528 0.59500003 4288322949
0.19385 -0.187217 0.59399998 4288125825
0.19545899 -0.187223 0.59399998 4288059777
0.1974 -0.187543 0.59500003 4287599226
0.19901299 -0.187549 0.59500003 4288190851
0.19995201 -0.18692499 0.59299999 4287861631
0.20088001 -0.18630099 0.59100002 4287927940
0.202483 -0.186308 0.59100002 4288059526
0.204432 -0.18663 0.59200001 4288060040
0.20569 -0.186322 0.59100002 4288191112
0.207295 -0.18633001 0.59100002 4287862661
0.209253 -0.186653 0.59200001 4287862661
0.210861 -0.186662 0.59200001 4287600004
0.21247 -0.18667001 0.59200001 4287534211
0.21408001 -0.18668 0.59200001 4287797897
0.21569 -0.186689 0.59200001 4287731590
0.2173 -0.186699 0.59200001 4287796869
0.21891101 -0.186709 0.59200001 4287994248
0.22015101 -0.186405 0.59100002 4288125319
0.22176 -0.186416 0.59100002 4288059526
0.223749 -0.18674301 0.59200001 4287927940
0.225362 -0.186754 0.59200001 4287796868
0.226594 -0.186451 0.59100002 4287928708
0.225503 -0.184255 0.58399999 4288060040
0.22204199 -0.18016601 0.57099998 4287862915
0.218119 -0.175762 0.55699998 4288125570
0.219247 -0.17546 0.55599999 4287928707
0.221561 -0.17610399 0.55800003 4287928707
0.22028901 -0.17390899 0.551 4287665536
0.21052501 -0.165085 0.523 4287533443
-0.199643 -0.187898 0.59100002 4289899151
-0.19803999 -0.18789101 0.59100002 4289833358
-0.196106 -0.187567 0.58999997 4290162062
-0.193848 -0.18692601 0.588 4289833098
-0.191927 -0.186602 0.58700001 4289437570
-0.19098599 -0.187233 0.58899999 4288845433
-0.189391 -0.18722799 0.58899999 4287924331
-0.188115 -0.18754099 0.58999997 4288187248
-0.186518 -0.187536 0.58999997 4289174146
-0.18523499 -0.18785 0.59100002 4289832330
-0.18363599 -0.187846 0.59100002 4290030477
-0.182037 -0.18784299 0.59100002 4290162063
-0.180438 -0.187839 0.59100002 4289833612
-0.17853799 -0.187518 0.58999997 4289767818
-0.177242 -0.187833 0.59100002 4289636233
-0.175942 -0.18814901 0.59200001 4289241475
-0.17463601 -0.188464 0.59299999 4288714617
-0.17274199 -0.188144 0.59200001 4288582261
-0.171142 -0.188142 0.59200001 4287924331
-0.16897 -0.18750501 0.58999997 4287529573
-0.167376 -0.187503 0.58999997 4288516723
-0.165783 -0.187502 0.58999997 4288911993
-0.16446801 -0.18781801 0.59100002 4289504646
-0.162596 -0.1875 0.58999997 4289702026
-0.161276 -0.18781701 0.59100002 4289636232
-0.159411 -0.187498 0.58999997 4289702026
-0.157818 -0.187498 0.58999997 4289438853
-0.15622599 -0.187498 0.58999997 4289964167
-0.15489499 -0.18781599 0.59100002 4289766788
-0.1533 -0.18781599 0.59100002 4289503616
-0.15144899 -0.187498 0.58999997 4288319344
-0.14960299 -0.187181 0.58899999 4287069277
-0.14801399 -0.18718199 0.58899999 4288779895
-0.14667299 -0.1875 0.58999997 4289372030
-0.145328 -0.187819 0.59100002 4289438339
-0.14373299 -0.18782 0.59100002 4289569923
-0.142139 -0.187821 0.59100002 4289701512
-0.14006899 -0.187187 0.58899999 4289636233
-0.13848101 -0.187188 0.58899999 4289636233
-0.13665999 -0.18687201 0.588 4289635979
-0.135533 -0.187509 0.58999997 4289570186
-0.13394199 -0.187511 0.58999997 4289570440
-0.132127 -0.187195 0.58899999 4289767565
-0.130538 -0.187197 0.58899999 4289570186
-0.129169 -0.187516 0.58999997 4289504647
-0.12757801 -0.187519 0.58999997 4289373061
-0.12620001 -0.187839 0.59100002 4289438853
-0.124607 -0.187841 0.59100002 4289373314
-0.123013 -0.18784299 0.59100002 4289373567
-0.121419 -0.187846 0.59100002 4289373567
-0.119826 -0.187848 0.59100002 4289307773
-0.118032 -0.18753301 0.58999997 4289373567
-0.116441 -0.187536 0.58999997 4289373313
-0.115045 -0.187856 0.59100002 4289438340
-0.113451 -0.187859 0.59100002 4289240707
-0.112047 -0.18818 0.59200001 4287595366
-0.110637 -0.188501 0.59299999 4287134815
-0.109222 -0.188821 0.59399998 4288319859
-0.107801 -0.189142 0.59500003 4289043582
-0.106018 -0.18882699 0.59399998 4288978303
-0.104592 -0.18914799 0.59500003 4288978817
-0.102641 -0.18851601 0.59299999 4289110403
-0.101042 -0.188519 0.59299999 4289175681
-0.099442199 -0.188522 0.59299999 4288846970
-0.097842902 -0.18852501 0.59299999 4287464793
-0.0964057 -0.18884601 0.59399998 4287792998
-0.094803602 -0.188849 0.59399998 4288121710
-0.093358196 -0.18917 0.59500003 4288911226
-0.091753297 -0.189174 0.59500003 4288779640
-0.0901483 -0.18917701 0.59500003 4288582516
-0.088394403 -0.188862 0.59399998 4288385649
-0.086792 -0.18886501 0.59399998 4288254063
-0.085046098 -0.18855 0.59299999 4288846200
-0.083446197 -0.188554 0.59299999 4288648821
-0.0821224 -0.189193 0.59500003 4288714616
-0.080652297 -0.189514 0.59600002 4288911481
-0.0790442 -0.18951701 0.59600002 4288779895
-0.077176198 -0.188884 0.59399998 4288714616
-0.075446099 -0.18856899 0.59299999 4288715130
-0.0739704 -0.18889 0.59399998 4288386932
-0.072611101 -0.18953 0.59600002 4288452978
-0.071240902 -0.19016901 0.59799999 4284110135
-0.069277696 -0.189218 0.59500003 4287991154
-0.067444399 -0.188585 0.59299999 4288122480
-0.065843903 -0.188587 0.59299999 4288253296
-0.064351603 -0.188908 0.59399998 4288121965
-0.062748298 -0.18891101 0.59399998 4287595619
-0.061041899 -0.188596 0.59299999 4287332963
-0.059441201 -0.18859901 0.59299999 4286675033
-0.057742801 -0.188283 0.59200001 4286806619
-0.056334302 -0.188922 0.59399998 4287003999
-0.054638501 -0.18860701 0.59299999 4287070306
-0.053305801 -0.18956301 0.59600002 4287136099
-0.0516099 -0.189248 0.59500003 4287136099
-0.050003301 -0.18925001 0.59500003 4287727722
-0.048315398 -0.188935 0.59399998 4287925614
-0.046790101 -0.189255 0.59500003 4287794281
-0.045183402 -0.189257 0.59500003 4288123246
-0.043649901 -0.189578 0.59600002 4287991922
-0.042110901 -0.189898 0.597 4287071334
-0.040430799 -0.18958201 0.59600002 4287465840
-0.038756099 -0.189266 0.59500003 4289110926
-0.037149101 -0.18926799 0.59500003 4288979341
-0.035542101 -0.18927 0.59500003 4289045134
-0.033878099 -0.188953 0.59399998 4289308818
-0.032273699 -0.18895499 0.59399998 4288914060
-0.030720901 -0.189275 0.59500003 4288979594
-0.029113701 -0.18927599 0.59500003 4289440145
-0.027460299 -0.18896 0.59399998 4288716421
-0.0258993 -0.189279 0.59500003 4288913800
-0.024373701 -0.189917 0.597 4288387714
-0.022799101 -0.190236 0.59799999 4288585095
-0.0211128 -0.189601 0.59600002 4289440918
-0.019470001 -0.189284 0.59500003 4288717456
-0.0178326 -0.188967 0.59399998 4288585868
-0.016282501 -0.189604 0.59600002 4289506195
-0.0146724 -0.189605 0.59600002 4288716679
-0.0130841 -0.189924 0.597 4288321663
-0.0114328 -0.18928801 0.59500003 4289176196
-0.0098088197 -0.18897 0.59399998 4288847231
-0.0082040196 -0.188971 0.59399998 4289176712
-0.0065992102 -0.188971 0.59399998 4288847494
-0.0049943901 -0.188972 0.59399998 4288781961
-0.00338385 -0.18865401 0.59299999 4288782219
-0.00178472 -0.188972 0.59399998 4288782219
-0.000179585 -0.18865401 0.59299999 4288979853
0.00142495 -0.188972 0.59399998 4288913286
0.0030246801 -0.18865401 0.59299999 4288978563
0.0046502198 -0.18960799 0.59600002 4286412376
0.0062709502 -0.189926 0.597 4286806620
0.0078970799 -0.190244 0.59799999 4286872412
0.0094967801 -0.189925 0.597 4287793514
0.0111097 -0.189924 0.597 4287530342
0.0127226 -0.189924 0.597 4288057201
0.0143354 -0.189923 0.597 4287728236
0.0159216 -0.189604 0.59600002 4287859822
0.0175023 -0.189285 0.59500003 4287991408
0.0190775 -0.18896601 0.59399998 4288451959
0.020647399 -0.188647 0.59299999 4288254579
0.022286801 -0.18896399 0.59399998 4287991407
0.023851199 -0.18864401 0.59299999 4288649591
0.025496 -0.188961 0.59399998 4288584059
0.0271006 -0.18896 0.59399998 4288584059
0.0287051 -0.188958 0.59399998 4288846970
0.0303606 -0.189275 0.59500003 4288648821
0.0319677 -0.189273 0.59500003 4287332710
0.0335184 -0.188954 0.59399998 4288911742
0.035063598 -0.18863399 0.59299999 4288912509
0.036665201 -0.188632 0.59299999 4288649591
0.0382668 -0.18863 0.59299999 4288650104
0.039801098 -0.18831 0.59200001 4288452472
0.041399799 -0.188308 0.59200001 4287860589
0.0429985 -0.188306 0.59200001 4288387449
0.0446725 -0.188622 0.59299999 4288255094
0.046195801 -0.188301 0.59200001 4287597163
0.047875099 -0.18861701 0.59299999 4287991670
0.049476299 -0.18861499 0.59299999 4287596910
0.0510775 -0.188612 0.59299999 4287466092
0.052856199 -0.189246 0.59500003 4286546024
0.054645699 -0.18988 0.597 4282006831
0.0564459 -0.190513 0.59899998 4283519060
0.057772301 -0.189556 0.59600002 4288586395
0.059181899 -0.188917 0.59399998 4289046927
0.060785402 -0.188915 0.59399998 4289046674
0.0623888 -0.188912 0.59399998 4289046160
0.063992202 -0.18890899 0.59399998 4289112467
0.0655955 -0.188906 0.59399998 4288915603
0.067311898 -0.18922099 0.59500003 4289112982
0.0690336 -0.18953601 0.59600002 4288849556
0.070404999 -0.188897 0.59399998 4288652177
0.071765602 -0.18825801 0.59200001 4288520591
0.0733632 -0.188255 0.59200001 4288652177
0.074707501 -0.18761601 0.58999997 4288586384
0.076428898 -0.187931 0.59100002 4288717970
0.077759497 -0.18729199 0.58899999 4288586123
0.079483502 -0.18760701 0.58999997 4288586123
0.0810754 -0.187604 0.58999997 4288915088
0.082947403 -0.188236 0.59200001 4288915602
0.084544599 -0.188233 0.59200001 4288849040
0.0862872 -0.188548 0.59299999 4289112214
0.087886997 -0.188545 0.59299999 4288520591
0.089335702 -0.188224 0.59200001 4288520592
0.090779103 -0.187902 0.59100002 4288717717
0.0923732 -0.18789899 0.59100002 4288783764
0.094126403 -0.188214 0.59200001 4288652178
0.095884897 -0.188529 0.59299999 4288389006
0.097484298 -0.188526 0.59299999 4288520591
0.098916598 -0.188205 0.59200001 4288652177
0.100513 -0.188201 0.59200001 4288521106
0.101937 -0.18787999 0.59100002 4288257680
0.103356 -0.18755899 0.58999997 4288520852
0.104769 -0.18723901 0.58899999 4288520338
0.106538 -0.187553 0.58999997 4288322959
0.108129 -0.18754999 0.58999997 4288586385
0.10972 -0.187548 0.58999997 4288388492
0.111123 -0.187227 0.58899999 4288322698
0.112711 -0.187224 0.58899999 4288519563
0.114493 -0.187539 0.58999997 4288190598
0.116478 -0.188172 0.59200001 4288585609
0.118074 -0.188169 0.59200001 4288388230
0.119469 -0.187849 0.59100002 4288322182
0.121062 -0.187846 0.59100002 4288519561
0.122656 -0.18784399 0.59100002 4288322696
0.124249 -0.187841 0.59100002 4288454284
0.125843 -0.187839 0.59100002 4287927938
0.127437 -0.187837 0.59100002 4288059779
0.12924901 -0.188153 0.59200001 4288388230
0.130845 -0.18815 0.59200001 4288059263
0.132442 -0.18814901 0.59200001 4288388483
0.134038 -0.18814699 0.59200001 4288322174
0.135406 -0.18782701 0.59100002 4288519300
0.136536 -0.18719 0.58899999 4288190335
0.138125 -0.187188 0.58899999 4288519300
0.13995001 -0.18750501 0.58999997 4288650888
0.142022 -0.18813901 0.59200001 4288519047
0.14337599 -0.18782 0.59100002 4288387716
0.14497 -0.187819 0.59100002 4288453509
0.14631701 -0.1875 0.58999997 4288256644
0.148159 -0.18781701 0.59100002 4288125058
0.1495 -0.187499 0.58999997 4288059263
0.15134799 -0.18781599 0.59100002 4288125058
0.153202 -0.188134 0.59200001 4287993986
0.154799 -0.188133 0.59200001 4288388228
0.156133 -0.18781599 0.59100002 4288651402
0.157728 -0.18781599 0.59100002 4288322435
0.15932301 -0.18781599 0.59100002 4288256897
0.161191 -0.188134 0.59200001 4288387975
0.162789 -0.188135 0.59200001 4288519563
0.16411 -0.18781801 0.59100002 4288256903
0.165426 -0.187502 0.58999997 4287993217
0.167302 -0.187821 0.59100002 4288124803
0.168899 -0.187822 0.59100002 4288125317
0.170495 -0.187824 0.59100002 4287993731
0.171801 -0.187508 0.58999997 4287927938
0.17339499 -0.18751 0.58999997 4288059012
0.174693 -0.187195 0.58899999 4288256391
0.176585 -0.18751501 0.58999997 4288124803
0.17817999 -0.187518 0.58999997 4288124803
0.179775 -0.187521 0.58999997 4287861633
0.181678 -0.187842 0.59100002 4287335287
0.18296701 -0.187528 0.58999997 4287730298
0.18487599 -0.187849 0.59100002 4287796605
0.186791 -0.188171 0.59200001 4287993470
0.188393 -0.18817601 0.59200001 4288125056
0.189996 -0.18818 0.59200001 4287796352
0.190952 -0.187549 0.58999997 4287927940
0.192224 -0.18723699 0.58899999 4288059524
0.194149 -0.18756001 0.58999997 4287927938
0.196079 -0.187884 0.59100002 4287796607
0.19768099 -0.18788999 0.59100002 4288125572
0.19860899 -0.18726 0.58899999 4287664766
0.199867 -0.186949 0.588 4287731075
0.201805 -0.18727399 0.58899999 4287862147
0.203748 -0.187599 0.58999997 4287994247
0.20500199 -0.187289 0.58899999 4287664768
0.20695201 -0.18761501 0.58999997 4287730559
0.208555 -0.18762299 0.58999997 4287862147
0.209445 -0.186996 0.588 4287994247
0.210685 -0.18668699 0.58700001 4287862922
0.212281 -0.18669701 0.58700001 4287862922
0.214242 -0.187024 0.588 4288191627
0.21547499 -0.186717 0.58700001 4288060040
0.21707299 -0.186727 0.58700001 4287927940
0.21867201 -0.186738 0.58700001 4288124803
0.22064599 -0.187068 0.588 4288585095
0.222627 -0.187397 0.58899999 4288387975
0.22309101 -0.186455 0.58600003 4287993472
0.222772 -0.18487699 0.58099997 4288059524
0.218565 -0.180116 0.56599998 4288388491
0.214277 -0.175355 0.551 4287928708
0.21617401 -0.175687 0.55199999 4287928708
0.21965501 -0.177292 0.55699998 4287994501
0.218795 -0.175396 0.551 4287533696
0.21150699 -0.16840599 0.52899998 4287796869
0.204501 -0.161735 0.50800002 4287534211
-0.198974 -0.188859 0.58899999 4288583038
-0.197712 -0.189172 0.58999997 4288386419
-0.19611201 -0.18916599 0.58999997 4288056687
-0.19451299 -0.18916 0.58999997 4288187503
-0.192587 -0.188833 0.58899999 4288450677
-0.190991 -0.18882801 0.58899999 4288713847
-0.18907399 -0.188502 0.588 4289305986
-0.187801 -0.18881799 0.58899999 4289634951
-0.186206 -0.188813 0.58899999 4290161295
-0.185239 -0.18945 0.59100002 4290161295
-0.183329 -0.189125 0.58999997 4289832330
-0.181732 -0.18912099 0.58999997 4289503363
-0.179831 -0.188797 0.58899999 4289372547
-0.178541 -0.189114 0.58999997 4289175168
-0.177545 -0.189752 0.59200001 4289240961
-0.175944 -0.189749 0.59200001 4288648824
-0.174344 -0.18974701 0.59200001 4288121710
-0.17216 -0.18910301 0.58999997 4287989872
-0.170277 -0.18877999 0.58899999 4287397987
-0.16839901 -0.188458 0.588 4287333721
-0.166527 -0.188136 0.58700001 4289044349
-0.165222 -0.188455 0.588 4289570440
-0.16419099 -0.18909401 0.58999997 4289504907
-0.162597 -0.18909299 0.58999997 4289702286
-0.16100401 -0.189092 0.58999997 4289636747
-0.159411 -0.189091 0.58999997 4289767818
-0.157818 -0.189091 0.58999997 4289767302
-0.15622599 -0.18909 0.58999997 4289503871
-0.15489499 -0.189411 0.59100002 4289240444
-0.1533 -0.189411 0.59100002 4288187246
-0.151705 -0.189411 0.59100002 4287595366
-0.15011001 -0.189411 0.59100002 4288516468
-0.14826401 -0.189091 0.58999997 4290029707
-0.14667299 -0.189091 0.58999997 4289964167
-0.145327 -0.189413 0.59100002 4289767302
-0.143732 -0.189413 0.59100002 4289701509
-0.14189801 -0.18909401 0.58999997 4289438854
-0.140306 -0.18909501 0.58999997 4289570440
-0.138244 -0.188455 0.588 4289701772
-0.13689101 -0.188777 0.58899999 4289635981
-0.13530201 -0.188779 0.58899999 4289635981
-0.133486 -0.18846001 0.588 4289636233
-0.13212501 -0.18878201 0.58899999 4289570186
-0.130536 -0.188784 0.58899999 4289438600
-0.128948 -0.188785 0.58899999 4289373061
-0.12736 -0.188787 0.58899999 4289505161
-0.125985 -0.18911 0.58999997 4289438854
-0.124394 -0.18911199 0.58999997 4289373060
-0.122803 -0.189114 0.58999997 4289373567
-0.121212 -0.189117 0.58999997 4289373567
-0.119823 -0.18944 0.59100002 4289636476
-0.11823 -0.18944199 0.59100002 4289175420
-0.116636 -0.189445 0.59100002 4288517237
-0.115042 -0.189447 0.59100002 4288319607
-0.11364 -0.18977 0.59200001 4288253814
-0.112233 -0.19009399 0.59299999 4288056433
-0.110634 -0.19009601 0.59299999 4287003231
-0.109219 -0.19042 0.59399998 4286017104
-0.107798 -0.190743 0.59500003 4287398513
-0.106015 -0.19042601 0.59399998 4289043338
-0.104061 -0.189787 0.59200001 4289110403
-0.102465 -0.18979 0.59200001 4288978303
-0.100868 -0.18979301 0.59200001 4289438853
-0.099439196 -0.190117 0.59299999 4289241728
-0.097839803 -0.19012 0.59299999 4289306754
-0.096564896 -0.190764 0.59500003 4288779642
-0.094959997 -0.19076701 0.59500003 4287463780
-0.093355097 -0.19077 0.59500003 4287003229
-0.0917501 -0.19077399 0.59500003 4287726952
-0.089993604 -0.190456 0.59399998 4288516468
-0.088242397 -0.190138 0.59299999 4289109374
-0.086642697 -0.19014201 0.59299999 4289306751
-0.085042901 -0.190145 0.59299999 4289438337
-0.083302401 -0.189827 0.59200001 4289240958
-0.081705198 -0.18983001 0.59200001 4288977786
-0.080107898 -0.189833 0.59200001 4288977786
-0.078775801 -0.190478 0.59399998 4288977788
-0.077173099 -0.19048101 0.59399998 4288451958
-0.075443 -0.190163 0.59299999 4288386165
-0.073842898 -0.190166 0.59299999 4287334759
-0.072364397 -0.19049001 0.59399998 4285623888
-0.070999697 -0.19113401 0.59600002 4285689681
-0.069158398 -0.190496 0.59399998 4287531624
-0.067555197 -0.19049899 0.59399998 4288911995
-0.065840997 -0.190181 0.59299999 4289108860
-0.064457104 -0.190825 0.59500003 4289108860
-0.062851101 -0.190828 0.59500003 4289306239
-0.061245099 -0.19083001 0.59500003 4289042812
-0.059438501 -0.190192 0.59299999 4288583544
-0.0577402 -0.18987399 0.59200001 4289109889
-0.0562368 -0.19019701 0.59299999 4288649338
-0.054728098 -0.19052 0.59399998 4288583545
-0.053213801 -0.190844 0.59500003 4288583544
-0.0516074 -0.190846 0.59500003 4287991407
-0.050000899 -0.19084799 0.59500003 4288188272
-0.0483131 -0.19053 0.59399998 4286610008
-0.046709199 -0.190532 0.59399998 4287202144
-0.045029301 -0.19021399 0.59299999 4288189039
-0.043501299 -0.19053701 0.59399998 4287399785
-0.042038299 -0.19118001 0.59600002 4288650366
-0.040360998 -0.190862 0.59500003 4288649861
-0.038688999 -0.190543 0.59399998 4288913548
-0.036959998 -0.18990301 0.59200001 4288847508
-0.035420898 -0.190226 0.59299999 4289241755
-0.0338763 -0.190548 0.59399998 4288913805
-0.032272 -0.19055 0.59399998 4288979853
-0.030616101 -0.190231 0.59299999 4289111180
-0.028965401 -0.18991099 0.59200001 4289045387
-0.0273664 -0.189913 0.59200001 4288584835
-0.025854399 -0.190556 0.59399998 4289111180
-0.0242907 -0.190878 0.59500003 4288650886
-0.0227216 -0.1912 0.59600002 4288716681
-0.021040799 -0.190559 0.59399998 4289571990
-0.0194035 -0.19024 0.59299999 4289243798
-0.0178016 -0.19024099 0.59299999 4288914319
-0.016226999 -0.19056199 0.59399998 4289374864
-0.0145977 -0.19024201 0.59299999 4288716421
-0.0130177 -0.19056401 0.59399998 4288584573
-0.0113938 -0.190244 0.59299999 4289307782
-0.0097917896 -0.190244 0.59299999 4288649852
-0.0081621502 -0.189603 0.59100002 4288979333
-0.0065655299 -0.189604 0.59100002 4288979079
-0.0049688998 -0.189604 0.59100002 4289242512
-0.0033722599 -0.189604 0.59100002 4288453254
-0.00177561 -0.189604 0.59100002 4288782474
-0.000179273 -0.189925 0.59200001 4288584835
0.00142007 -0.189925 0.59200001 4288453503
0.00301432 -0.189604 0.59100002 4288188787
0.00462656 -0.190246 0.59299999 4286741340
0.0062390999 -0.190566 0.59399998 4286806620
0.0078570396 -0.19088601 0.59500003 4287200863
0.0094485497 -0.190565 0.59399998 4287727207
0.0110719 -0.19088501 0.59500003 4287727721
0.012658 -0.19056401 0.59399998 4287530857
0.0142626 -0.19056299 0.59399998 4288320372
0.015893999 -0.190883 0.59500003 4288583544
0.0174719 -0.19056199 0.59399998 4287794029
0.019044399 -0.19024 0.59299999 4288780924
0.0206115 -0.189918 0.59200001 4287990893
0.022248199 -0.190238 0.59299999 4287925100
0.0238098 -0.189916 0.59200001 4289109888
0.0254518 -0.190235 0.59299999 4289044095
0.0270079 -0.189913 0.59200001 4288715384
0.0287036 -0.19055299 0.59399998 4288846716
0.030257 -0.190231 0.59299999 4288977788
0.031858601 -0.190229 0.59299999 4287464045
0.033403799 -0.189907 0.59200001 4286741341
0.035061799 -0.190226 0.59299999 4288780924
0.036601499 -0.18990301 0.59200001 4288715130
0.0382003 -0.18990199 0.59200001 4288650357
0.0396646 -0.18925799 0.58999997 4288452726
0.041397799 -0.189898 0.59200001 4288254587
0.042923801 -0.189575 0.59100002 4288189817
0.044670399 -0.19021399 0.59299999 4288255608
0.0461936 -0.189891 0.59200001 4287663471
0.0478728 -0.19021 0.59299999 4287597164
0.049390499 -0.189887 0.59200001 4287333738
0.050902799 -0.189564 0.59100002 4287203183
0.0525872 -0.189882 0.59200001 4285361238
0.054460101 -0.190842 0.59500003 4282072110
0.056349099 -0.191801 0.59799999 4283979358
0.057866499 -0.191478 0.597 4287730824
0.059079599 -0.190192 0.59299999 4289244558
0.060782701 -0.19051 0.59399998 4288848779
0.062281001 -0.19018701 0.59299999 4289177485
0.063881703 -0.190184 0.59299999 4289177999
0.065482199 -0.190181 0.59299999 4288717707
0.067195803 -0.19049899 0.59399998 4289178260
0.068914801 -0.190817 0.59500003 4288980626
0.070402101 -0.190493 0.59399998 4288520077
0.0716414 -0.189528 0.59100002 4288388491
0.073236302 -0.18952499 0.59100002 4288849042
0.074451201 -0.18855999 0.588 4289112212
0.076167203 -0.188878 0.58899999 4288783247
0.077624403 -0.188554 0.588 4288980881
0.079345703 -0.18887199 0.58899999 4288783247
0.080797397 -0.188548 0.588 4288849040
0.082664102 -0.18918701 0.58999997 4288849040
0.084255897 -0.189183 0.58999997 4288914835
0.085992999 -0.189501 0.59100002 4289046421
0.087587401 -0.18949801 0.59100002 4289112215
0.089332603 -0.189815 0.59200001 4288586385
0.0907759 -0.189492 0.59100002 4288849303
0.0923701 -0.18948901 0.59100002 4288849557
0.093964301 -0.189486 0.59100002 4289112729
0.095720097 -0.189803 0.59200001 4288520591
0.097152397 -0.18947899 0.59100002 4288586384
0.098913498 -0.189797 0.59200001 4288586384
0.10051 -0.189794 0.59200001 4288192140
0.101934 -0.18946999 0.59100002 4288192141
0.103353 -0.189147 0.58999997 4288126348
0.104766 -0.188823 0.58899999 4288520338
0.106535 -0.18914101 0.58999997 4288520338
0.108493 -0.189779 0.59200001 4288520338
0.11009 -0.189777 0.59200001 4288520078
0.111497 -0.18945301 0.59100002 4288914836
0.1129 -0.18912999 0.58999997 4288388491
0.114685 -0.189448 0.59100002 4288717456
0.116475 -0.189766 0.59200001 4288848526
0.118271 -0.190084 0.59299999 4288387975
0.119668 -0.189761 0.59200001 4288914321
0.121265 -0.189758 0.59200001 4288716942
0.122653 -0.18943501 0.59100002 4288849042
0.124037 -0.18911301 0.58999997 4288652177
0.12562799 -0.18911 0.58999997 4288454282
0.12764999 -0.189749 0.59200001 4288454537
0.12924699 -0.18974701 0.59200001 4288585868
0.130622 -0.18942501 0.59100002 4288651402
0.131769 -0.18878201 0.58899999 4288454021
0.13358399 -0.189101 0.58999997 4288716934
0.135175 -0.189099 0.58999997 4288782472
0.136535 -0.188777 0.58899999 4288585093
0.137889 -0.188456 0.588 4288454021
0.13971201 -0.188775 0.58899999 4288519816
0.141541 -0.18909401 0.58999997 4288453768
0.143132 -0.18909299 0.58999997 4288716940
0.14447901 -0.18877199 0.58899999 4288651147
0.14631601 -0.189092 0.58999997 4288388489
0.148158 -0.189411 0.59100002 4288322698
0.1495 -0.189091 0.58999997 4288454023
0.15083601 -0.18877 0.58899999 4288256903
0.152684 -0.18909 0.58999997 4288125317
0.154276 -0.18909 0.58999997 4288322184
0.15586901 -0.18909 0.58999997 4288782986
0.157461 -0.189091 0.58999997 4287929203
0.159054 -0.189091 0.58999997 4288125825
0.160647 -0.189092 0.58999997 4288257156
0.16279 -0.189734 0.59200001 4288322951
0.164389 -0.189735 0.59200001 4287598973
0.165427 -0.18909501 0.58999997 4287862145
0.166738 -0.188776 0.58899999 4288125317
0.168615 -0.189099 0.58999997 4287862145
0.170497 -0.189421 0.59100002 4287993731
0.17151199 -0.18878201 0.58899999 4287927938
0.17281 -0.188464 0.588 4287927940
0.174992 -0.189108 0.58999997 4287861633
0.17628799 -0.18878999 0.58899999 4287861631
0.178183 -0.18911301 0.58999997 4287927424
0.17977899 -0.189117 0.58999997 4288059010
0.18168201 -0.189441 0.59100002 4288059010
0.183281 -0.189445 0.59100002 4287730812
0.18488 -0.189449 0.59100002 4287730812
0.18616401 -0.189133 0.58999997 4288191363
0.18776201 -0.189137 0.58999997 4288125570
0.18935899 -0.189142 0.58999997 4288322696
0.190634 -0.18882699 0.58899999 4288256903
0.192229 -0.188832 0.58899999 4288388489
0.19382501 -0.18883801 0.58899999 4288125317
0.19575299 -0.189165 0.58999997 4287993986
0.197019 -0.18885 0.58899999 4288191110
0.19794101 -0.188216 0.58700001 4288191110
0.199194 -0.187902 0.58600003 4287731075
0.20112699 -0.18822999 0.58700001 4287665282
0.20306499 -0.188558 0.588 4287665282
0.204662 -0.188566 0.588 4287796352
0.206259 -0.188575 0.588 4287993731
0.207856 -0.188583 0.588 4287862147
0.209098 -0.188272 0.58700001 4287927940
0.210335 -0.18796 0.58600003 4287928455
0.21192899 -0.18797 0.58600003 4287731076
0.213523 -0.18798 0.58600003 4288060041
0.21511801 -0.18799099 0.58600003 4287993733
0.21708401 -0.18832199 0.58700001 4288256391
0.219055 -0.188655 0.588 4288059010
0.22140799 -0.189308 0.58999997 4288453509
0.222261 -0.188678 0.588 4288125058
0.22158 -0.186766 0.58200002 4287730298
0.21780001 -0.182285 0.56800002 4287862145
0.21085501 -0.175238 0.546 4288059527
0.212346 -0.17524999 0.546 4288322696
0.217363 -0.17815299 0.55500001 4288125317
0.218091 -0.177525 0.55299997 4287928708
0.209676 -0.169513 0.528 4288125833
-0.19887701 -0.18884601 0.58399999 4289504647
-0.19763 -0.189162 0.58499998 4289504393
-0.19637799 -0.18947899 0.58600003 4289306754
-0.19512101 -0.189795 0.58700001 4289372547
-0.19287001 -0.189142 0.58499998 4289438086
-0.191285 -0.189136 0.58499998 4289240707
-0.189051 -0.188484 0.583 4289043328
-0.187472 -0.18847799 0.583 4288977537
-0.186212 -0.188796 0.58399999 4289108353
-0.184946 -0.189115 0.58499998 4288977021
-0.183989 -0.189757 0.58700001 4288713847
-0.18209 -0.189429 0.58600003 4288977021
-0.18050399 -0.18942501 0.58600003 4289108605
-0.178919 -0.189421 0.58600003 4289174653
-0.177334 -0.189417 0.58600003 4289438340
-0.176349 -0.19006 0.588 4289372547
-0.174759 -0.19005699 0.588 4289372547
-0.173463 -0.190378 0.58899999 4289503365
-0.17187101 -0.190375 0.58899999 4289174400
-0.16999 -0.19004899 0.588 4289438086
-0.168115 -0.189724 0.58700001 4289241980
-0.165961 -0.18907601 0.58499998 4289175689
-0.164662 -0.18939701 0.58600003 4289241231
-0.16307899 -0.189395 0.58600003 4289110665
-0.161496 -0.189394 0.58600003 4289110149
-0.159641 -0.18907 0.58499998 4289044096
-0.158061 -0.189069 0.58499998 4288846200
-0.15701699 -0.189714 0.58700001 4289240444
-0.155432 -0.189714 0.58700001 4289174651
-0.153585 -0.18939 0.58600003 4288845433
-0.15200301 -0.18939 0.58600003 4287463780
-0.15042201 -0.18939 0.58600003 4287924333
-0.14884 -0.18939 0.58600003 4288319091
-0.14675599 -0.18874399 0.58399999 4289898121
-0.145429 -0.18906701 0.58499998 4289569925
-0.143851 -0.189068 0.58499998 4289635719
-0.142759 -0.189715 0.58700001 4289833098
-0.140935 -0.189392 0.58600003 4289438340
-0.13959099 -0.189716 0.58700001 4289832846
-0.13777301 -0.189394 0.58600003 4289701260
-0.13619199 -0.189395 0.58600003 4289635726
-0.13461199 -0.18939701 0.58600003 4289964432
-0.13280401 -0.18907499 0.58499998 4289635465
-0.13145 -0.1894 0.58600003 4289569674
-0.12987 -0.189401 0.58600003 4289767053
-0.128508 -0.189726 0.58700001 4289832591
-0.127141 -0.190051 0.588 4289635728
-0.125769 -0.190376 0.58899999 4289701519
-0.12397 -0.190055 0.588 4289635981
-0.122176 -0.189734 0.58700001 4289438337
-0.120593 -0.18973599 0.58700001 4289504130
-0.119213 -0.190061 0.588 4289372032
-0.117627 -0.190064 0.588 4288648054
-0.115844 -0.189743 0.58700001 4287792494
-0.114261 -0.18974499 0.58700001 4287002978
-0.112678 -0.189748 0.58700001 4287201124
-0.111095 -0.18975 0.58700001 4288384631
-0.109512 -0.189753 0.58700001 4288845433
-0.107929 -0.18975601 0.58700001 4288977789
-0.106708 -0.190405 0.58899999 4288583031
-0.10512 -0.19040801 0.58899999 4288845949
-0.103355 -0.19008701 0.588 4289372293
-0.101596 -0.189767 0.58700001 4289109889
-0.100184 -0.190093 0.588 4289307268
-0.0987655 -0.190419 0.58899999 4289241475
-0.097506799 -0.19106799 0.59100002 4289306753
-0.095912702 -0.191071 0.59100002 4289174653
-0.094318599 -0.191074 0.59100002 4288582261
-0.092724502 -0.19107699 0.59100002 4287793000
-0.090976097 -0.19075701 0.58999997 4287003227
-0.089233004 -0.190437 0.58899999 4287661414
-0.087644197 -0.19044 0.58899999 4289108860
-0.086055197 -0.19044299 0.58899999 4289109374
-0.084609598 -0.190769 0.58999997 4289175681
-0.082877196 -0.190449 0.58899999 4289175681
-0.081288099 -0.19045199 0.58899999 4289306754
-0.079699002 -0.190455 0.58899999 4289043832
-0.078242399 -0.190781 0.58999997 4288912510
-0.076650403 -0.19078401 0.58999997 4288715645
-0.075185597 -0.19111 0.59100002 4288387194
-0.073466301 -0.19079 0.58999997 4288321401
-0.071996003 -0.19111601 0.59100002 4287531370
-0.070520297 -0.191442 0.59200001 4288057714
-0.068689801 -0.190798 0.58999997 4287793514
-0.0670975 -0.19080099 0.58999997 4287792998
-0.065505102 -0.190804 0.58999997 4287069275
-0.064021103 -0.19113 0.59100002 4286213968
-0.0624259 -0.19113301 0.59100002 4285885003
-0.060624801 -0.19048899 0.58899999 4287266401
-0.059034899 -0.19049101 0.58899999 4287727468
-0.0572499 -0.18984701 0.58700001 4288714879
-0.055854999 -0.190496 0.58899999 4288715131
-0.054264899 -0.19049899 0.58899999 4289044610
-0.0527642 -0.190825 0.58999997 4289175681
-0.0511714 -0.190827 0.58999997 4289044349
-0.049578398 -0.19082899 0.58999997 4289044349
-0.0479041 -0.19050799 0.58899999 4289241474
-0.0462352 -0.19018701 0.588 4288978302
-0.0446475 -0.190189 0.588 4288978303
-0.043133002 -0.190515 0.58899999 4287202152
-0.0415425 -0.19051699 0.58899999 4289373331
-0.039951999 -0.19051901 0.58899999 4288978827
-0.038296301 -0.19019701 0.588 4288650635
-0.036646001 -0.18987501 0.58700001 4288979598
-0.035120498 -0.190201 0.588 4289440149
-0.0335325 -0.190202 0.588 4289308818
-0.031998798 -0.19052701 0.58899999 4288979851
-0.030408001 -0.190529 0.58899999 4288913801
-0.028768299 -0.190207 0.588 4288716422
-0.027226301 -0.190532 0.58899999 4289044872
-0.0257225 -0.19118001 0.59100002 4288847493
-0.024207801 -0.191828 0.59299999 4288387457
-0.0225299 -0.191183 0.59100002 4288716681
-0.0209335 -0.191184 0.59100002 4289505942
-0.019337101 -0.191185 0.59100002 4288782733
-0.0177707 -0.19150899 0.59200001 4288782733
-0.016144199 -0.19118699 0.59100002 4289309071
-0.0145478 -0.19118699 0.59100002 4288979593
-0.0129294 -0.190865 0.58999997 4288715645
-0.0113356 -0.190865 0.58999997 4288913024
-0.0097417403 -0.19086599 0.58999997 4289044356
-0.0081479102 -0.19086599 0.58999997 4289044873
-0.00654297 -0.190543 0.58899999 4289242512
-0.0049602301 -0.19086701 0.58999997 4289045134
-0.00336637 -0.19086701 0.58999997 4288782219
-0.00177252 -0.19086701 0.58999997 4288979598
-0.000178355 -0.19054399 0.58899999 4288716421
0.0014128 -0.19054399 0.58899999 4288584575
0.0029988601 -0.19022 0.588 4288451959
0.00460291 -0.19086701 0.58999997 4287267171
0.0061967601 -0.19086701 0.58999997 4286805850
0.0078038098 -0.19119 0.59100002 4287134815
0.00938443 -0.19086599 0.58999997 4287266401
0.0109969 -0.19118901 0.59100002 4287530089
0.0125721 -0.190865 0.58999997 4287596136
0.0141658 -0.190864 0.58999997 4287991661
0.015786299 -0.19118699 0.59100002 4288320626
0.017382801 -0.191186 0.59100002 4287465578
0.0189471 -0.190861 0.58999997 4288715131
0.020506 -0.19053701 0.58899999 4288254580
0.0221345 -0.190859 0.58999997 4288057201
0.0237683 -0.191182 0.59100002 4288715131
0.0253646 -0.19118001 0.59100002 4288780923
0.026915301 -0.19085599 0.58999997 4288715130
0.0285089 -0.190854 0.58999997 4288780924
0.0301024 -0.190853 0.58999997 4288846203
0.031695899 -0.190851 0.58999997 4287267171
0.033345699 -0.191173 0.59100002 4285227588
0.035000999 -0.191495 0.59200001 4287793515
0.036537901 -0.19117001 0.59100002 4288780409
0.038133901 -0.191168 0.59100002 4288583545
0.0395955 -0.19051901 0.58899999 4288649852
0.041255899 -0.190841 0.58999997 4288452219
0.042849101 -0.19083899 0.58999997 4287860598
0.044592898 -0.19148301 0.59200001 4288715907
0.046191402 -0.19148099 0.59200001 4287663219
0.0477091 -0.191156 0.59100002 4287597678
0.0492213 -0.19083001 0.58999997 4287466092
0.050728101 -0.190504 0.58899999 4287203183
0.052318301 -0.190502 0.58899999 4286479972
0.054274499 -0.19179299 0.59299999 4281875490
0.056063902 -0.19243699 0.59500003 4283190097
0.057379302 -0.19146501 0.59200001 4286480249
0.0587781 -0.190815 0.58999997 4288783239
0.060268398 -0.19048899 0.58899999 4288321915
0.061753199 -0.190163 0.588 4287927157
0.063447997 -0.190484 0.58899999 4287730035
0.065037698 -0.19048101 0.58899999 4287861623
0.066740498 -0.19080199 0.58999997 4287993211
0.0684487 -0.191122 0.59100002 4287532405
0.0699251 -0.190796 0.58999997 4287926657
0.071274802 -0.190146 0.588 4287795577
0.072861597 -0.190144 0.588 4288190335
0.074448302 -0.19014101 0.588 4287927418
0.075905599 -0.189814 0.58700001 4288190590
0.077357396 -0.18948799 0.58600003 4288058749
0.078938603 -0.189485 0.58600003 4288387461
0.080519602 -0.189482 0.58600003 4288190082
0.082240701 -0.189803 0.58700001 4288255875
0.083824404 -0.18979999 0.58700001 4288650635
0.085408002 -0.189797 0.58700001 4288519047
0.087139703 -0.190117 0.588 4288453254
0.088725999 -0.19011401 0.588 4288782733
0.090312101 -0.190111 0.588 4288980112
0.091898203 -0.190108 0.588 4288848526
0.093325302 -0.18978199 0.58700001 4288782988
0.095070302 -0.190102 0.588 4288651916
0.0966563 -0.190099 0.588 4288849295
0.098409303 -0.19042 0.58899999 4289046674
0.099828102 -0.190093 0.588 4288783247
0.101242 -0.189767 0.58700001 4288783249
0.10265 -0.189441 0.58600003 4288848528
0.10423 -0.189438 0.58600003 4288651149
0.10581 -0.189436 0.58600003 4288717457
0.107757 -0.190079 0.588 4288783250
0.109343 -0.19007701 0.588 4288585871
0.11074 -0.189751 0.58700001 4288651664
0.112132 -0.18942501 0.58600003 4288520078
0.113712 -0.18942299 0.58600003 4288849042
0.115489 -0.189743 0.58700001 4288717456
0.117272 -0.190064 0.588 4288454284
0.118857 -0.190062 0.588 4288717457
0.120238 -0.18973599 0.58700001 4288717457
0.121406 -0.189088 0.58499998 4288586131
0.122984 -0.18908601 0.58499998 4288586131
0.124774 -0.18940701 0.58600003 4288389006
0.12678599 -0.190051 0.588 4288521106
0.128153 -0.189726 0.58700001 4288454798
0.12929501 -0.189078 0.58499998 4288783502
0.130649 -0.18875299 0.58399999 4288586123
0.13245 -0.18907499 0.58499998 4288651400
0.134257 -0.18939701 0.58600003 4288454537
0.135838 -0.18939599 0.58600003 4288520330
0.13718399 -0.189071 0.58499998 4288454282
0.138762 -0.18907 0.58499998 4288322696
0.14058 -0.189392 0.58600003 4288586384
0.142161 -0.189392 0.58600003 4288652431
0.143742 -0.189391 0.58600003 4288455312
0.14532299 -0.18939 0.58600003 4288652691
0.14690401 -0.18939 0.58600003 4288454798
0.148486 -0.18939 0.58600003 4288125833
0.150067 -0.18939 0.58600003 4288059526
0.151908 -0.189713 0.58700001 4288125319
0.153753 -0.190036 0.588 4288321929
0.155341 -0.190037 0.588 4288453768
0.156394 -0.189391 0.58600003 4288586121
0.157977 -0.189392 0.58600003 4288520328
0.159559 -0.189393 0.58600003 4288125570
0.161691 -0.19004001 0.588 4288389259
0.163002 -0.18971799 0.58700001 4288652431
0.16402701 -0.189073 0.58499998 4288455052
0.165324 -0.188752 0.58399999 4288125833
0.167188 -0.189077 0.58499998 4288256905
0.168768 -0.189079 0.58499998 4288256905
0.170349 -0.189082 0.58499998 4288125833
0.171637 -0.188761 0.58399999 4288125319
0.173512 -0.189087 0.58499998 4288125319
0.17509399 -0.18909 0.58499998 4287993217
0.17667601 -0.18909299 0.58499998 4287598975
0.178259 -0.189097 0.58499998 4288256905
0.179841 -0.189101 0.58499998 4287928708
0.18142401 -0.189105 0.58499998 4287994501
0.183008 -0.189109 0.58499998 4287797122
0.184591 -0.189114 0.58499998 4287468157
0.185857 -0.188795 0.58399999 4287994247
0.18776 -0.189124 0.58499998 4287928454
0.189344 -0.18912899 0.58499998 4287862661
0.191256 -0.189458 0.58600003 4287862661
0.192844 -0.189464 0.58600003 4287928454
0.194433 -0.18946999 0.58600003 4287862661
0.195353 -0.18883 0.58399999 4287731075
0.19660001 -0.18851399 0.583 4287862661
0.197841 -0.188198 0.58200002 4288125833
0.199764 -0.188529 0.583 4287994247
0.201692 -0.18886 0.58399999 4288125834
0.20362601 -0.189192 0.58499998 4287928454
0.20521501 -0.1892 0.58499998 4287665282
0.206451 -0.188886 0.58399999 4287730561
0.207683 -0.188572 0.583 4288191112
