# .PCD v0.7 - Point Cloud Data file format
VERSION 0.7
FIELDS x y z rgb
SIZE 4 4 4 4
TYPE F F F U
COUNT 1 1 1 1
WIDTH 1136
HEIGHT 1
VIEWPOINT 0 0 0 1 0 0 0
POINTS 1136
DATA ascii
0.452225 0.140293 0.70899999 4287072875
0.45370001 0.140149 0.708 4287138414
0.45710701 0.1406 0.70999998 4287006575
0.45858899 0.140458 0.70899999 4287335287
0.46202001 0.140911 0.71100003 4287137910
0.46351001 0.140771 0.70999998 4287730047
0.466966 0.14122701 0.71200001 4287597947
0.46912101 0.141288 0.71200001 4285558364
0.47062099 0.141151 0.71100003 4286413673
0.47145399 0.140816 0.70899999 4287005810
0.47428501 0.14107899 0.70999998 4287268982
0.47712699 0.141342 0.71100003 4286742636
0.479307 0.141408 0.71100003 4287006316
0.48081601 0.141276 0.70999998 4287137898
0.48368499 0.141544 0.71100003 4287006312
0.48588201 0.14161301 0.71100003 4286479968
0.4874 0.14148501 0.70999998 4287137129
0.48891699 0.141357 0.70899999 4287071082
0.48974201 0.141031 0.70700002 4286742118
0.491952 0.141105 0.70700002 4286347367
-0.199628 0.13661399 0.70999998 4288323223
-0.19771799 0.136619 0.70999998 4285757810
-0.19608399 0.13681699 0.71100003 4286349693
-0.19389801 0.13663 0.70999998 4289244071
-0.192259 0.13682801 0.71100003 4289572520
-0.190613 0.137026 0.71200001 4289506727
-0.18843301 0.136839 0.71100003 4289375911
-0.18573301 0.13626701 0.708 4289639083
-0.183569 0.13608 0.70700002 4289179046
-0.18218 0.136471 0.70899999 4289179046
-0.18078101 0.13686199 0.71100003 4289770669
-0.178616 0.136675 0.70999998 4289244325
-0.176706 0.13668101 0.70999998 4289506727
-0.174795 0.136687 0.70999998 4290427570
-0.17312799 0.136886 0.71100003 4289637538
-0.170973 0.13669901 0.70999998 4289309087
-0.169062 0.13670599 0.70999998 4289571745
-0.166916 0.136519 0.70899999 4290492846
-0.165007 0.13652501 0.70899999 4289506468
-0.16309801 0.13653199 0.70899999 4289374882
-0.16141701 0.13673 0.70999998 4289309087
-0.15950499 0.136737 0.70999998 4289505952
-0.157371 0.13655099 0.70899999 4289308319
-0.155681 0.136749 0.70999998 4289177503
-0.153769 0.136756 0.70999998 4289506468
-0.151429 0.13637701 0.708 4289441189
-0.14931101 0.136191 0.70700002 4289440673
-0.147406 0.136197 0.70700002 4289439644
-0.145501 0.13620301 0.70700002 4288123784
-0.144003 0.136595 0.70899999 4288254344
-0.14229199 0.136794 0.70999998 4288320137
-0.140774 0.13718601 0.71200001 4288188806
-0.13866 0.13699999 0.71100003 4288255113
-0.13674399 0.137006 0.71100003 4288123781
-0.13444801 0.136627 0.70899999 4289044881
-0.132723 0.13682599 0.70999998 4288518537
-0.13080899 0.136832 0.70999998 4288716173
-0.129076 0.137031 0.71100003 4288913295
-0.12698001 0.13684499 0.70999998 4288847759
-0.125241 0.137044 0.71100003 4287531899
-0.123323 0.13705 0.71100003 4288123784
-0.121405 0.13705599 0.71100003 4287992198
-0.119487 0.137062 0.71100003 4288584335
-0.117734 0.137261 0.71200001 4289044886
-0.115649 0.13707501 0.71100003 4288781968
-0.113411 0.136695 0.70899999 4288518796
-0.11134 0.136508 0.708 4288650382
-0.109583 0.13670699 0.70899999 4288386956
-0.107821 0.136906 0.70999998 4288386956
-0.106053 0.137104 0.71100003 4288452749
-0.104133 0.13710999 0.71100003 4288584335
-0.102213 0.137116 0.71100003 4288255370
-0.100292 0.13712101 0.71100003 4288255370
-0.098095097 0.136741 0.70899999 4288519057
-0.096315399 0.136939 0.70999998 4289308573
-0.094397098 0.13694499 0.70999998 4289177503
-0.092608899 0.137143 0.71100003 4289046431
-0.090815 0.13734099 0.71200001 4289243294
-0.088765897 0.137153 0.71100003 4289440928
-0.086844102 0.13715801 0.71100003 4289243549
-0.084922202 0.137163 0.71100003 4289309342
-0.082999997 0.13716801 0.71100003 4289374366
-0.081077702 0.137173 0.71100003 4289111708
-0.078932501 0.136792 0.70899999 4288980122
-0.077123798 0.13699 0.70999998 4288848536
-0.075203598 0.136994 0.70999998 4289111447
-0.073489703 0.137385 0.71200001 4289177238
-0.071362697 0.137003 0.70999998 4289374103
-0.069441997 0.137008 0.70999998 4289505689
-0.067521103 0.137012 0.70999998 4289045140
-0.065600097 0.137016 0.70999998 4288781714
-0.063678801 0.13702001 0.70999998 4288847507
-0.061844401 0.137217 0.71100003 4288781715
-0.059920199 0.13722099 0.71100003 4288781461
-0.057914302 0.137031 0.70999998 4288781715
-0.055992398 0.137035 0.70999998 4288518543
-0.054146599 0.13723101 0.71100003 4288453003
-0.052221801 0.137235 0.71100003 4288255624
-0.050084598 0.136659 0.708 4287992450
-0.0480996 0.13646901 0.70700002 4287992450
-0.046054602 0.136086 0.70499998 4287860864
-0.044208199 0.136282 0.70599997 4288057988
-0.042236298 0.13609201 0.70499998 4288386953
-0.040212601 0.135708 0.70300001 4288123013
-0.037818201 0.133973 0.69400001 4287794820
-0.0353688 0.131852 0.68300003 4287730562
-0.032831699 0.129152 0.66900003 4288586402
-0.0304168 0.126644 0.65600002 4288850095
-0.0282031 0.124715 0.64600003 4287928482
-0.0262074 0.123559 0.63999999 4284769904
-0.0243588 0.122981 0.63700002 4283584582
-0.0225974 0.12279 0.63599998 4283386940
-0.020874299 0.122791 0.63599998 4283452476
-0.019181199 0.122986 0.63700002 4283123510
-0.0174552 0.122987 0.63700002 4282399787
-0.0157292 0.122988 0.63700002 4282662960
-0.0140031 0.122989 0.63700002 4282859824
-0.0122577 0.122797 0.63599998 4282794031
-0.0105508 0.122991 0.63700002 4282596392
-0.0088107996 0.122798 0.63599998 4282661670
-0.0070873098 0.122799 0.63599998 4282792995
-0.00537223 0.122992 0.63700002 4282595100
-0.00365172 0.123186 0.63800001 4282792479
-0.00192578 0.123379 0.639 4282726686
-0.000194105 0.123379 0.639 4282727454
0.00153997 0.123572 0.63999999 4282661407
0.00326924 0.123379 0.639 4282792993
0.0050008902 0.123378 0.639 4282661409
0.0067325402 0.123378 0.639 4282661154
0.0084906602 0.123764 0.64099997 4282595363
0.0102117 0.12357 0.63999999 4282661156
0.0119647 0.123762 0.64099997 4282989351
0.0136803 0.123568 0.63999999 4282923812
0.0153904 0.123374 0.639 4282661409
0.017148601 0.123566 0.63999999 4282529823
0.018941799 0.123951 0.64200002 4282858788
0.020713501 0.124143 0.64300001 4282727202
0.022455599 0.124142 0.64300001 4282464289
0.0241601 0.123947 0.64200002 4282332705
0.025979999 0.124332 0.64399999 4282266657
0.0277678 0.124523 0.64499998 4282529829
0.029515 0.124521 0.64499998 4282530084
0.0311653 0.124133 0.64300001 4282398498
0.032855801 0.123938 0.64200002 4282266912
0.0345947 0.123936 0.64200002 4282398498
0.0363901 0.124126 0.64300001 4282530082
0.038131598 0.124124 0.64300001 4282398496
0.0398729 0.124121 0.64300001 4282266910
0.0416141 0.124119 0.64300001 4282135324
0.043422598 0.124309 0.64399999 4281872666
0.0450962 0.124113 0.64300001 4282070561
0.046982698 0.124496 0.64499998 4282136608
0.048728898 0.124493 0.64499998 4282268454
0.050631501 0.124876 0.64700001 4282005029
0.052301802 0.12468 0.64600003 4282530859
0.0539666 0.124484 0.64499998 4282596138
0.055625901 0.124287 0.64399999 4282332452
0.057279602 0.124091 0.64300001 4282464036
0.059111401 0.12428 0.64399999 4282332705
0.060759399 0.124083 0.64300001 4282529315
0.062596202 0.124273 0.64399999 4282200864
0.064438298 0.124462 0.64499998 4281937692
0.066388302 0.124844 0.64700001 4282201119
0.068138301 0.124839 0.64700001 4282332444
0.0696721 0.124449 0.64499998 4282266651
0.0714164 0.124445 0.64499998 4282069017
0.073047101 0.124248 0.64399999 4282003224
0.074788302 0.124244 0.64399999 4281806614
0.076410502 0.124046 0.64300001 4282070045
0.0781487 0.124042 0.64300001 4281939228
0.080011003 0.12423 0.64399999 4281938712
0.082005396 0.124611 0.64600003 4281872919
0.083751202 0.124606 0.64600003 4281872407
0.085496701 0.124601 0.64600003 4282069786
0.0871071 0.124404 0.64499998 4282135065
0.088849597 0.124399 0.64499998 4282069272
0.0905919 0.124394 0.64499998 4282200603
0.092477299 0.124582 0.64600003 4282069272
0.094367802 0.124769 0.64700001 4282069272
0.096263498 0.124957 0.648 4282332444
0.0980132 0.124952 0.648 4282332444
0.099608697 0.124753 0.64700001 4281871638
0.101199 0.124555 0.64600003 4282201119
0.102624 0.124164 0.64399999 4281806361
0.1042 0.123966 0.64300001 4282069533
0.1061 0.124153 0.64399999 4282135324
0.107838 0.124148 0.64399999 4282135324
0.109915 0.124528 0.64600003 4281675287
0.111658 0.124522 0.64600003 4281938459
0.113752 0.124902 0.648 4282201886
0.115321 0.124704 0.64700001 4281939229
0.116885 0.124505 0.64600003 4281741596
0.11826 0.124114 0.64399999 4281741850
0.120183 0.124301 0.64499998 4281741850
0.121922 0.124295 0.64499998 4281873436
0.123852 0.124482 0.64600003 4281741850
0.125594 0.124476 0.64600003 4281873182
0.127138 0.124278 0.64499998 4281939490
0.129076 0.124465 0.64600003 4282136615
0.130817 0.124459 0.64600003 4281807136
0.132557 0.124453 0.64600003 4281609757
0.134506 0.12464 0.64700001 4281938976
0.137091 0.125405 0.65100002 4281676317
0.14247 0.128673 0.66799998 4281742110
0.14837299 0.13232701 0.68699998 4281742110
0.15284701 0.13463201 0.699 4281873696
0.15517201 0.135011 0.70099998 4284374343
0.15728401 0.135198 0.70200002 4285887580
0.159174 0.13519099 0.70200002 4286019166
0.161064 0.135185 0.70200002 4286150495
0.163186 0.135371 0.70300001 4286281827
0.16484401 0.13517299 0.70200002 4285952862
0.166734 0.135167 0.70200002 4286545000
0.16910399 0.135546 0.704 4286742638
0.171241 0.135732 0.70499998 4286479466
0.173875 0.13630401 0.708 4286940017
0.175781 0.136298 0.708 4286874224
0.177937 0.136484 0.70899999 4286676845
0.179591 0.13628601 0.708 4286479717
0.18124001 0.136087 0.70700002 4286216294
0.18314201 0.13608199 0.70700002 4285623902
0.185306 0.136268 0.708 4286676590
0.188004 0.13684 0.71100003 4286347625
0.189917 0.13683499 0.71100003 4286018913
0.19182999 0.136829 0.71100003 4286018656
0.19347 0.136631 0.70999998 4286347620
0.195105 0.13643301 0.70899999 4286281827
0.196734 0.136236 0.708 4286544999
0.19863901 0.13623101 0.708 4286018656
0.200827 0.136418 0.70899999 4286084449
0.20273399 0.13641299 0.70899999 4286216035
0.204353 0.136216 0.708 4286150501
0.206258 0.13621099 0.708 4285887329
0.20874999 0.136591 0.70999998 4286413673
0.21066099 0.13658699 0.70999998 4286479211
0.212271 0.13639 0.70899999 4286479474
0.21387701 0.13619301 0.708 4286676600
0.216087 0.136382 0.70899999 4286480241
0.217995 0.13637801 0.70899999 4286808690
0.21990199 0.136374 0.70899999 4286874231
0.222123 0.136562 0.70999998 4287203450
0.223719 0.13636599 0.70899999 4286677620
0.22562701 0.136363 0.70899999 4287335036
0.22721501 0.136167 0.708 4287071862
0.22976799 0.136549 0.70999998 4287137657
0.232006 0.136738 0.71100003 4286940278
0.23391999 0.13673601 0.71100003 4287269241
0.23517101 0.13634799 0.70899999 4287335034
0.23708101 0.136346 0.70899999 4287335034
0.239328 0.136536 0.70999998 4287466620
0.24191999 0.13691901 0.71200001 4287597947
0.243838 0.136917 0.71200001 4287598461
0.24541201 0.136723 0.71100003 4287137908
0.247328 0.136721 0.71100003 4287270008
0.249245 0.13672 0.71100003 4287006836
0.250808 0.136527 0.70999998 4287467389
0.25236699 0.136334 0.70899999 4287138424
0.25427899 0.136333 0.70899999 4287138425
0.256192 0.13633201 0.70899999 4286809974
0.257741 0.13614 0.708 4287270011
0.25965199 0.13614 0.708 4287270011
0.26230201 0.13652501 0.70999998 4287138424
0.26421899 0.13652501 0.70999998 4287532668
0.265387 0.136142 0.708 4287138424
0.26692301 0.13595 0.70700002 4286875252
0.26883301 0.135952 0.70700002 4286875766
0.27151 0.136338 0.70899999 4286678387
0.27419901 0.136724 0.71100003 4286611827
0.276122 0.13672601 0.71100003 4286940792
0.277264 0.136344 0.70899999 4286940531
0.27878901 0.136154 0.708 4286809459
0.28070599 0.13615701 0.708 4286743666
0.283023 0.136353 0.70899999 4286941045
0.285346 0.136548 0.70999998 4286875767
0.286865 0.13636 0.70899999 4286809974
0.28838101 0.136172 0.708 4286612595
0.290301 0.13617601 0.708 4285823079
0.29263499 0.136373 0.70899999 4286283629
0.29455999 0.13637801 0.70899999 4286415215
0.296904 0.136576 0.70999998 4286546801
0.298834 0.136582 0.70999998 4286809460
0.30034 0.13639501 0.70899999 4287270011
0.301842 0.136209 0.708 4286875766
0.30291101 0.135831 0.70599997 4286810480
0.30526501 0.136031 0.70700002 4286875766
0.30805999 0.13642301 0.70899999 4286941560
0.31086701 0.136815 0.71100003 4286809206
0.31192601 0.136439 0.70899999 4287006839
0.31386101 0.136447 0.70899999 4287072632
0.31579599 0.136456 0.70899999 4286875253
0.31818101 0.136658 0.70999998 4286941045
0.31967101 0.136475 0.70899999 4287270010
0.32115701 0.13629299 0.708 4287138422
0.32309499 0.13630299 0.708 4287335801
0.32503399 0.136314 0.708 4287335542
0.32835999 0.136903 0.71100003 4287664507
0.33030999 0.136915 0.71100003 4287401080
0.332261 0.13692699 0.71100003 4287335289
0.33233401 0.13617 0.70700002 4287204215
0.334277 0.13618299 0.70700002 4287204215
0.33622101 0.136196 0.70700002 4287270010
0.33864599 0.13640299 0.708 4287335803
0.341077 0.13661 0.70899999 4287335803
0.343032 0.13662501 0.70899999 4287533182
0.344502 0.136447 0.708 4287270011
0.34547901 0.136078 0.70599997 4287335803
0.34742999 0.136094 0.70599997 4287467389
0.34987801 0.13630299 0.70700002 4287533182
0.35283101 0.13670599 0.70899999 4287533696
0.35479599 0.136724 0.70899999 4287401857
0.35676301 0.13674299 0.70899999 4287665029
0.358226 0.13656899 0.708 4287664776
0.360194 0.13658801 0.708 4287598983
0.36165199 0.136415 0.70700002 4287730308
0.363107 0.136242 0.70599997 4287402111
0.36455801 0.13607 0.70499998 4287402624
0.36652601 0.13609201 0.70499998 4287600257
0.36901799 0.136307 0.70599997 4287666050
0.37151799 0.13652299 0.70700002 4287402878
0.37349799 0.136546 0.70700002 4287731075
0.37548 0.13657001 0.70700002 4287599489
0.37746501 0.136594 0.70700002 4287402110
0.37891501 0.136426 0.70599997 4287665536
0.38036099 0.13625801 0.70499998 4287665282
0.383432 0.13667101 0.70700002 4287533696
0.38488099 0.13650499 0.70599997 4287533696
0.38742301 0.13672601 0.70700002 4287862662
0.38997301 0.13694701 0.708 4287730822
0.39253101 0.13717 0.70899999 4287599236
0.394541 0.137199 0.70899999 4287796615
0.39543599 0.136842 0.70700002 4287665029
0.39688399 0.13667899 0.70599997 4287270787
0.39889401 0.136711 0.70599997 4286218613
0.40204301 0.13713001 0.708 4282335806
0.40235201 0.136582 0.70499998 4286086514
0.404369 0.13661601 0.70499998 4288192910
0.40638801 0.13665 0.70499998 4287928715
0.41014799 0.13726699 0.708 4288191889
0.412765 0.13749699 0.70899999 4288257683
0.414805 0.13753299 0.70899999 4287994511
0.41684899 0.13757101 0.70899999 4287928718
0.41889599 0.137609 0.70899999 4287994508
0.42035401 0.137454 0.708 4288060301
0.42121199 0.137105 0.70599997 4288651924
0.42326099 0.137146 0.70599997 4288322961
0.42591599 0.137381 0.70700002 4287796362
0.428581 0.13761801 0.708 4287993741
0.43064699 0.137661 0.708 4288520087
0.433328 0.137899 0.70899999 4288652187
0.434791 0.137749 0.708 4288388499
0.436869 0.137795 0.708 4287599753
0.43895099 0.137841 0.708 4288191120
0.442283 0.13827799 0.70999998 4288323475
0.44437999 0.138327 0.70999998 4287862925
0.445851 0.138181 0.70899999 4287994257
0.447954 0.13823099 0.70899999 4287797131
0.448156 0.13769799 0.70599997 4287664515
0.45025799 0.137749 0.70599997 4286809459
0.45172399 0.13760699 0.70499998 4287072370
0.45512 0.138051 0.70700002 4287071601
0.45723999 0.138106 0.70700002 4286940017
0.46066299 0.13855299 0.70899999 4287401082
0.46214601 0.13841499 0.708 4287268989
0.464939 0.138668 0.70899999 4287597947
0.46642601 0.138532 0.708 4286151015
0.46791199 0.13839599 0.70700002 4287597947
0.46939701 0.13826101 0.70599997 4286874224
0.47288501 0.138715 0.708 4287137394
0.47571999 0.13897499 0.70899999 4287334773
0.478567 0.139236 0.70999998 4286545252
0.48007199 0.13910501 0.70899999 4286611558
0.48293599 0.139369 0.70999998 4287269229
0.48376301 0.139044 0.708 4286742631
0.48595601 0.13911299 0.708 4286676325
0.48815599 0.139184 0.708 4287136361
0.489669 0.13905901 0.70700002 4286872934
0.491182 0.138935 0.70599997 4286807394
-0.199071 0.134321 0.708 4287533707
-0.197723 0.13470501 0.70999998 4285955189
-0.195262 0.134331 0.708 4289244585
-0.192811 0.133957 0.70599997 4289375657
-0.191182 0.134152 0.70700002 4289375141
-0.189816 0.134537 0.70899999 4289309348
-0.18790901 0.134543 0.70899999 4289506727
-0.18547601 0.134169 0.70700002 4289704876
-0.18331499 0.133985 0.70599997 4289573290
-0.18141501 0.133991 0.70599997 4289902255
-0.180024 0.134376 0.708 4289244325
-0.177867 0.134192 0.70700002 4289507497
-0.175965 0.134198 0.70700002 4290098864
-0.174062 0.134204 0.70700002 4290362036
-0.17191599 0.13402 0.70599997 4289703847
-0.16977499 0.133836 0.70499998 4289111710
-0.168116 0.134032 0.70599997 4290097835
-0.16598 0.13384899 0.70499998 4290295468
-0.164315 0.134045 0.70599997 4289177503
-0.162644 0.134241 0.70700002 4289243296
-0.16096801 0.13443699 0.708 4289834663
-0.15883701 0.134253 0.70700002 4289571491
-0.15693399 0.13426 0.70700002 4289308834
-0.155249 0.13445599 0.708 4289506213
-0.153126 0.13427199 0.70700002 4289572006
-0.151008 0.13408899 0.70599997 4289177762
-0.148895 0.13390499 0.70499998 4289045401
-0.14699499 0.133911 0.70499998 4288913300
-0.145096 0.133918 0.70499998 4288255370
-0.143603 0.134304 0.70700002 4287860355
-0.141497 0.13412 0.70599997 4288386185
-0.13999 0.134507 0.708 4288451978
-0.137887 0.134323 0.70700002 4288386699
-0.13617299 0.134519 0.708 4288650125
-0.13426501 0.134526 0.708 4288518796
-0.132543 0.13472199 0.70899999 4288453001
-0.130447 0.13453799 0.708 4288913552
-0.128538 0.134545 0.708 4289045138
-0.126449 0.134361 0.70700002 4287992450
-0.124543 0.134367 0.70700002 4288255367
-0.122635 0.13437299 0.70700002 4288649871
-0.120557 0.13418899 0.70599997 4287926405
-0.118821 0.134385 0.70700002 4288715921
-0.116913 0.13439099 0.70700002 4288781714
-0.114842 0.134207 0.70599997 4289045140
-0.112777 0.134023 0.70499998 4288453001
-0.110874 0.134029 0.70499998 4288518794
-0.10928 0.134415 0.70700002 4288387210
-0.107523 0.134611 0.708 4288518542
-0.105909 0.134997 0.70999998 4288584335
-0.103846 0.134813 0.70899999 4288123785
-0.101787 0.134628 0.708 4288255370
-0.099592596 0.134253 0.70599997 4287729026
-0.097685501 0.134259 0.70599997 4289242779
-0.096049502 0.134645 0.708 4289506466
-0.094269499 0.13484 0.70899999 4289441187
-0.092353597 0.134845 0.70899999 4288915613
-0.090437599 0.13485099 0.70899999 4289046429
-0.088271603 0.13447499 0.70700002 4289309601
-0.086482704 0.134671 0.708 4289046429
-0.084568799 0.13467599 0.708 4288980636
-0.0826547 0.134681 0.708 4289309087
-0.080854401 0.134876 0.70899999 4289111708
-0.078825802 0.13469 0.708 4288849050
-0.077019803 0.134885 0.70899999 4288914845
-0.0749963 0.134699 0.708 4288980377
-0.073184498 0.134894 0.70899999 4288914582
-0.071166001 0.134708 0.708 4289111447
-0.069250599 0.134712 0.708 4288848273
-0.067430101 0.13490701 0.70899999 4289374103
-0.065511703 0.134911 0.70899999 4289045140
-0.063593097 0.13491499 0.70899999 4289176726
-0.0615003 0.13453799 0.70700002 4289308058
-0.059586801 0.134542 0.70700002 4289176473
-0.057591598 0.13435499 0.70599997 4289702816
-0.055838201 0.134739 0.708 4289571484
-0.053997699 0.13493299 0.70899999 4289308312
-0.052078199 0.134937 0.70899999 4289242519
-0.049946301 0.134369 0.70599997 4289308826
-0.047898602 0.133991 0.704 4288914068
-0.045926899 0.13380399 0.70300001 4288848275
-0.044085801 0.13399699 0.704 4288782228
-0.0421791 0.134 0.704 4288715921
-0.040158 0.13362201 0.70200002 4288518542
-0.037929598 0.13248201 0.69599998 4288650129
-0.035474699 0.130391 0.685 4288125076
-0.0328339 0.12734701 0.66900003 4288849576
-0.0304651 0.125065 0.65700001 4288784048
-0.028205 0.122973 0.64600003 4287533725
-0.026168101 0.121642 0.639 4285032056
-0.0243604 0.121263 0.63700002 4283584331
-0.0225989 0.121074 0.63599998 4283452982
-0.020908499 0.121266 0.63700002 4283255350
-0.0192126 0.121458 0.63800001 4283188789
-0.017483801 0.121459 0.63800001 4282794032
-0.0157302 0.12127 0.63700002 4282925618
-0.014004 0.121271 0.63700002 4282925103
-0.0122778 0.121272 0.63700002 4282925103
-0.0105681 0.121463 0.63800001 4282924587
-0.0088252397 0.121273 0.63700002 4282792742
-0.0070989202 0.121274 0.63700002 4282792995
-0.0053725899 0.121274 0.63700002 4282989604
-0.00365769 0.121655 0.639 4282792226
-0.00192892 0.121846 0.63999999 4282989605
-0.000194422 0.121846 0.63999999 4282792226
0.0015400799 0.121846 0.63999999 4282923812
0.00327457 0.121846 0.63999999 4283121190
0.0050168801 0.122036 0.64099997 4282727202
0.0067540598 0.122035 0.64099997 4282661154
0.00849122 0.122035 0.64099997 4282661154
0.0102284 0.122034 0.64099997 4282529568
0.0119655 0.122033 0.64099997 4282595363
0.0136812 0.121842 0.63999999 4282726433
0.0153914 0.121651 0.639 4282529568
0.0171498 0.12184 0.63999999 4282529823
0.018972499 0.12241 0.64300001 4282595361
0.020747099 0.122599 0.64399999 4282464289
0.022492001 0.122598 0.64399999 4282530082
0.024236901 0.122596 0.64399999 4282332705
0.0259817 0.122595 0.64399999 4282332450
0.027769599 0.122783 0.64499998 4282529829
0.029517001 0.122781 0.64499998 4282924587
0.0312158 0.122589 0.64399999 4282200864
0.032909099 0.122397 0.64300001 4282595877
0.034650899 0.122394 0.64300001 4282266398
0.036449101 0.122582 0.64399999 4282595363
0.0381933 0.12258 0.64399999 4282397984
0.039875399 0.122387 0.64300001 4282397984
0.041681498 0.122575 0.64399999 4282134810
0.0434254 0.122572 0.64399999 4282332189
0.045169201 0.122569 0.64399999 4282070047
0.046985701 0.122757 0.64499998 4281807389
0.048732001 0.122754 0.64499998 4281939490
0.050556399 0.122941 0.64600003 4281610271
0.052305099 0.122938 0.64600003 4282333480
0.054053701 0.122934 0.64600003 4282267173
0.055802099 0.122931 0.64600003 4282135073
0.0574614 0.122737 0.64499998 4282331936
0.059206799 0.122734 0.64499998 4282463007
0.060857601 0.12254 0.64399999 4282660387
0.062794499 0.122916 0.64600003 4282134043
0.064542197 0.122912 0.64600003 4281674006
0.066494897 0.123289 0.648 4281673491
0.068142399 0.123095 0.64700001 4282265882
0.069784299 0.1229 0.64600003 4282134810
0.071642101 0.123086 0.64700001 4282069017
0.073391698 0.123082 0.64700001 4282134810
0.075141102 0.123078 0.64700001 4282069017
0.076771498 0.122883 0.64600003 4281675287
0.078517899 0.122878 0.64600003 4281807128
0.080264099 0.122874 0.64600003 4281872921
0.0821371 0.123059 0.64700001 4281807126
0.084015302 0.123245 0.648 4281872407
0.085633896 0.12305 0.64700001 4281937686
0.087382101 0.123045 0.64700001 4281673744
0.088854603 0.12266 0.64499998 4281673744
0.090737402 0.122845 0.64600003 4281673745
0.092625499 0.12303 0.64700001 4281673744
0.094372898 0.123025 0.64700001 4281871123
0.096120201 0.12302 0.64700001 4282200089
0.098018497 0.123204 0.648 4281805331
0.099767998 0.123199 0.648 4281279503
0.101361 0.123004 0.64700001 4282200605
0.102788 0.122618 0.64499998 4282003226
0.104529 0.122613 0.64499998 4281740568
0.10627 0.122607 0.64499998 4281674775
0.108178 0.122792 0.64600003 4282069531
0.110091 0.122976 0.64700001 4281872666
0.112009 0.123161 0.648 4282004252
0.113933 0.123345 0.64899999 4282135838
0.115149 0.122769 0.64600003 4281807389
0.11671 0.122574 0.64499998 4281938976
0.118266 0.122378 0.64399999 4282070047
0.120375 0.122752 0.64600003 4282070047
0.122117 0.122747 0.64600003 4281741082
0.124242 0.123121 0.648 4281741596
0.12579399 0.122925 0.64700001 4281873183
0.127538 0.122919 0.64700001 4281873443
0.129281 0.122913 0.64700001 4281544478
0.131025 0.122908 0.64700001 4281543964
0.13276801 0.122902 0.64700001 4282004515
0.134719 0.123086 0.648 4281872929
0.13793901 0.12441 0.65499997 4281873697
0.143116 0.127443 0.671 4281610524
0.148811 0.13085499 0.68900001 4281478938
0.152854 0.13274799 0.699 4282202661
0.154957 0.13293201 0.69999999 4284834892
0.157066 0.13311499 0.70099998 4285032526
0.15895399 0.133109 0.70099998 4285164112
0.1613 0.13348299 0.70300001 4285426772
0.163193 0.133476 0.70300001 4285689690
0.165085 0.13347 0.70300001 4285689690
0.16674 0.133274 0.70200002 4285887070
0.168869 0.133458 0.70300001 4286149988
0.170762 0.133452 0.70300001 4286216294
0.173145 0.133826 0.70499998 4286282087
0.175538 0.13419899 0.70700002 4286018915
0.177692 0.13438299 0.708 4286018915
0.179343 0.134187 0.70700002 4286413418
0.180989 0.133992 0.70599997 4286018660
0.18263 0.13379601 0.70499998 4285754983
0.184526 0.133791 0.70499998 4285887076
0.18695199 0.13416401 0.70700002 4285953122
0.18912099 0.134349 0.708 4285953122
0.19156501 0.13472299 0.70999998 4285887329
0.193203 0.134527 0.70899999 4285887327
0.19456001 0.13414299 0.70700002 4285755483
0.19618399 0.133948 0.70599997 4286216034
0.198083 0.13394301 0.70599997 4285755996
0.20026501 0.13412701 0.70700002 4285755483
0.202453 0.134312 0.708 4286281827
0.204069 0.13411701 0.70700002 4286018656
0.205971 0.134113 0.70700002 4285492312
0.207579 0.133918 0.70599997 4285163606
0.209775 0.134103 0.70700002 4285887329
0.211677 0.13409901 0.70700002 4286215787
0.213579 0.134095 0.70700002 4286545004
0.215786 0.13428 0.708 4286085980
0.217691 0.134276 0.708 4285954394
0.219596 0.13427199 0.708 4285756004
0.22118799 0.13407899 0.70700002 4286019174
0.22309101 0.134075 0.70700002 4286084967
0.224676 0.133882 0.70599997 4285624416
0.225934 0.13349999 0.704 4285953122
0.22815301 0.13368601 0.70499998 4286084708
0.230703 0.13406201 0.70700002 4286084453
0.233265 0.13443901 0.70899999 4286282087
0.23451 0.134057 0.70700002 4286545259
0.23608001 0.133865 0.70599997 4286545004
0.238656 0.134242 0.708 4286742383
0.24090201 0.13442899 0.70899999 4286545259
0.24247 0.134238 0.708 4286414187
0.24403299 0.134046 0.70700002 4286743664
0.245938 0.134045 0.70700002 4286743664
0.24854501 0.134423 0.70899999 4286874736
0.24975 0.13404199 0.70700002 4286941045
0.25201201 0.134231 0.708 4286808945
0.25356299 0.134041 0.70700002 4287006838
0.255108 0.13384999 0.70599997 4287072631
0.25664899 0.133661 0.70499998 4287270011
0.25891799 0.13384999 0.70599997 4287072631
0.26119399 0.13404 0.70700002 4287072117
0.26310199 0.13404 0.70700002 4286940531
0.26463699 0.13385101 0.70599997 4287137910
0.26654401 0.13385201 0.70599997 4286743666
0.26921201 0.134232 0.708 4286612594
0.27150899 0.134423 0.70899999 4286612594
0.273426 0.134425 0.70899999 4286875253
0.274955 0.13423701 0.708 4286677873
0.27647901 0.13405 0.70700002 4286677357
0.27799901 0.133863 0.70599997 4286677357
0.27991 0.133865 0.70599997 4286809198
0.281822 0.13386799 0.70599997 4287006577
0.28494 0.134441 0.70899999 4287006838
0.28686199 0.134444 0.70899999 4286809973
0.288784 0.13444801 0.70899999 4286217837
0.290297 0.13426299 0.708 4286481523
0.292218 0.134267 0.708 4285823592
0.29414001 0.13427199 0.708 4286481008
0.29606199 0.134277 0.708 4286612595
0.29840699 0.134472 0.70899999 4286481009
0.29991099 0.134288 0.708 4286612594
0.30098301 0.13391501 0.70599997 4287007353
0.302046 0.133542 0.704 4287073146
0.30396301 0.133549 0.704 4287072378
0.306315 0.133746 0.70499998 4287007099
0.30867299 0.13394301 0.70599997 4286678134
0.31059799 0.13395099 0.70599997 4287006839
0.313409 0.134339 0.708 4287138424
0.314897 0.134158 0.70700002 4286875252
0.317276 0.13435601 0.708 4287137910
0.31830901 0.133986 0.70599997 4287204215
0.32023999 0.13399599 0.70599997 4286875250
0.32217199 0.13400599 0.70599997 4287138422
0.32410499 0.13401701 0.70599997 4287533435
0.32650101 0.13421801 0.70700002 4287598714
0.328904 0.13441899 0.708 4287335542
0.33037999 0.134241 0.70700002 4286743919
0.33138099 0.133873 0.70499998 4287072884
0.332845 0.133696 0.704 4287204731
0.33525699 0.133899 0.70499998 4287336317
0.33767501 0.134103 0.70599997 4287073146
0.33961999 0.13411701 0.70599997 4287336064
0.341566 0.134131 0.70599997 4287204478
0.343027 0.133956 0.70499998 4287402111
0.344484 0.133781 0.704 4287336317
0.34593701 0.133607 0.70300001 4287598975
0.34837699 0.13381401 0.704 4287204217
0.35132101 0.134211 0.70599997 4287138938
0.35377699 0.134418 0.70700002 4287599236
0.35624099 0.134626 0.708 4287533443
0.35719499 0.13426401 0.70599997 4287664517
0.358648 0.134093 0.70499998 4287730310
0.36060899 0.134112 0.70499998 4287533183
0.36205801 0.13394199 0.704 4287467390
0.36401999 0.133963 0.704 4287796868
0.36650401 0.134174 0.70499998 4287862661
0.36899599 0.134386 0.70599997 4287665283
0.37097001 0.134408 0.70599997 4287533697
0.37241799 0.13424 0.70499998 4287664769
0.374394 0.13426401 0.70499998 4287533182
0.37583899 0.13409699 0.704 4287467389
0.37781599 0.134121 0.704 4288059526
0.37925699 0.133956 0.70300001 4287993733
0.38123599 0.133981 0.70300001 4287599489
0.383219 0.13400801 0.70300001 4287665282
0.38575101 0.134225 0.704 4287731076
0.38829201 0.134443 0.70499998 4287796615
0.39084101 0.134662 0.70599997 4287599238
0.39284199 0.134691 0.70599997 4287270785
0.39372799 0.134339 0.704 4287599750
0.39572901 0.134369 0.704 4287205245
0.39829701 0.134591 0.70499998 4286547316
0.400307 0.13462199 0.70499998 4284440668
0.401178 0.13427199 0.70300001 4283586630
0.40318799 0.134305 0.70300001 4288258439
0.40577701 0.13452999 0.704 4288389266
0.40895501 0.134946 0.70599997 4287994510
0.410983 0.13498101 0.70599997 4287928465
0.41359901 0.135208 0.70700002 4288125843
0.415048 0.13505401 0.70599997 4287994511
0.41708601 0.13509101 0.70599997 4288060303
0.41853401 0.134938 0.70499998 4287928715
0.41997901 0.134785 0.704 4288059787
0.42322001 0.135208 0.70599997 4288322445
0.42527199 0.13524801 0.70599997 4288125068
0.42732799 0.13529 0.70599997 4288124813
0.42877901 0.13514 0.70499998 4287993743
0.43083999 0.13518301 0.70499998 4288585880
0.43228999 0.13503499 0.704 4288322708
0.43497199 0.135271 0.70499998 4287598983
0.43766499 0.135509 0.70599997 4287928203
0.44036701 0.135747 0.70700002 4288125580
0.44245401 0.135794 0.70700002 4287928717
0.44391599 0.13564999 0.70599997 4287862925
0.44537601 0.135507 0.70499998 4288126097
0.446201 0.13517299 0.70300001 4288190859
0.44765499 0.135031 0.70200002 4287467390
0.44974899 0.135083 0.70200002 4287400568
0.452492 0.13532799 0.70300001 4287334773
0.45459801 0.135381 0.70300001 4286677098
0.458009 0.135821 0.70499998 4287268982
0.46078399 0.13607 0.70599997 4287335287
0.46291399 0.136126 0.70599997 4287795326
0.465049 0.13618401 0.70599997 4286611050
0.467852 0.136436 0.70700002 4287400566
0.469336 0.13630299 0.70599997 4287729533
0.47148699 0.136364 0.70599997 4286347878
0.47364399 0.136426 0.70599997 4287334516
0.47715399 0.136876 0.708 4287202929
0.478652 0.136747 0.70700002 4286940011
0.480829 0.136813 0.70700002 4287137136
0.48096201 0.136299 0.704 4286873964
0.48314199 0.13636599 0.704 4287005290
0.48601699 0.136629 0.70499998 4286346845
0.48890501 0.136893 0.70599997 4286872934
0.49041399 0.13677 0.70499998 4287070313
-0.19823299 0.131851 0.70499998 4285494124
-0.196615 0.132043 0.70599997 4288849313
-0.19416399 0.13167401 0.704 4289375911
-0.19199701 0.131493 0.70300001 4289769899
-0.190377 0.131685 0.704 4289769640
-0.188751 0.131878 0.70499998 4289835692
-0.18711901 0.13207 0.70599997 4289704106
-0.184957 0.131889 0.70499998 4289440934
-0.18280099 0.131707 0.704 4290033071
-0.180907 0.131713 0.704 4289440934
-0.17952099 0.132093 0.70599997 4289704106
-0.17762201 0.132099 0.70599997 4290099634
-0.175473 0.131918 0.70499998 4289704106
-0.17332999 0.13173699 0.704 4290295729
-0.17119201 0.131556 0.70300001 4289243041
-0.1693 0.13156199 0.70300001 4289440420
-0.167408 0.131568 0.70300001 4289637285
-0.16551501 0.131574 0.70300001 4290229421
-0.163856 0.131767 0.704 4289308834
-0.161961 0.13177299 0.704 4289243041
-0.160293 0.13196699 0.70499998 4289243041
-0.15817 0.131786 0.704 4289506213
-0.15627401 0.13179199 0.704 4289375141
-0.154378 0.131798 0.704 4289506213
-0.152482 0.131805 0.704 4289440934
-0.150372 0.131624 0.70300001 4289046176
-0.148479 0.13163 0.70300001 4289110940
-0.14679299 0.131824 0.704 4287926406
-0.144897 0.13183001 0.704 4288123527
-0.14320301 0.13202401 0.70499998 4287991941
-0.141103 0.131843 0.704 4288386185
-0.139403 0.132036 0.70499998 4288320392
-0.137113 0.131668 0.70300001 4288320906
-0.135603 0.13204899 0.70499998 4288847504
-0.133323 0.13168 0.70300001 4288781711
-0.13180099 0.132061 0.70499998 4288387210
-0.12971599 0.13188 0.704 4288979345
-0.127818 0.13188601 0.704 4289176469
-0.125919 0.13189299 0.704 4287334265
-0.124196 0.13208599 0.70499998 4288781711
-0.122468 0.13228001 0.70599997 4288255113
-0.120393 0.132098 0.70499998 4288518285
-0.11849 0.13210399 0.70499998 4288847507
-0.116257 0.131736 0.70300001 4288979347
-0.114523 0.131929 0.704 4288453003
-0.112623 0.131935 0.704 4288650380
-0.11088 0.132128 0.70499998 4288650123
-0.109286 0.13250899 0.70700002 4288650123
-0.107225 0.13232701 0.70599997 4288584332
-0.105468 0.13252001 0.70700002 4288715664
-0.103558 0.132526 0.70700002 4288255371
-0.101649 0.132531 0.70700002 4287992199
-0.099316001 0.131975 0.704 4288123785
-0.097414203 0.13198 0.704 4288848021
-0.095647797 0.132173 0.70499998 4289111708
-0.0940089 0.132553 0.70700002 4289375394
-0.092098303 0.132558 0.70700002 4289441189
-0.090187602 0.13256399 0.70700002 4289112224
-0.088151902 0.13238101 0.70599997 4288914329
-0.086243398 0.132386 0.70599997 4289045915
-0.084095903 0.132016 0.704 4289177501
-0.082309298 0.132208 0.70499998 4289309087
-0.080517001 0.132401 0.70599997 4289111708
-0.078719199 0.13259301 0.70700002 4288783259
-0.076698497 0.13241 0.70599997 4288849052
-0.074788898 0.132415 0.70599997 4289111963
-0.072879203 0.13241901 0.70599997 4289375133
-0.070969298 0.132423 0.70599997 4288979861
-0.069059201 0.13242801 0.70599997 4288782480
-0.067244001 0.13261899 0.70700002 4288979859
-0.065238498 0.13243601 0.70599997 4289045140
-0.063327901 0.13244 0.70599997 4289439898
-0.061243199 0.13206799 0.704 4289044886
-0.0595062 0.132447 0.70599997 4288847507
-0.0576768 0.13263901 0.70700002 4289110679
-0.055841699 0.13282999 0.708 4289242519
-0.053848799 0.132645 0.70700002 4289176726
-0.051787701 0.132274 0.70499998 4289177240
-0.049807999 0.132089 0.704 4289177240
-0.047833599 0.131905 0.70300001 4289243033
-0.0458645 0.13172001 0.70200002 4289177238
-0.043963298 0.131723 0.70200002 4289440412
-0.042061999 0.131726 0.70200002 4289308572
-0.0401606 0.13172799 0.70200002 4289242780
-0.037986599 0.13079201 0.69700003 4289374112
-0.035580602 0.12891801 0.68699998 4288979869
-0.032639701 0.124792 0.66500002 4288850091
-0.0302816 0.122542 0.653 4288915635
-0.028119501 0.120855 0.64399999 4286414737
-0.026169799 0.119919 0.639 4284637298
-0.024362 0.119545 0.63700002 4283452996
-0.0226715 0.119734 0.63800001 4283387448
-0.0209099 0.119548 0.63700002 4283057457
-0.0192439 0.119924 0.639 4282991410
-0.0174849 0.119738 0.63800001 4282859825
-0.0157806 0.119927 0.639 4282662446
-0.0140269 0.11974 0.63800001 4282925104
-0.0123172 0.119929 0.639 4282793517
-0.0105854 0.119929 0.639 4282924589
-0.0088535296 0.11993 0.639 4283122221
-0.0071105398 0.119743 0.63800001 4282595363
-0.0053898101 0.119931 0.639 4282792742
-0.00366365 0.120119 0.63999999 4282792487
-0.00193507 0.120494 0.64200002 4282858280
-0.000195042 0.120495 0.64200002 4282924075
0.00154258 0.120307 0.64099997 4283120938
0.0032696701 0.119931 0.639 4283055144
0.0050093802 0.120119 0.63999999 4283055398
0.0067544999 0.120306 0.64099997 4282660640
0.0085182702 0.120681 0.64300001 4282989605
0.010245 0.120493 0.64200002 4282792226
0.0119849 0.120492 0.64200002 4282660640
0.0137034 0.120303 0.64099997 4282463261
0.0154406 0.120302 0.64099997 4282726433
0.0172313 0.120677 0.64300001 4282792225
0.019032801 0.121051 0.64499998 4282727202
0.020748399 0.120862 0.64399999 4282464289
0.0224586 0.120673 0.64300001 4282595875
0.0241632 0.120484 0.64200002 4282398496
0.025983401 0.120857 0.64399999 4282332705
0.027728301 0.120856 0.64399999 4282660903
0.0295189 0.121041 0.64499998 4282463010
0.0312178 0.120852 0.64399999 4282397217
0.032911301 0.120662 0.64300001 4282134045
0.034706999 0.120847 0.64399999 4282528803
0.0365646 0.12122 0.64600003 4282265629
0.038314398 0.121218 0.64600003 4282594593
0.040002 0.121028 0.64499998 4282331421
0.041684099 0.120838 0.64399999 4281739538
0.043428201 0.120835 0.64399999 4282265882
0.045172099 0.120832 0.64399999 4281937947
0.0469887 0.121017 0.64499998 4282004254
0.048735101 0.121014 0.64499998 4282004768
0.050481301 0.121011 0.64499998 4281807389
0.052308399 0.121195 0.64600003 4282465319
0.054057099 0.121192 0.64600003 4282595877
0.055805601 0.121189 0.64600003 4282266398
0.057553999 0.121185 0.64600003 4282199836
0.0593022 0.121181 0.64600003 4282001946
0.0609558 0.12099 0.64499998 4281869846
0.062798299 0.121174 0.64600003 4281804053
0.064645998 0.121358 0.64700001 4282001432
0.066499002 0.121541 0.648 4281804307
0.068146497 0.12135 0.64700001 4281870099
0.069896497 0.121346 0.64700001 4281936406
0.0716464 0.121341 0.64700001 4281936663
0.073509499 0.121525 0.648 4282069019
0.075261697 0.12152 0.648 4282069533
0.076894902 0.121328 0.64700001 4281938461
0.078522503 0.121136 0.64600003 4281806875
0.080268703 0.121132 0.64600003 4282070047
0.082141802 0.121315 0.64700001 4281937947
0.084020004 0.121497 0.648 4282331421
0.085903503 0.12168 0.64899999 4281805331
0.087657198 0.121675 0.64899999 4281475855
0.089135103 0.121295 0.64700001 4282002199
0.090882897 0.12129 0.64700001 4281739281
0.092487402 0.121098 0.64600003 4281541902
0.094378099 0.12128 0.64700001 4281870613
0.096125402 0.121275 0.64700001 4281475855
0.098023698 0.121457 0.648 4281476113
0.099773303 0.121452 0.648 4281344529
0.101679 0.121634 0.64899999 4281541908
0.103272 0.121441 0.648 4282200350
0.104697 0.121061 0.64600003 4281609496
0.10644 0.121055 0.64600003 4281675289
0.108351 0.121237 0.64700001 4282004254
0.110267 0.121419 0.648 4281741596
0.112015 0.121414 0.648 4281741596
0.113763 0.121408 0.648 4281938722
0.114976 0.12084 0.64499998 4281807136
0.116897 0.121022 0.64600003 4281938208
0.118455 0.120829 0.64499998 4282004001
0.120753 0.121385 0.648 4281938208
0.122311 0.121192 0.64700001 4281806622
0.124247 0.121374 0.648 4281938462
0.1258 0.121181 0.64700001 4281807136
0.127544 0.121175 0.64700001 4281807136
0.129087 0.120982 0.64600003 4282136101
0.13103101 0.121163 0.64700001 4281807136
0.132774 0.121158 0.64700001 4281412892
0.13493299 0.121526 0.64899999 4281676064
0.138366 0.123018 0.65700001 4281741857
0.143549 0.126008 0.67299998 4281742111
0.149249 0.129372 0.69099998 4281873697
0.152641 0.130677 0.69800001 4282926642
0.154742 0.130858 0.699 4283782459
0.156848 0.131038 0.69999999 4284308803
0.15850601 0.130845 0.699 4284900681
0.16107699 0.1314 0.70200002 4284900427
0.162967 0.131394 0.70200002 4284966221
0.164856 0.13138799 0.70200002 4285360725
0.166508 0.13119499 0.70099998 4285229139
0.168635 0.131376 0.70200002 4285294932
0.170525 0.13136999 0.70200002 4285492822
0.17265899 0.131551 0.70300001 4285361236
0.17504799 0.131919 0.70499998 4285690201
0.176945 0.13191301 0.70499998 4285690203
0.178588 0.13172001 0.704 4285755743
0.180482 0.131714 0.704 4285821536
0.182376 0.13170899 0.704 4286018915
0.184532 0.13189 0.70499998 4285097811
0.18642899 0.13188399 0.70499998 4285953122
0.188592 0.132066 0.70599997 4285755743
0.190761 0.132247 0.70700002 4285558364
0.19239099 0.132055 0.70599997 4285689948
0.193464 0.13148899 0.70300001 4285361238
0.195355 0.131483 0.70300001 4285887831
0.19752701 0.13166501 0.704 4285624410
0.19970401 0.13184699 0.70499998 4285229652
0.2016 0.131842 0.70499998 4285887069
0.203208 0.13165 0.704 4285887070
0.205102 0.13164601 0.704 4285689691
0.206995 0.131641 0.704 4286018656
0.209186 0.131823 0.70499998 4286084706
0.21108299 0.13181899 0.70499998 4286150499
0.212979 0.131815 0.70499998 4285887327
0.21518099 0.131997 0.70599997 4285624157
0.21708 0.131993 0.70599997 4284966227
0.21898 0.131989 0.70599997 4285031765
0.220879 0.13198601 0.70599997 4285755743
0.222464 0.131795 0.70499998 4285953120
0.224043 0.131605 0.704 4286348133
0.22529501 0.131227 0.70200002 4286018655
0.227185 0.13122401 0.70200002 4285755996
0.23005401 0.131782 0.70499998 4286018402
0.231951 0.131779 0.70499998 4286150242
0.23385 0.13177601 0.70499998 4286149988
0.23574799 0.13177399 0.70499998 4285821023
0.237984 0.13195799 0.70599997 4286084195
0.239885 0.131956 0.70599997 4286150248
0.241445 0.131767 0.70499998 4286215787
0.242999 0.131578 0.704 4285821534
0.24489599 0.131577 0.704 4285821534
0.247144 0.131762 0.70499998 4285887329
0.249044 0.131761 0.70499998 4285492571
0.250945 0.13176 0.70499998 4285558364
0.252846 0.131759 0.70499998 4286018915
0.25438601 0.13157199 0.704 4285624671
0.25628501 0.13157099 0.704 4286019429
0.25781801 0.131384 0.70300001 4286085222
0.259716 0.131384 0.70300001 4286282601
0.26161301 0.131384 0.70300001 4286282601
0.26351199 0.131385 0.70300001 4286479980
0.26503301 0.131199 0.70200002 4286480494
0.26730999 0.131387 0.70300001 4286480494
0.26997599 0.131762 0.70499998 4286414701
0.27188101 0.131763 0.70499998 4286545773
0.273011 0.131391 0.70300001 4286874477
0.27491301 0.131393 0.70300001 4286479717
0.276815 0.131395 0.70300001 4286545761
0.27911401 0.131585 0.704 4286611558
0.28101999 0.131588 0.704 4287071854
0.28332901 0.131778 0.70499998 4286809196
0.28523901 0.131781 0.70499998 4286941043
0.28674299 0.131598 0.704 4287006838
0.28824201 0.13141499 0.70300001 4287073145
0.29014999 0.131419 0.70300001 4286481008
0.29247299 0.131611 0.704 4285954664
0.29438499 0.131616 0.704 4286349422
0.296718 0.131808 0.70499998 4286349422
0.29821 0.131626 0.704 4286612594
0.299272 0.131258 0.70200002 4286611827
0.300753 0.131078 0.70099998 4287203966
0.303092 0.131271 0.70200002 4286809206
0.30587301 0.131652 0.704 4287203966
0.30822799 0.131846 0.70499998 4286875515
0.31015 0.131854 0.70499998 4287072632
0.31207299 0.131862 0.70499998 4286480494
0.313997 0.13187 0.70499998 4286875252
0.31592199 0.131879 0.70499998 4286677359
0.31739801 0.13170099 0.704 4286875252
0.319776 0.131897 0.70499998 4286875252
0.32124901 0.13172001 0.704 4287335801
0.323176 0.131731 0.704 4287138422
0.32510501 0.131741 0.704 4287203701
0.32703501 0.131752 0.704 4287401335
0.32849899 0.131577 0.70300001 4286874991
0.330899 0.13177601 0.704 4286941298
0.33236 0.13160101 0.70300001 4287007352
0.33429301 0.131613 0.70300001 4286941559
0.335749 0.131439 0.70200002 4286942074
0.33816299 0.13164 0.70300001 4286941820
0.34009999 0.13165399 0.70300001 4286941560
0.34155199 0.13148201 0.70200002 4287007352
0.34300101 0.131309 0.70099998 4287401596
0.34395301 0.13095 0.699 4287270010
0.34588599 0.13096599 0.699 4287335803
0.34881601 0.131357 0.70099998 4287467389
0.35125801 0.131561 0.70200002 4287006585
0.353708 0.13176601 0.70300001 4287401345
0.35565901 0.13178401 0.70300001 4287532929
0.356594 0.131427 0.70099998 4287927687
0.35803199 0.13125899 0.69999999 4287598722
0.360495 0.131465 0.70099998 4287533696
0.36244801 0.131485 0.70099998 4287599490
0.36544299 0.131881 0.70300001 4287533697
0.36740699 0.13190199 0.70300001 4287665029
0.368846 0.131736 0.70200002 4287400839
0.37028301 0.13157 0.70099998 4287467138
0.37224701 0.131593 0.70099998 4287270011
0.37421301 0.131616 0.70099998 4287730561
0.37564501 0.13145199 0.69999999 4287796354
0.37761301 0.131477 0.69999999 4287467389
0.379042 0.13131399 0.699 4287927940
0.38101199 0.131339 0.699 4287796355
0.383533 0.13155299 0.69999999 4287665029
0.386062 0.131768 0.70099998 4287928203
0.38859901 0.131984 0.70200002 4287796617
0.39114401 0.1322 0.70300001 4287730822
0.39258 0.13203999 0.70200002 4287665283
0.39457399 0.13207 0.70200002 4287862147
0.39657199 0.1321 0.70200002 4287533182
0.398572 0.132131 0.70200002 4286414701
0.399434 0.13178501 0.69999999 4281875245
0.40143499 0.131818 0.69999999 4287796869
0.404015 0.132039 0.70099998 4288257682
0.40718299 0.132449 0.70300001 4287994511
0.409201 0.13248301 0.70300001 4287862671
0.41122299 0.13251799 0.70300001 4287928464
0.413248 0.13255399 0.70300001 4288060050
0.41527599 0.13259 0.70300001 4288257682
0.417308 0.132627 0.70300001 4287928717
0.41934401 0.13266499 0.70300001 4287861894
0.42198199 0.132893 0.704 4288059273
0.424027 0.13293301 0.704 4288256654
0.42607599 0.132973 0.704 4288125068
0.42752099 0.132825 0.70300001 4287796362
0.42896399 0.132678 0.70200002 4288322706
0.43101799 0.13272101 0.70200002 4288454294
0.43369401 0.132954 0.70300001 4288125582
0.43575999 0.132998 0.70300001 4287533443
0.43845201 0.133233 0.704 4287862408
0.43990299 0.13309 0.70300001 4287796364
0.44135299 0.132947 0.70200002 4287796878
0.443432 0.13299499 0.70200002 4287731599
0.44424701 0.13266499 0.69999999 4287731339
0.44633001 0.132715 0.69999999 4287598722
0.44841701 0.132765 0.69999999 4286743152
0.451152 0.13300601 0.70099998 4287334773
0.45260501 0.13286901 0.69999999 4286413926
0.45600501 0.133302 0.70200002 4286677096
0.45877001 0.13354599 0.70300001 4287466614
0.461546 0.133792 0.704 4287006063
0.464333 0.134039 0.70499998 4287466614
0.465808 0.13390601 0.704 4287137396
0.46794599 0.133965 0.704 4287663740
0.46875501 0.133644 0.70200002 4287334773
0.47089899 0.13370501 0.70200002 4286611052
0.47372201 0.133957 0.70300001 4287466102
0.47655699 0.134211 0.704 4287400056
0.47804299 0.134084 0.70300001 4287071344
0.478847 0.13376801 0.70099998 4287136876
0.481702 0.13402499 0.70200002 4287071083
0.485948 0.134665 0.70499998 4286610532
0.48883501 0.13492499 0.70599997 4286873450
0.49103799 0.134995 0.70599997 4286873450
-0.197675 0.129582 0.70300001 4288717223
-0.196063 0.12977099 0.704 4289639344
-0.193618 0.129408 0.70200002 4289310118
-0.191456 0.12922899 0.70099998 4289900971
-0.1893 0.12905 0.69999999 4289967019
-0.187685 0.12924001 0.70099998 4289703592
-0.186064 0.129429 0.70200002 4289703592
-0.18443801 0.129619 0.70300001 4289835178
-0.18228699 0.12944099 0.70200002 4289901226
-0.180656 0.129631 0.70300001 4289704361
-0.17851 0.12945201 0.70200002 4289967533
-0.176621 0.129458 0.70200002 4289441189
-0.174483 0.12928 0.70099998 4289440675
-0.17259701 0.12928601 0.70099998 4289901226
-0.170467 0.129107 0.69999999 4289374627
-0.168824 0.129298 0.70099998 4289374627
-0.16669901 0.12911899 0.69999999 4289966250
-0.165051 0.12931 0.70099998 4289440420
-0.163164 0.129316 0.70099998 4289177248
-0.161277 0.12932201 0.70099998 4289506213
-0.159844 0.129697 0.70300001 4289308320
-0.157727 0.129519 0.70200002 4289308834
-0.156058 0.12971 0.70300001 4289440422
-0.15372699 0.129347 0.70099998 4289506215
-0.152055 0.129538 0.70200002 4289572006
-0.15016501 0.129544 0.70200002 4288979869
-0.148485 0.12973499 0.70300001 4288518289
-0.147008 0.13011 0.70499998 4288518543
-0.144903 0.129932 0.704 4287991941
-0.143006 0.12993801 0.704 4288057734
-0.140708 0.129575 0.70200002 4288254599
-0.13901401 0.129766 0.70300001 4288386699
-0.137119 0.12977199 0.70300001 4288518285
-0.135417 0.129963 0.704 4288584078
-0.133329 0.129785 0.70300001 4288913043
-0.13143399 0.12979101 0.70300001 4288781711
-0.129354 0.129613 0.70200002 4289044883
-0.127461 0.129619 0.70200002 4288057988
-0.125746 0.12981001 0.70300001 4288255367
-0.12385 0.129816 0.70300001 4288847250
-0.122127 0.130006 0.704 4288320906
-0.119886 0.12964299 0.70200002 4288781457
-0.117992 0.129649 0.70200002 4288913297
-0.115933 0.12947001 0.70099998 4289110933
-0.114041 0.129476 0.70099998 4288255624
