# .PCD v0.7 - Point Cloud Data file format
VERSION 0.7
FIELDS x y z rgb
SIZE 4 4 4 4
TYPE F F F U
COUNT 1 1 1 1
WIDTH 1140
HEIGHT 1
VIEWPOINT 0 0 0 1 0 0 0
POINTS 1140
DATA ascii
0.111185 0.48374999 0.98199999 4284507229
0.113842 0.48376101 0.98199999 4284770401
0.116736 0.48475701 0.98400003 4284704858
0.119277 0.484276 0.98299998 4284573021
0.121938 0.48428801 0.98299998 4285164136
0.124345 0.48331499 0.98100001 4284637792
0.127 0.483327 0.98100001 4285361515
0.129655 0.48334 0.98100001 4285164391
0.132581 0.484339 0.98299998 4285032805
0.135242 0.48435199 0.98299998 4286084977
0.13776401 0.48387399 0.98199999 4284966496
0.14027999 0.48339501 0.98100001 4285098082
0.142937 0.48341 0.98100001 4286150770
0.145594 0.48342499 0.98100001 4286019186
0.1481 0.48294801 0.98000002 4285822066
0.150447 0.48197901 0.97799999 4285887859
0.153254 0.48248801 0.97899997 4286479996
0.156066 0.48299801 0.98000002 4286545016
0.15855999 0.48252201 0.97899997 4286676602
0.16104899 0.48204699 0.97799999 4286018156
0.1637 0.48206499 0.97799999 4285294433
0.16669101 0.48306999 0.98000002 4285689707
0.169176 0.48259601 0.97899997 4286544761
0.17148 0.48163 0.977 4286281075
0.17412999 0.48164999 0.977 4286017903
0.176961 0.48216301 0.97799999 4285425512
0.17943101 0.481691 0.977 4285162340
0.18171 0.48072699 0.97500002 4286216051
0.184167 0.48025599 0.97399998 4286413944
0.187002 0.48077199 0.97500002 4286348665
0.18965 0.480795 0.97500002 4286019700
0.192297 0.480818 0.97500002 4285954421
0.195145 0.481336 0.97600001 4286809730
0.197796 0.481361 0.97600001 4287204488
0.200243 0.48089299 0.97500002 4286283387
0.20247599 0.47993201 0.97299999 4286151286
0.205332 0.480452 0.97399998 4286809216
0.207766 0.47998601 0.97299999 4286611582
0.210412 0.480014 0.97299999 4286414203
0.212621 0.47905499 0.97100002 4286677630
0.21548399 0.47957799 0.972 4286019698
0.21812899 0.47960699 0.972 4286151025
0.22145601 0.48111799 0.97500002 4285164644
0.22364999 0.48016199 0.97299999 4285295975
0.2263 0.48019299 0.97299999 4286151284
0.22894999 0.48022601 0.97299999 4286678144
0.231839 0.48075199 0.97399998 4285691250
0.234253 0.48029199 0.97299999 4286743937
0.236662 0.47983301 0.972 4285822835
0.239558 0.480362 0.97299999 4285559663
0.242212 0.480398 0.97299999 4286414972
0.244867 0.48043501 0.97299999 4286545528
0.24726801 0.479978 0.972 4286677114
0.24992099 0.48001701 0.972 4284834910
0.25257599 0.48005599 0.972 4285361254
0.255494 0.480589 0.97299999 4285822319
0.25815201 0.48063001 0.97299999 4285493871
0.26081201 0.480672 0.97299999 4286086268
0.26320201 0.48021999 0.972 4286546821
0.265587 0.47976899 0.97100002 4286217854
0.267692 0.478825 0.96899998 4286809731
0.27062401 0.47936401 0.97000003 4286940288
0.27327999 0.47940901 0.97000003 4285295461
0.27593699 0.47945601 0.97000003 4285624426
0.27830899 0.479009 0.96899998 4286808702
0.28125501 0.479552 0.97000003 4286808702
0.283916 0.479601 0.97000003 4286216565
0.286282 0.479157 0.96899998 4285295977
0.28864399 0.47871399 0.96799999 4286875009
0.29100201 0.47827199 0.96700001 4286875524
0.293659 0.47832501 0.96700001 4287007624
0.29600999 0.47788501 0.96600002 4286547335
0.29835799 0.47744501 0.96499997 4287270544
0.30101299 0.477501 0.96499997 4287467923
0.30366999 0.477559 0.96499997 4286678407
0.30664501 0.47811201 0.96600002 4286349440
0.30930701 0.478172 0.96600002 4287270542
0.311647 0.47773701 0.96499997 4287796886
0.31398299 0.47730401 0.96399999 4287534230
-0.198347 0.50554001 1.031 4285097560
-0.195548 0.50551701 1.031 4284834134
-0.192564 0.50500399 1.03 4285557857
-0.189585 0.50449097 1.029 4285097050
-0.186975 0.50496 1.03 4285820776
-0.18436 0.50542903 1.031 4284899928
-0.181564 0.50540799 1.031 4286610546
-0.17876799 0.50538802 1.031 4285229407
-0.17580201 0.50487798 1.03 4285558886
-0.173178 0.50534898 1.031 4285887853
-0.170219 0.50484002 1.03 4286150770
-0.16710199 0.503842 1.028 4285756012
-0.164157 0.50333399 1.027 4285558635
-0.161374 0.503317 1.027 4286414458
-0.158592 0.50330001 1.027 4286809731
-0.15565801 0.50279403 1.026 4287270282
-0.152879 0.50277799 1.026 4286349180
-0.149808 0.501782 1.024 4285624428
-0.14717899 0.50225699 1.025 4285295461
-0.14454401 0.50273299 1.026 4284768089
-0.141628 0.50222802 1.025 4284768089
-0.13871799 0.501724 1.024 4285689191
-0.13594601 0.50171101 1.024 4286478450
-0.133175 0.50169802 1.024 4285820520
-0.130531 0.50217497 1.025 4285360226
-0.12763201 0.50167298 1.024 4285754730
-0.124618 0.50068098 1.022 4286873465
-0.121733 0.50017899 1.021 4287006079
-0.118971 0.50016803 1.021 4286873979
-0.116323 0.50064701 1.022 4286018670
-0.113336 0.49965701 1.02 4286610293
-0.11036 0.498667 1.018 4286150258
-0.107501 0.49816701 1.017 4286479737
-0.10475 0.49815801 1.017 4285690221
-0.1021 0.498638 1.018 4286742907
-0.099347301 0.498629 1.018 4286216563
-0.096499696 0.49813101 1.017 4285360740
-0.093749799 0.49812201 1.017 4286347374
-0.090910502 0.49762499 1.016 4285228639
-0.088250399 0.49810699 1.017 4285557605
-0.085500903 0.498099 1.017 4285754984
-0.082832903 0.49858201 1.018 4285952110
-0.079923697 0.49759501 1.016 4285952109
-0.077101298 0.49709901 1.015 4285820524
-0.074430898 0.49758199 1.016 4285689707
-0.0716848 0.497576 1.016 4286413428
-0.068938702 0.49757001 1.016 4286611321
-0.066062398 0.49658501 1.0140001 4286085491
-0.063259497 0.49608999 1.013 4286150770
-0.0605218 0.49608499 1.013 4286084977
-0.0577842 0.49608001 1.013 4285952877
-0.055101 0.49656501 1.0140001 4285952879
-0.052257501 0.495581 1.012 4286149489
-0.049571801 0.49606699 1.013 4286873211
-0.046788301 0.49557301 1.012 4287202177
-0.0440102 0.49507999 1.011 4286939004
-0.0411967 0.49409699 1.0089999 4286479221
-0.038470399 0.49409401 1.0089999 4286545528
-0.035673302 0.493112 1.007 4286611582
-0.032919701 0.49261901 1.006 4286941063
-0.030171599 0.492127 1.005 4287335821
-0.0274563 0.492125 1.005 4287072651
-0.024741 0.49212301 1.005 4287072649
-0.0220038 0.491631 1.0039999 4287533200
-0.0192721 0.49114001 1.003 4286809731
-0.0165623 0.49113899 1.003 4286283387
-0.0138249 0.49015799 1.001 4286282617
-0.0111094 0.489667 1 4286348410
-0.0083993198 0.48917699 0.99900001 4287137412
-0.0056946799 0.48868701 0.99800003 4286742909
-0.0029984501 0.488686 0.99800003 4287268739
-0.00030222299 0.488686 0.99800003 4286479735
0.0023940001 0.488686 0.99800003 4287400837
0.0050851302 0.488197 0.99699998 4287269251
0.0077552502 0.48672801 0.99400002 4287268998
0.0104302 0.48623899 0.99299997 4287203205
0.0130865 0.48526099 0.991 4286808449
0.015779801 0.48575199 0.99199998 4287268746
0.018441301 0.485264 0.991 4287729298
0.0210761 0.48428601 0.98900002 4286939781
0.0237481 0.48428801 0.98900002 4287269000
0.0264202 0.48429 0.98900002 4286413691
0.029092301 0.484292 0.98900002 4286282103
0.031732298 0.48380399 0.98799998 4286216051
0.034366898 0.48331699 0.98699999 4287070844
0.037033699 0.48332 0.98699999 4286083949
0.039700601 0.48332301 0.98699999 4285557605
0.042324599 0.48283699 0.986 4285228640
0.044943299 0.48235101 0.98500001 4286281328
0.0476049 0.48235399 0.98500001 4285886833
0.050266601 0.48235801 0.98500001 4285426018
0.052928399 0.48236299 0.98500001 4284965467
0.055590201 0.48236701 0.98500001 4284965972
0.0582521 0.48237199 0.98500001 4285821029
0.060914099 0.48237699 0.98500001 4285493095
0.063511699 0.48189199 0.98400003 4285821290
0.066171199 0.481897 0.98400003 4285228892
0.068830699 0.48190299 0.98400003 4285294939
0.071635701 0.48288801 0.986 4284702802
0.0743009 0.48289499 0.986 4284373580
0.077122301 0.48388001 0.98799998 4284636752
0.079712301 0.48339701 0.98699999 4284439630
0.0823806 0.48340401 0.98699999 4285228893
0.0849628 0.48292199 0.986 4285031261
0.087628499 0.48292899 0.986 4285162847
0.090294503 0.48293701 0.986 4285623912
0.093054801 0.483435 0.98699999 4285098082
0.095626697 0.48295301 0.986 4284966498
0.098193303 0.482472 0.98500001 4285755498
0.100755 0.48199099 0.98400003 4285558633
0.103416 0.48199999 0.98400003 4285360740
0.106077 0.48201001 0.98400003 4285756012
0.108629 0.48153001 0.98299998 4285756526
0.111288 0.48153999 0.98299998 4285822836
0.113947 0.48155001 0.98299998 4285888882
0.116725 0.48205101 0.98400003 4285625710
0.119145 0.48108199 0.98199999 4285494124
0.121926 0.48158401 0.98299998 4285821815
0.124332 0.480616 0.98100001 4285361517
0.12711699 0.48111799 0.98199999 4286677375
0.12964199 0.48063999 0.98100001 4284769378
0.132433 0.481143 0.98199999 4285953393
0.13495301 0.48066601 0.98100001 4285624426
0.13746899 0.48019001 0.98000002 4284834396
0.140265 0.480694 0.98100001 4285229156
0.142922 0.480708 0.98100001 4285755500
0.14543 0.48023301 0.98000002 4285755759
0.14793301 0.47975799 0.97899997 4285690480
0.15043101 0.479283 0.97799999 4285164136
0.153237 0.47978899 0.97899997 4285427308
0.15589 0.47980601 0.97899997 4285229670
0.15838 0.479332 0.97799999 4285492326
0.16103099 0.47934899 0.97799999 4285162847
0.163514 0.47887701 0.977 4284373331
0.166333 0.47938499 0.97799999 4284505433
0.16881099 0.47891301 0.977 4285492073
0.171285 0.47844201 0.97600001 4285425766
0.173932 0.47846201 0.97600001 4284701789
0.17676 0.47897199 0.977 4284899168
0.179226 0.47850201 0.97600001 4284504664
0.181688 0.47803301 0.97500002 4285886831
0.184145 0.47756401 0.97399998 4285953138
0.18678799 0.477586 0.97399998 4286217077
0.18962599 0.47809801 0.97500002 4285888882
0.192274 0.47812101 0.97500002 4285296491
0.19512101 0.47863501 0.97600001 4286809984
0.197772 0.478659 0.97600001 4287007363
0.20021801 0.478194 0.97500002 4286217847
0.20245001 0.477238 0.97299999 4286348663
0.205305 0.477754 0.97399998 4286875007
0.207739 0.47729 0.97299999 4286019700
0.210601 0.477808 0.97399998 4287006595
0.21281099 0.476854 0.972 4286546042
0.21567699 0.477373 0.97299999 4285756526
0.21832401 0.477402 0.97299999 4285821805
0.22119799 0.47792199 0.97399998 4285295461
0.22362 0.47746101 0.97299999 4285822321
0.226501 0.477983 0.97399998 4286480251
0.22915301 0.47801399 0.97399998 4285888628
0.232044 0.47853699 0.97500002 4285560178
0.234219 0.47758901 0.97299999 4286809731
0.236627 0.47713101 0.972 4285822835
0.23952299 0.47765601 0.97299999 4286151800
0.242176 0.47769099 0.97299999 4286348665
0.24508201 0.47821799 0.97399998 4286611321
0.24723101 0.47727299 0.972 4286479221
0.249883 0.47731 0.972 4284637017
0.25253701 0.477348 0.972 4285623912
0.255454 0.477878 0.97299999 4286084977
0.25784701 0.47742599 0.972 4285624942
0.26050299 0.477467 0.972 4286480512
0.26315999 0.47750801 0.972 4286678405
0.265544 0.47705901 0.97100002 4286151547
0.26792401 0.47661099 0.97000003 4287137926
0.27057901 0.47665399 0.97000003 4286545530
0.27323401 0.47669899 0.97000003 4285098084
0.27589101 0.47674501 0.97000003 4286084977
0.27826101 0.4763 0.96899998 4287137665
0.28091699 0.476347 0.96899998 4286282358
0.28357399 0.47639501 0.96899998 4285822319
0.285936 0.47595301 0.96799999 4285295975
0.288295 0.47551101 0.96700001 4286743423
0.29094899 0.47556201 0.96700001 4287072902
0.293605 0.47561401 0.96700001 4287007110
0.29565001 0.474684 0.96499997 4286809993
0.29830301 0.474738 0.96499997 4287402130
0.30095699 0.47479299 0.96499997 4287073165
0.30361199 0.47484899 0.96499997 4286415749
0.30626899 0.474906 0.96499997 4286020475
0.30860701 0.47447199 0.96399999 4287138956
0.31126401 0.47453099 0.96399999 4287468691
0.31327 0.473607 0.96200001 4287337105
0.31592399 0.47366899 0.96200001 4287533453
0.31824899 0.473239 0.96100003 4286217594
0.32056901 0.47281 0.95999998 4285888629
0.323558 0.47336701 0.96100003 4286875009
0.325876 0.47294101 0.95999998 4286875523
0.32819 0.47251499 0.95899999 4287270282
0.33050001 0.47209001 0.958 4287731347
0.33350101 0.472653 0.95899999 4287204749
0.33651 0.47321701 0.95999998 4287007886
0.338819 0.47279599 0.95899999 4286810507
0.34183699 0.473362 0.95999998 4287402644
0.34342599 0.471957 0.95700002 4287534230
0.34572399 0.47154 0.95599997 4286744714
0.34692499 0.46964401 0.95200002 4288192160
0.349942 0.47021601 0.95300001 4287994782
0.35222599 0.46980199 0.95200002 4287468438
0.35450599 0.46938899 0.95099998 4287928989
0.35715899 0.46947101 0.95099998 4288126367
0.35943499 0.46906099 0.94999999 4286876300
0.361707 0.46865299 0.949 4287797402
0.363592 0.467751 0.94700003 4287928988
0.36585501 0.467345 0.94599998 4288389539
0.368893 0.46792799 0.94700003 4287731609
0.37076199 0.467031 0.94499999 4288718504
0.373018 0.466629 0.94400001 4287929240
0.37527001 0.46622801 0.94300002 4287073416
0.37832001 0.466818 0.94400001 4287467661
0.38016701 0.46592501 0.94199997 4288256923
0.38241199 0.46552899 0.94099998 4287006856
-0.198323 0.50269198 1.031 4284176456
-0.195526 0.50266898 1.031 4284308042
-0.19235501 0.50167203 1.029 4285623647
-0.18937901 0.50116301 1.028 4284439119
-0.18695401 0.50211698 1.03 4285755236
-0.184697 0.50355899 1.033 4284373583
-0.18154401 0.50256401 1.031 4286610545
-0.178749 0.502545 1.031 4284505683
-0.175954 0.50252599 1.031 4284967004
-0.173328 0.502994 1.0319999 4285624679
-0.17020001 0.502002 1.03 4286019439
-0.16741 0.501984 1.03 4286084977
-0.164459 0.50147903 1.029 4285295975
-0.161514 0.50097501 1.028 4286414458
-0.15873 0.50095898 1.028 4286612351
-0.155642 0.49996901 1.026 4286875523
-0.15286399 0.499953 1.026 4286020214
-0.150086 0.49993801 1.026 4285756526
-0.147451 0.50041097 1.027 4284703324
-0.14467099 0.50039703 1.027 4284637017
-0.141891 0.50038302 1.027 4284899674
-0.13897599 0.49988201 1.026 4285689191
-0.135933 0.49889499 1.024 4285952363
-0.13316201 0.498882 1.024 4286018156
-0.130519 0.49935701 1.025 4285162847
-0.127745 0.499345 1.025 4285952363
-0.12485 0.49884701 1.024 4286216049
-0.121961 0.498348 1.023 4286611321
-0.119077 0.49785 1.022 4286545528
-0.116426 0.49832699 1.023 4286150256
-0.113437 0.49734199 1.021 4286676086
-0.110459 0.49635801 1.0190001 4286018670
-0.107597 0.49586201 1.018 4286413944
-0.104947 0.49634001 1.0190001 4285756528
-0.102292 0.49681801 1.02 4286217079
-0.099436298 0.49632201 1.0190001 4286479735
-0.096681103 0.49631399 1.0190001 4285032289
-0.093833901 0.495819 1.018 4286281327
-0.091081701 0.49581099 1.018 4285689191
-0.088416398 0.49629 1.0190001 4285689191
-0.085745901 0.49676999 1.02 4285952109
-0.082988702 0.49676299 1.02 4286149232
-0.080074303 0.495783 1.018 4286149232
-0.0772468 0.495289 1.017 4285162594
-0.074571297 0.49577001 1.018 4285228387
-0.071819998 0.49576399 1.018 4285425765
-0.0690009 0.495271 1.017 4286677114
-0.066122197 0.49429199 1.015 4286479735
-0.0633168 0.49380001 1.0140001 4285821805
-0.060636401 0.49428201 1.015 4286019184
-0.0578366 0.49379 1.0140001 4285756012
-0.0550966 0.49378601 1.0140001 4285952879
-0.052253399 0.49280801 1.012 4285952624
-0.049616799 0.49377799 1.0140001 4286676347
-0.046784598 0.4928 1.012 4286939519
-0.044050202 0.49279699 1.012 4286412660
-0.0412343 0.49182001 1.01 4286347635
-0.038505498 0.49181601 1.01 4286413942
-0.035741299 0.49132699 1.0089999 4286743170
-0.032917202 0.48986301 1.006 4286874758
-0.0301993 0.48986101 1.006 4287730579
-0.0274815 0.48985901 1.006 4287270030
-0.0247391 0.48936999 1.005 4287072649
-0.022024 0.48936799 1.005 4287598993
-0.019308999 0.48936599 1.005 4286875270
-0.016577501 0.48887801 1.0039999 4286612098
-0.0138376 0.487903 1.002 4286151035
-0.0111085 0.48692799 1 4285953656
-0.0084070796 0.48692799 1 4286742654
-0.0056999498 0.48644 0.99900001 4286742654
-0.00299822 0.485953 0.99800003 4287071360
-0.00030219901 0.485953 0.99800003 4286347635
0.0023914201 0.485466 0.99699998 4287861388
0.00508474 0.485466 0.99699998 4287400837
0.00776246 0.48449299 0.995 4287072388
0.0104399 0.484007 0.99400002 4286611837
0.0130987 0.48303401 0.99199998 4286611070
0.015778599 0.483035 0.99199998 4287005828
0.018458501 0.48303601 0.99199998 4287795090
0.0211171 0.48255101 0.991 4287269000
0.023794301 0.48255199 0.991 4287663756
0.026471499 0.48255399 0.991 4286611068
0.0291194 0.48206899 0.99000001 4285756014
0.0317619 0.481585 0.98900002 4285887600
0.0343991 0.48109999 0.98799998 4286939258
0.037068401 0.481103 0.98799998 4286018156
0.039657298 0.48013201 0.986 4285557605
0.042321298 0.48013499 0.986 4286083949
0.044985302 0.48013899 0.986 4286347121
0.047649499 0.480142 0.986 4285821291
0.050313599 0.48014599 0.986 4285557858
0.052977901 0.48015001 0.986 4284899928
0.055642199 0.48015401 0.986 4284834134
0.058306601 0.48015901 0.986 4285821029
0.0609092 0.47967601 0.98500001 4285295716
0.063571103 0.47968099 0.98500001 4285558888
0.066233002 0.47968599 0.98500001 4285426272
0.068965003 0.48017901 0.986 4285557857
0.071775101 0.481159 0.98799998 4284439376
0.074294701 0.48019099 0.986 4284241994
0.076959804 0.48019701 0.986 4284702802
0.079544201 0.479716 0.98500001 4284308044
0.082457103 0.48118401 0.98799998 4284965720
0.085041702 0.48070401 0.98699999 4284768602
0.0876211 0.48022401 0.986 4285163360
0.090286702 0.48023099 0.986 4285032289
0.092952497 0.480239 0.986 4285229668
0.095618397 0.48024699 0.986 4285229154
0.098284401 0.48025501 0.986 4285689191
0.100951 0.48026401 0.986 4285689705
0.103617 0.48027301 0.986 4285558119
0.106176 0.47979501 0.98500001 4285953391
0.108729 0.47931701 0.98400003 4286085493
0.111391 0.47932699 0.98400003 4285888114
0.114052 0.47933701 0.98400003 4285822321
0.116714 0.47934699 0.98400003 4285756528
0.119255 0.47887099 0.98299998 4285559149
0.122038 0.47936901 0.98400003 4285822066
0.124701 0.47938001 0.98400003 4285953654
0.127234 0.47890499 0.98299998 4286479998
0.12976199 0.47843 0.98199999 4285493103
0.132285 0.47795501 0.98100001 4286611068
0.13494 0.47796801 0.98100001 4286018672
0.137596 0.477981 0.98100001 4285163361
0.14053699 0.47896901 0.98299998 4285755500
0.143199 0.47898301 0.98299998 4286150012
0.145712 0.47850999 0.98199999 4286347898
0.14822 0.478037 0.98100001 4286743168
0.150723 0.47756499 0.98000002 4286414458
0.153534 0.47806701 0.98100001 4286677630
0.156192 0.47808301 0.98100001 4286611068
0.15885 0.47809899 0.98100001 4286413944
0.16117799 0.47714099 0.97899997 4286084465
0.163664 0.47667101 0.97799999 4285558380
0.166485 0.47717601 0.97899997 4285821552
0.168966 0.47670701 0.97799999 4286479482
0.171441 0.476237 0.977 4286610554
0.17409 0.47625601 0.977 4285360742
0.17674001 0.47627601 0.977 4285557605
0.17939 0.47629499 0.977 4284899675
0.181667 0.47534099 0.97500002 4286018670
0.18450101 0.475849 0.97600001 4286150256
0.186958 0.47538301 0.97500002 4285953905
0.189799 0.47589201 0.97600001 4285032803
0.192251 0.475427 0.97500002 4284572254
0.19489799 0.47545001 0.97500002 4285033573
0.19774801 0.475961 0.97600001 4285165159
0.200398 0.47598499 0.97600001 4284507229
0.202841 0.475521 0.97500002 4284901217
0.20548999 0.47554699 0.97500002 4285295975
0.20792601 0.47508401 0.97399998 4285164391
0.21078999 0.47559801 0.97500002 4286085491
0.213441 0.47562501 0.97500002 4285361254
0.21586999 0.47516501 0.97399998 4285229668
0.218519 0.47519299 0.97399998 4284900705
0.22116899 0.47522199 0.97399998 4284834912
0.223589 0.47476301 0.97299999 4285361515
0.22646999 0.475281 0.97399998 4286282617
0.229357 0.47580001 0.97500002 4285033320
0.232012 0.475831 0.97500002 4284901734
0.23418599 0.47488701 0.97299999 4286677377
0.23659401 0.47443199 0.972 4285625457
0.239243 0.47446501 0.972 4286677375
0.24214099 0.474987 0.97299999 4285953907
0.244794 0.47502199 0.97299999 4286808186
0.24719401 0.47457001 0.972 4285952877
0.249846 0.47460601 0.972 4284439638
0.25275901 0.47513101 0.97299999 4285294947
0.255153 0.47468099 0.972 4286216563
0.25780699 0.47472 0.972 4285953905
0.26046199 0.47475901 0.972 4286218107
0.26311901 0.47479901 0.972 4286415486
0.26577601 0.47483999 0.972 4286152315
0.26843399 0.47488201 0.972 4286875009
0.27109301 0.47492501 0.972 4287137665
0.273471 0.47448 0.97100002 4284966496
0.27584499 0.47403601 0.97000003 4286281842
0.27850199 0.47408199 0.97000003 4287071872
0.28086999 0.47363901 0.96899998 4286677116
0.283526 0.47368601 0.96899998 4285690221
0.28559199 0.47275701 0.96700001 4285427049
0.28854299 0.473295 0.96799999 4286677375
0.29059801 0.47236699 0.96600002 4287204488
0.29355299 0.47290701 0.96700001 4286743938
0.29559699 0.47198001 0.96499997 4286086784
0.298558 0.47252199 0.96600002 4287204751
0.30121401 0.47257599 0.96600002 4287467923
0.30387101 0.47263101 0.96600002 4286020991
0.30684701 0.473176 0.96700001 4286283647
0.30918899 0.47274399 0.96600002 4287599507
0.31152701 0.47231299 0.96499997 4287665302
0.31353599 0.47139299 0.963 4287533716
0.31619099 0.47145301 0.963 4287138695
0.318849 0.471515 0.963 4286283386
0.32083899 0.47059801 0.96100003 4286611835
0.32383001 0.47115099 0.96200001 4287598730
0.32580999 0.470236 0.95999998 4287007363
0.328123 0.46981201 0.95899999 4287204488
0.330432 0.46938899 0.958 4287533454
0.33412701 0.470927 0.96100003 4287007110
0.33679 0.47099701 0.96100003 4287270544
0.33874699 0.47008699 0.95899999 4286678152
0.34105101 0.46966901 0.958 4287468438
0.34263399 0.46827099 0.95499998 4287336851
0.34492499 0.46785501 0.954 4287336851
0.34684801 0.46694899 0.95200002 4287863195
0.34986401 0.46751699 0.95300001 4287863195
0.352516 0.46759501 0.95300001 4287665817
0.35442501 0.46669301 0.95099998 4288257954
0.35745201 0.46726501 0.95200002 4288455332
0.36010799 0.467347 0.95200002 4286481542
0.36238399 0.46693999 0.95099998 4287797402
0.36388999 0.46555099 0.94800001 4288587175
0.365767 0.46465501 0.94599998 4288455333
0.368415 0.46474299 0.94599998 4287534230
0.37067199 0.46434101 0.94499999 4288981930
0.372531 0.46344799 0.94300002 4287862933
0.37517601 0.46353999 0.94300002 4287205002
0.378225 0.46412501 0.94400001 4287205002
0.380474 0.46372899 0.94300002 4287731347
0.38272101 0.46333399 0.94199997 4286875784
0.38496399 0.46294001 0.94099998 4287928212
0.386792 0.462055 0.93900001 4286808961
0.38944 0.46215701 0.93900001 4286216824
0.39125699 0.46127501 0.93699998 4287795856
0.39432499 0.46187201 0.93800002 4287862933
0.39655599 0.46148601 0.93699998 4287402130
0.398783 0.461101 0.93599999 4287270544
0.40100801 0.46071801 0.935 4287073680
0.40323001 0.460336 0.93400002 4285889406
0.405449 0.45995599 0.93300003 4288652712
0.40766501 0.45957801 0.93199998 4288455332
0.40987799 0.45920101 0.93099999 4287008140
0.41297501 0.459813 0.93199998 4287928212
0.415189 0.45943901 0.93099999 4287664270
0.41829801 0.46005499 0.93199998 4286875009
0.42051199 0.45968601 0.93099999 4286940802
0.42226899 0.45882401 0.92900002 4287598218
0.424018 0.457964 0.92699999 4286940802
0.42575899 0.45710501 0.92500001 4285822066
0.42841801 0.45723599 0.92500001 4287401614
0.431081 0.45737001 0.92500001 4287994265
-0.198301 0.49984601 1.031 4281216026
-0.195124 0.49885499 1.029 4281281306
-0.192146 0.49834901 1.028 4281478943
-0.189542 0.49881199 1.029 4281610531
-0.187115 0.499762 1.031 4281478945
-0.184498 0.50022602 1.0319999 4282202668
-0.18152399 0.499722 1.031 4280952601
-0.17873 0.49970299 1.031 4282465838
-0.175936 0.49968499 1.031 4281939756
-0.17297401 0.49918199 1.03 4282005550
-0.170018 0.49868 1.029 4282860859
-0.166905 0.49769399 1.027 4283584328
-0.16428301 0.498162 1.028 4284176980
-0.161498 0.498146 1.028 4284309080
-0.158869 0.498615 1.029 4285098596
-0.15593 0.498115 1.028 4286020468
-0.152998 0.49761599 1.027 4285361770
-0.150071 0.49711701 1.026 4285492840
-0.147294 0.49710301 1.026 4284374359
-0.14451601 0.497089 1.026 4284637017
-0.141739 0.497076 1.026 4284834395
-0.138827 0.49657801 1.025 4285558888
-0.13578799 0.495597 1.023 4285360740
-0.13315 0.49606901 1.024 4285821805
-0.13050701 0.49654201 1.025 4285229923
-0.12773401 0.49653 1.025 4285887598
-0.124839 0.49603501 1.024 4285558633
-0.122069 0.49602401 1.024 4286480502
-0.119299 0.49601299 1.024 4286349171
-0.11653 0.496003 1.024 4286019437
-0.113649 0.495509 1.023 4286348657
-0.110666 0.49453101 1.021 4285887853
-0.107799 0.494037 1.02 4286151539
-0.105041 0.494028 1.02 4285427057
-0.102384 0.494504 1.021 4286348663
-0.099525496 0.494012 1.02 4286019951
-0.096767902 0.49400401 1.02 4284967263
-0.094010502 0.49399599 1.02 4286151025
-0.091253199 0.49398801 1.02 4285492840
-0.088496 0.493981 1.02 4285558119
-0.085822999 0.49445799 1.021 4285755500
-0.083063401 0.494452 1.021 4286412661
-0.080146603 0.49347699 1.0190001 4285952110
-0.0773926 0.493471 1.0190001 4286149488
-0.074565403 0.49298 1.018 4285294180
-0.071743801 0.49249101 1.017 4285754984
-0.068792 0.491032 1.0140001 4286611060
-0.0660519 0.491027 1.0140001 4286151537
-0.063249402 0.490538 1.013 4285822572
-0.060571998 0.491018 1.0140001 4285888365
-0.057889201 0.49149701 1.015 4285953905
-0.055201001 0.49197701 1.016 4285493354
-0.052404299 0.49148899 1.015 4286150772
-0.049662001 0.491485 1.015 4286611323
-0.046781 0.49002901 1.012 4286873979
-0.044046901 0.490026 1.012 4286478707
-0.0412721 0.48953801 1.011 4286216051
-0.0385026 0.48905101 1.01 4286939774
-0.035738699 0.48856401 1.0089999 4287203207
-0.0329802 0.488078 1.008 4287269516
-0.0302571 0.48807499 1.008 4287467409
-0.027534099 0.48807299 1.008 4286809479
-0.0247865 0.487587 1.007 4287862167
-0.022044299 0.48710099 1.006 4287533202
-0.0193076 0.48661599 1.005 4286216828
-0.016576299 0.48613 1.0039999 4286677379
-0.0138504 0.485645 1.003 4285822070
-0.0111299 0.48515999 1.002 4286216828
-0.00842328 0.48515901 1.002 4286610816
-0.0057052299 0.48418999 1 4287071107
-0.003001 0.483706 0.99900001 4286807933
-0.00030217701 0.48322099 0.99800003 4286347637
0.0023888501 0.48225299 0.99599999 4287598218
0.0050792699 0.48225299 0.99599999 4287203974
0.0077774902 0.48273799 0.99699998 4287072388
0.0104601 0.48225501 0.99599999 4286611837
0.0131374 0.48177099 0.995 4286546044
0.015809201 0.48128799 0.99400002 4286546044
0.0184757 0.48080501 0.99299997 4287532170
0.0211155 0.47983801 0.991 4287269253
0.023768499 0.47935501 0.99000001 4287795081
0.0264429 0.479357 0.99000001 4286413428
0.029117201 0.479359 0.99000001 4285821290
0.031791698 0.47936201 0.99000001 4286282611
0.034431301 0.47887999 0.98900002 4286808185
0.037103102 0.47888201 0.98900002 4285623912
0.039694499 0.47791699 0.98699999 4285755498
0.042360999 0.47792 0.98699999 4285952877
0.044981901 0.47743899 0.986 4285755498
0.047694199 0.47792599 0.98699999 4285558121
0.050360799 0.47793001 0.98699999 4285426532
0.0530276 0.477934 0.98699999 4284768856
0.055694401 0.477938 0.98699999 4284768855
0.058302101 0.477458 0.986 4285360992
0.060904499 0.476978 0.98500001 4284835165
0.063501596 0.47649899 0.98400003 4285558633
0.066295102 0.47747201 0.986 4285887083
0.068959601 0.47747701 0.986 4285360993
0.071769401 0.47845101 0.98799998 4284965720
0.0742888 0.47748801 0.986 4284505421
0.076953597 0.477494 0.986 4284308042
0.079537801 0.477016 0.98500001 4284505423
0.082450397 0.478475 0.98799998 4284636755
0.085120901 0.47848201 0.98799998 4284768602
0.087702803 0.47800499 0.98699999 4285163361
0.090279303 0.47752801 0.986 4285229668
0.092944801 0.47753501 0.986 4284703324
0.095707402 0.47802699 0.98699999 4285623912
0.098475501 0.47851899 0.98799998 4285426019
0.101147 0.47852799 0.98799998 4285558119
0.103818 0.47853601 0.98799998 4285294947
0.106274 0.47757599 0.986 4286348151
0.108941 0.47758499 0.986 4285888114
0.111494 0.47711 0.98500001 4285822066
0.114158 0.47712001 0.98500001 4285756528
0.116704 0.47664601 0.98400003 4285559149
0.119366 0.47665599 0.98400003 4285624942
0.122152 0.47715101 0.98500001 4285887859
0.12469 0.47667801 0.98400003 4286348410
0.127481 0.477173 0.98500001 4286743170
0.12988199 0.47621599 0.98299998 4285756275
0.13240799 0.47574401 0.98199999 4286479737
0.135065 0.47575599 0.98199999 4286545528
0.137723 0.475768 0.98199999 4285623912
0.14066701 0.47674999 0.98400003 4285887086
0.14333101 0.47676399 0.98400003 4286150772
0.14599501 0.476778 0.98400003 4286348151
0.148508 0.476307 0.98299998 4286677630
0.15086199 0.475353 0.98100001 4286348665
0.153519 0.47536799 0.98100001 4286546042
0.156335 0.475867 0.98199999 4286742909
0.15867101 0.47491401 0.98000002 4286348151
0.161162 0.47444499 0.97899997 4286019186
0.16381399 0.474462 0.97899997 4285689966
0.166637 0.47496301 0.98000002 4285953138
0.169293 0.47498101 0.98000002 4286874240
0.171774 0.47451401 0.97899997 4286413944
0.17425001 0.47404799 0.97799999 4285558119
0.17672101 0.473582 0.977 4285492571
0.179554 0.47408599 0.97799999 4285295190
0.182206 0.474105 0.97799999 4286413427
0.18467 0.47364101 0.977 4286545014
0.18712901 0.47317699 0.97600001 4286348663
0.189777 0.473198 0.97600001 4285756526
0.192228 0.472734 0.97500002 4286019700
0.194875 0.47275701 0.97500002 4287138179
0.197724 0.47326401 0.97600001 4286282870
0.20037401 0.473288 0.97600001 4286282356
0.20281699 0.472826 0.97500002 4286282870
0.205255 0.47236601 0.97399998 4286414456
0.207901 0.47239101 0.97399998 4285822321
0.210548 0.47241601 0.97399998 4287006593
0.213414 0.472927 0.97500002 4286348149
0.216286 0.47343901 0.97600001 4285624428
0.218716 0.47298101 0.97500002 4285623914
0.22114 0.47252399 0.97399998 4284637278
0.22379 0.47255301 0.97399998 4285821552
0.22644 0.47258201 0.97399998 4285953652
0.22932599 0.473097 0.97500002 4284835171
0.232219 0.47361299 0.97600001 4284703585
0.23463599 0.47315899 0.97500002 4285558896
0.237048 0.47270501 0.97399998 4285032552
0.239702 0.472738 0.97399998 4284900966
0.242356 0.47277099 0.97399998 4284966498
0.24476001 0.47231999 0.97299999 4285623912
0.247667 0.47284001 0.97399998 4284373845
0.25032401 0.472875 0.97399998 4284242259
0.25298101 0.47291201 0.97399998 4284702810
0.255115 0.471977 0.972 4285229668
0.25776801 0.47201499 0.972 4284901217
0.260423 0.472054 0.972 4285296745
0.263349 0.472579 0.97299999 4286152314
0.26600799 0.472619 0.97299999 4285757556
0.268668 0.47266001 0.97299999 4286480251
0.27132899 0.472702 0.97299999 4286874493
0.273709 0.47225901 0.972 4284571738
0.27608499 0.471816 0.97100002 4286018670
0.27874401 0.471861 0.97100002 4286808700
0.281113 0.47141999 0.97000003 4286545530
0.28347799 0.47097999 0.96899998 4285492587
0.28554401 0.47005501 0.96700001 4285558380
0.28849399 0.47058901 0.96799999 4286940035
0.290849 0.47015199 0.96700001 4287203721
0.293199 0.469715 0.96600002 4286677891
0.29585099 0.46976599 0.96600002 4286152577
0.298814 0.47030401 0.96700001 4287534484
0.301783 0.47084299 0.96799999 4287402898
0.30381599 0.469924 0.96600002 4285955198
0.30615601 0.46949199 0.96499997 4286283901
0.30817199 0.468575 0.963 4287665300
0.31050101 0.46814501 0.96200001 4287796886
0.31282601 0.46771601 0.96100003 4287796626
0.31580299 0.46826199 0.96200001 4287007363
0.31845599 0.46832201 0.96200001 4286282872
0.32144499 0.46887001 0.963 4286611835
0.32309401 0.467471 0.95999998 4287401351
0.32506701 0.46656099 0.958 4286875523
0.327373 0.46613801 0.95700002 4287072902
0.33002001 0.466203 0.95700002 4287138695
0.33336401 0.467244 0.95899999 4287336075
0.33636999 0.46779999 0.95999998 4286941065
0.33867699 0.46738201 0.95899999 4286940810
0.34097999 0.46696499 0.958 4287401875
0.34256101 0.465574 0.95499998 4287139472
0.34485099 0.465159 0.954 4287402644
0.34750199 0.465233 0.954 4288455332
0.35015401 0.46530899 0.954 4287797402
0.352438 0.46489799 0.95300001 4287139473
0.35434601 0.46399999 0.95099998 4289508021
0.35662001 0.46359101 0.94999999 4288389025
0.35964701 0.46416 0.95099998 4286678921
0.36153901 0.46326599 0.949 4287928988
0.364189 0.46334901 0.949 4288784297
0.36645401 0.46294501 0.94800001 4288126625
0.369495 0.46351999 0.949 4288060575
0.37136701 0.46263099 0.94700003 4288784297
0.37362501 0.46223101 0.94599998 4287007624
0.37548199 0.461344 0.94400001 4287533968
0.378131 0.461436 0.94400001 4287665553
0.38037899 0.461041 0.94300002 4287533968
0.382624 0.46064699 0.94199997 4287533968
0.38445699 0.45976499 0.94 4288191384
0.38669199 0.45937401 0.93900001 4286612352
0.38892499 0.45898399 0.93800002 4286217594
0.39157099 0.45908499 0.93800002 4288125337
0.39422101 0.45918801 0.93800002 4288126621
0.396873 0.45929199 0.93800002 4287731609
0.39910099 0.458909 0.93699998 4287007372
0.40132701 0.458527 0.93599999 4287271312
0.403119 0.457656 0.93400002 4287402128
0.40533599 0.457277 0.93300003 4288455332
0.40711299 0.45640901 0.93099999 4288126621
0.409762 0.45652401 0.93099999 4287073163
0.412857 0.457131 0.93199998 4287994005
0.41551501 0.45724899 0.93199998 4286875009
0.41772699 0.45687801 0.93099999 4287072386
0.419936 0.45651001 0.93000001 4287598730
0.421689 0.45565099 0.92799997 4287203458
0.42343301 0.454795 0.926 4286677116
0.42563 0.454431 0.92500001 4286019445
0.42782399 0.45406899 0.92400002 4287335823
0.43048099 0.4542 0.92400002 4288191391
0.43361101 0.45482501 0.92500001 4288060321
0.436279 0.454961 0.92500001 4287205266
0.43847501 0.454606 0.92400002 4287600024
0.440669 0.454254 0.92299998 4286283647
0.443342 0.45439601 0.92299998 4286546819
0.44601801 0.45454001 0.92299998 4286744198
0.448699 0.45468599 0.92299998 4287138695
0.450894 0.45434201 0.92199999 4286809984
0.45456299 0.455479 0.92400002 4285625709
0.45626801 0.45464599 0.92199999 4285428330
0.45896199 0.45480201 0.92199999 4285823088
0.46065801 0.453973 0.92000002 4285559917
0.46285 0.453639 0.91900003 4284901987
0.465547 0.45380199 0.91900003 4285033572
0.468759 0.45446 0.92000002 4285099365
0.47249299 0.455616 0.92199999 4284902754
-0.19827899 0.49700299 1.031 4281281564
-0.19529299 0.49649999 1.03 4281149978
-0.192312 0.49599701 1.029 4281413152
-0.18989 0.496941 1.031 4281149726
-0.187095 0.496921 1.031 4281347359
-0.184479 0.49738401 1.0319999 4281281566
-0.18150599 0.496883 1.031 4281084187
-0.17853799 0.49638301 1.03 4281742117
-0.17574701 0.49636501 1.03 4281478692
-0.172956 0.49634799 1.03 4281216026
-0.170331 0.496813 1.031 4281347620
-0.16721299 0.495832 1.029 4282071090
-0.164267 0.49533501 1.028 4281479467
-0.161483 0.49531901 1.028 4281676846
-0.15869901 0.49530399 1.028 4281545260
-0.15591601 0.495289 1.028 4281808948
-0.15298399 0.494793 1.027 4281676848
-0.150057 0.494297 1.026 4281807918
-0.14727999 0.494284 1.026 4281807918
-0.144503 0.49427101 1.026 4280886816
-0.141727 0.49425799 1.026 4280886816
-0.13895001 0.49424499 1.026 4281940273
-0.136041 0.49375099 1.025 4281282088
-0.133268 0.49373999 1.025 4282071604
-0.130495 0.49372801 1.025 4280953892
-0.127847 0.49419901 1.026 4282401338
-0.12495 0.493707 1.025 4282138166
-0.122178 0.493696 1.025 4283322693
-0.119406 0.49368599 1.025 4283849037
-0.116634 0.49367601 1.025 4283256386
-0.113862 0.49366701 1.025 4284572246
-0.110982 0.49317601 1.024 4284637784
-0.108107 0.492686 1.023 4285229921
-0.105239 0.49219599 1.022 4284638298
-0.102375 0.49170601 1.021 4285427814
-0.0997127 0.49217901 1.022 4285955171
-0.096855097 0.49169001 1.021 4284375633
-0.094187401 0.49216399 1.022 4285887851
-0.091424897 0.49215701 1.022 4285295716
-0.088662602 0.49215001 1.022 4285098082
-0.085900404 0.49214301 1.022 4286084463
-0.083138302 0.49213701 1.022 4286150258
-0.080376297 0.49213099 1.022 4285558121
-0.077614501 0.492125 1.022 4285688937
-0.074779503 0.491638 1.021 4285229154
-0.071950004 0.49115101 1.02 4285426532
-0.068990298 0.489701 1.017 4286414448
-0.066177197 0.489214 1.016 4286283378
-0.063369602 0.48872799 1.015 4286019951
-0.060687002 0.489205 1.016 4285954928
-0.057999 0.489683 1.017 4285428330
-0.0553056 0.49015999 1.018 4285690733
-0.052452099 0.48919299 1.016 4285953905
-0.049658399 0.48870799 1.015 4286611835
-0.046777599 0.48726001 1.012 4286084463
-0.044087298 0.48773801 1.013 4286347637
-0.041309901 0.48725399 1.012 4286544761
-0.038538001 0.48677 1.011 4286742140
-0.0357715 0.48628601 1.01 4287202953
-0.033043198 0.486283 1.01 4286940551
-0.030285001 0.4858 1.0089999 4287072137
-0.027532101 0.48531601 1.008 4287072651
-0.024760099 0.48435101 1.006 4287861653
-0.0220428 0.48435 1.006 4287532688
-0.0193062 0.48386699 1.005 4285887861
-0.0165751 0.48338401 1.0039999 4286414205
-0.0138632 0.483383 1.0039999 4286282621
-0.0111403 0.48290101 1.003 4287006344
-0.0084226904 0.48241901 1.002 4286084472
-0.0057048299 0.481455 1 4286873474
-0.00300079 0.48097399 0.99900001 4286676349
-0.000302156 0.480492 0.99800003 4286150003
0.0023910799 0.48001099 0.99699998 4287795342
0.0050789099 0.47952899 0.99599999 4287072388
0.00777695 0.48001099 0.99699998 4286875009
0.0104594 0.47953099 0.99599999 4286940802
0.0131629 0.48001301 0.99699998 4286348665
0.015839901 0.479532 0.99599999 4286875009
0.018511601 0.47905201 0.995 4287400839
0.0211353 0.47760901 0.99199998 4286940288
0.023814799 0.47760999 0.99199998 4287728774
0.0264677 0.47713101 0.991 4286478706
0.0291446 0.47713301 0.991 4286215534
0.031757299 0.476172 0.98900002 4286413681
0.034428898 0.476174 0.98900002 4286282095
0.037100501 0.47617701 0.98900002 4286018669
0.039691702 0.475216 0.98699999 4285623912
0.042358 0.47521901 0.98699999 4285952877
0.045024302 0.47522199 0.98699999 4286084463
0.047690701 0.47522601 0.98699999 4285558121
0.0503572 0.475229 0.98699999 4285360739
0.0530237 0.47523299 0.98699999 4285032028
0.055746701 0.47571799 0.98799998 4285426786
0.0583569 0.47524101 0.98699999 4285426786
0.060961802 0.47476399 0.986 4285163875
0.063561402 0.474287 0.98500001 4284966496
0.066290103 0.47477299 0.986 4285756012
0.068954401 0.474778 0.986 4285294946
0.071691401 0.475265 0.98699999 4284834649
0.074207798 0.474307 0.98500001 4284176458
0.076947697 0.474794 0.986 4284308044
0.079612397 0.47479999 0.986 4284505421
0.082527503 0.47625101 0.98900002 4285228386
0.0851143 0.47577599 0.98799998 4285163363
0.0877847 0.47578201 0.98799998 4284965984
0.090272099 0.47482601 0.986 4285361001
0.092937402 0.47483301 0.986 4285032036
0.095699698 0.47532201 0.98699999 4285360742
0.0983679 0.47533 0.98699999 4285491812
0.101036 0.47533801 0.98699999 4285294947
0.103705 0.475346 0.98699999 4285623912
0.106373 0.47535399 0.98699999 4286216565
0.109042 0.47536299 0.98699999 4286084979
0.111711 0.47537199 0.98699999 4285887345
0.114264 0.47490001 0.986 4285756014
0.116813 0.474428 0.98500001 4285624426
0.119477 0.47443801 0.98500001 4286019184
0.122141 0.474448 0.98500001 4285493356
0.124679 0.473977 0.98400003 4286348410
0.12747 0.47446901 0.98500001 4286216824
0.130135 0.47448099 0.98500001 4285559664
0.132531 0.47352901 0.98299998 4285822321
0.13519 0.47354099 0.98299998 4286282356
0.137851 0.473553 0.98299998 4285098082
0.140797 0.474529 0.98500001 4285558633
0.143609 0.47502401 0.986 4286019184
0.146129 0.47455499 0.98500001 4286414456
0.148645 0.474087 0.98400003 4286546812
0.15115499 0.47361901 0.98299998 4286481019
0.153817 0.47363299 0.98299998 4286546812
0.156479 0.47364801 0.98299998 4286282870
0.15898 0.47318199 0.98199999 4285822319
0.161475 0.47271499 0.98100001 4285756528
0.164132 0.47273099 0.98100001 4285756273
0.16712999 0.473712 0.98299998 4285888114
0.16979399 0.473728 0.98299998 4286480251
0.17245799 0.473746 0.98299998 4285887598
0.174766 0.47279999 0.98100001 4285623912
0.17724501 0.47233599 0.98000002 4285623398
0.179718 0.471872 0.97899997 4285689704
0.182373 0.471892 0.97899997 4286610807
0.184839 0.47142899 0.97799999 4286348149
0.1873 0.47096699 0.977 4286348663
0.18975601 0.47050601 0.97600001 4286085491
0.192404 0.47052699 0.97600001 4286480251
0.195053 0.470548 0.97600001 4286874493
0.19770201 0.47057 0.97600001 4286611321
0.200351 0.47059301 0.97600001 4286216565
0.20300101 0.47061601 0.97600001 4286413942
0.205441 0.470157 0.97500002 4286217077
0.207876 0.469699 0.97399998 4286151284
0.210522 0.469724 0.97399998 4287006593
0.213388 0.47023201 0.97500002 4286479735
0.216259 0.47073999 0.97600001 4285821807
0.218913 0.47076601 0.97600001 4285821805
0.221567 0.47079399 0.97600001 4285558635
0.22399101 0.470339 0.97500002 4285953393
0.22687601 0.47084999 0.97600001 4286480251
0.229532 0.47087899 0.97600001 4285559149
0.232188 0.470909 0.97600001 4285361515
0.234845 0.47093901 0.97600001 4286677377
0.23750301 0.47097 0.97600001 4285953656
0.239915 0.47051901 0.97500002 4286085242
0.242323 0.47006899 0.97399998 4286413689
0.244977 0.47010201 0.97399998 4286611323
0.247887 0.47061899 0.97500002 4285821291
0.25080201 0.471136 0.97600001 4284834396
0.253465 0.471172 0.97600001 4285689705
0.25586501 0.470725 0.97500002 4286216049
0.258526 0.47076201 0.97500002 4286019186
0.261188 0.470799 0.97500002 4285361770
0.26357999 0.470355 0.97399998 4285954421
0.26651499 0.47087699 0.97500002 4285428077
0.26890299 0.47043401 0.97399998 4286217077
0.27128699 0.46999201 0.97299999 4285164389
0.27366701 0.469551 0.972 4284111189
0.276326 0.46959299 0.972 4285295463
0.27898601 0.46963701 0.972 4285624428
0.281358 0.46919799 0.97100002 4285295208
0.28372499 0.46876001 0.97000003 4284768864
0.28608799 0.46832201 0.96899998 4284374106
0.288744 0.46836901 0.96899998 4285295210
0.29110101 0.46793401 0.96799999 4285887861
0.29345301 0.46749899 0.96700001 4285559410
0.29580101 0.46706501 0.96600002 4286086270
0.29907101 0.46808299 0.96799999 4287599507
0.30204201 0.46861801 0.96899998 4286941577
0.304391 0.468187 0.96799999 4285691510
0.30641899 0.46727401 0.96600002 4286480766
0.30907601 0.46732801 0.96600002 4287270282
0.31141201 0.46689999 0.96499997 4288059798
0.31341901 0.46598899 0.963 4287336074
0.316401 0.46653101 0.96399999 4286480249
0.319058 0.46658999 0.96399999 4286282870
0.32138401 0.46616501 0.963 4286677114
0.32336801 0.465258 0.96100003 4287598730
0.32500401 0.46386799 0.958 4286546812
0.32765099 0.46393099 0.958 4287336074
0.33029899 0.46399501 0.958 4287204488
0.33364499 0.465029 0.95999998 4287138695
0.335951 0.46461099 0.95899999 4286809477
0.338254 0.46419501 0.958 4286677891
0.34019801 0.46329501 0.95599997 4287402130
0.34248999 0.46287999 0.95499998 4286876554
0.34514001 0.46295199 0.95499998 4288060828
0.347792 0.46302399 0.95499998 4288060826
0.35044599 0.46309799 0.95499998 4287205519
0.35273099 0.46268901 0.954 4286942094
0.35501301 0.46228001 0.95300001 4288981677
0.357292 0.46187299 0.95200002 4287665816
0.359945 0.461952 0.95200002 4286613129
0.36221901 0.46154699 0.95099998 4287336851
0.36487299 0.461629 0.95099998 4288718504
0.36675599 0.460742 0.949 4287928989
0.36862999 0.45985499 0.94700003 4288060575
0.37088799 0.459456 0.94599998 4288192160
0.37314099 0.459057 0.94499999 4287599509
0.37578899 0.45914599 0.94499999 4287730579
0.37843999 0.459236 0.94499999 4287862933
0.380689 0.45884201 0.94400001 4286941831
0.38293499 0.45844999 0.94300002 4287072903
0.385178 0.458058 0.94199997 4287796372
0.387418 0.45766801 0.94099998 4286348926
0.38965401 0.45728001 0.94 4286612614
0.39230499 0.45737901 0.94 4287994781
0.39495799 0.45748001 0.94 4288060574
0.39719099 0.45709601 0.93900001 4287665816
0.39942101 0.456714 0.93800002 4287271058
0.40164801 0.45633301 0.93699998 4286416003
0.40344101 0.45546699 0.935 4287929242
0.40565899 0.455089 0.93400002 4288126619
0.407875 0.454712 0.93300003 4287995033
0.410088 0.45433801 0.93199998 4286941830
0.413183 0.45493999 0.93300003 4287730832
0.415842 0.45505601 0.93300003 4286414456
0.418055 0.454687 0.93199998 4286941055
0.41981399 0.45383099 0.93000001 4287467399
0.422474 0.453953 0.93000001 4286940286
0.42422199 0.4531 0.92799997 4286874493
0.42688301 0.453226 0.92799997 4286216826
0.42908299 0.452865 0.92699999 4287927705
0.43128201 0.45250601 0.926 4288257186
0.433478 0.45214799 0.92500001 4287665563
0.43614301 0.45228201 0.92500001 4287205012
0.438337 0.45192799 0.92400002 4287139219
0.44100699 0.452066 0.92400002 4286678921
0.44367999 0.45220599 0.92400002 4286087038
0.44635701 0.45234799 0.92400002 4287139210
0.449038 0.452492 0.92400002 4286941316
0.45172301 0.452638 0.92400002 4286678398
0.45490301 0.45327699 0.92500001 4284901986
0.45660999 0.45244801 0.92299998 4285691756
0.45880601 0.45211101 0.92199999 4286152307
0.4605 0.45128599 0.92000002 4285559917
0.46319401 0.45144299 0.92000002 4285164644
0.466398 0.45209399 0.921 4285427816
0.47012201 0.45323899 0.92299998 4285033058
0.47386199 0.45438701 0.92500001 4284968547
0.475557 0.45357299 0.92299998 4284047191
0.4788 0.45423499 0.92400002 4283652173
0.48049 0.45342499 0.92199999 4283585863
0.48426899 0.45458499 0.92400002 4284375379
0.48701099 0.45476401 0.92400002 4283980875
0.49028799 0.45543799 0.92500001 4283980623
0.49357599 0.45611599 0.926 4284309333
0.49687499 0.45679599 0.92699999 4284243540
-0.19845 0.49464101 1.0319999 4283386688
-0.195462 0.49414101 1.031 4282531379
-0.192853 0.49460101 1.0319999 4284307791
-0.190239 0.49506 1.033 4282794552
-0.18743899 0.49504101 1.033 4282136621
-0.18446 0.49454299 1.0319999 4283715654
-0.181311 0.49356699 1.03 4282465333
-0.17851999 0.49354899 1.03 4283912779
-0.1759 0.49401101 1.031 4282662206
-0.17294 0.49351501 1.03 4282530874
-0.17015 0.49349901 1.03 4283715147
-0.167197 0.49300399 1.029 4282925631
-0.16441099 0.49298799 1.029 4281610539
-0.161625 0.492973 1.029 4282729020
-0.15899301 0.49343801 1.03 4282071090
-0.156205 0.49342301 1.03 4281610539
-0.153119 0.49245101 1.028 4281873713
-0.15004399 0.49147999 1.026 4281478955
-0.14712299 0.49098799 1.025 4281543978
-0.14435001 0.49097499 1.025 4281083681
-0.14157601 0.49096301 1.025 4281017888
-0.13893799 0.49143001 1.026 4281281060
-0.13603 0.49093899 1.025 4281347367
-0.133257 0.49092799 1.025 4281413674
-0.130357 0.49043801 1.024 4281282088
-0.12758701 0.490428 1.024 4281676331
-0.124818 0.490417 1.024 4281742125
-0.122048 0.49040699 1.024 4281281573
-0.119396 0.490877 1.025 4281216550
-0.116624 0.49086699 1.025 4281348136
-0.113853 0.49085799 1.025 4281348136
-0.111081 0.49084899 1.025 4281151269
-0.107993 0.48940399 1.022 4280954145
-0.105127 0.48891699 1.021 4281677354
-0.102367 0.48890901 1.021 4281743147
-0.099705003 0.48938 1.022 4281282596
-0.096847698 0.48889399 1.021 4281611561
-0.0940881 0.48888701 1.021 4281150240
-0.091239102 0.488401 1.02 4282005549
-0.088482499 0.48839501 1.02 4281413413
-0.085641898 0.48791 1.0190001 4282005036
-0.082969502 0.48838201 1.02 4283057724
-0.080213197 0.48837599 1.02 4282466101
-0.077457003 0.48837101 1.02 4283387203
-0.074627601 0.487887 1.0190001 4283847753
-0.071733199 0.48692399 1.017 4285032797
-0.068985403 0.48691899 1.017 4285296483
-0.066237599 0.48691401 1.017 4285230690
-0.063427597 0.486431 1.016 4285757034
-0.060682699 0.486426 1.016 4285691241
-0.057994898 0.48690099 1.017 4284901725
-0.0553561 0.48785499 1.0190001 4285690986
-0.0524485 0.486415 1.016 4285493609
-0.049654901 0.48593301 1.015 4286743676
-0.046774399 0.48449299 1.012 4285952877
-0.043997198 0.48401099 1.011 4286084463
-0.0412663 0.48400801 1.011 4285952877
-0.0385735 0.484485 1.012 4286874493
-0.035804499 0.48400301 1.011 4286940802
-0.033041 0.483522 1.01 4286545789
-0.0302829 0.48304099 1.0089999 4287006340
-0.027530299 0.48256099 1.008 4286941063
-0.024783099 0.48208001 1.007 4287335821
-0.0220413 0.48159999 1.006 4287532684
-0.0193241 0.481599 1.006 4285888114
-0.016573999 0.48063999 1.0039999 4286414458
-0.0138485 0.48016 1.003 4286413944
-0.0111284 0.47968099 1.002 4286875009
-0.0084137199 0.47920099 1.001 4286216312
-0.00570445 0.47872201 1 4287400070
-0.00299759 0.47776499 0.99800003 4286742140
-0.000301833 0.47728601 0.99699998 4286215796
0.00239092 0.47728601 0.99699998 4287729804
0.00507857 0.476807 0.99599999 4287071874
