# .PCD v0.7 - Point Cloud Data file format
VERSION 0.7
FIELDS x y z rgb
SIZE 4 4 4 4
TYPE F F F U
COUNT 1 1 1 1
WIDTH 1134
HEIGHT 1
VIEWPOINT 0 0 0 1 0 0 0
POINTS 1134
DATA ascii
-0.192846 0.167035 0.74299997 4287204731
-0.191103 0.167266 0.74400002 4285033572
-0.18884601 0.16704699 0.74299997 4289178288
-0.187097 0.16727699 0.74400002 4288915367
-0.184845 0.16705801 0.74299997 4289309864
-0.183091 0.167289 0.74400002 4289177762
-0.18084501 0.16707 0.74299997 4289638313
-0.178844 0.16707601 0.74299997 4289243555
-0.176844 0.167082 0.74299997 4289243555
-0.174843 0.167088 0.74299997 4289638568
-0.17307501 0.167319 0.74400002 4289506468
-0.17107201 0.167326 0.74400002 4289045915
-0.169295 0.167557 0.745 4289309340
-0.16706499 0.167339 0.74400002 4289374619
-0.16550501 0.167795 0.74599999 4289308826
-0.163276 0.167576 0.745 4289243033
-0.16126899 0.167583 0.745 4288979861
-0.159049 0.167364 0.74400002 4289045915
-0.15704501 0.167371 0.74400002 4289243296
-0.155457 0.16782799 0.74599999 4289506982
-0.153447 0.167834 0.74599999 4288783004
-0.151031 0.167391 0.74400002 4289046176
-0.14902601 0.16739701 0.74400002 4289046431
-0.147021 0.167404 0.74400002 4289178017
-0.145016 0.167411 0.74400002 4289243294
-0.142818 0.167192 0.74299997 4289374617
-0.140815 0.167199 0.74299997 4288716428
-0.138999 0.167431 0.74400002 4288386950
-0.137178 0.16766199 0.745 4288320643
-0.135169 0.167669 0.745 4288189571
-0.133339 0.1679 0.74599999 4288189574
-0.131327 0.167907 0.74599999 4288584335
-0.129142 0.167688 0.745 4288584850
-0.126791 0.167245 0.74299997 4288584850
-0.124619 0.167026 0.74199998 4288979608
-0.122783 0.16725799 0.74299997 4289176987
-0.120778 0.167264 0.74299997 4289242265
-0.119093 0.167721 0.745 4289176726
-0.116926 0.167502 0.74400002 4289242519
-0.115072 0.167733 0.745 4288781968
-0.113062 0.167739 0.745 4289045140
-0.1112 0.167971 0.74599999 4288781714
-0.10904 0.167752 0.745 4287794562
-0.107172 0.167983 0.74599999 4288781457
-0.10544 0.168439 0.74800003 4288451976
-0.103282 0.16822 0.74699998 4288451716
-0.101401 0.168451 0.74800003 4288780681
-0.099114798 0.168006 0.74599999 4288583816
-0.0970999 0.16801199 0.74599999 4288583816
-0.094829999 0.167567 0.74400002 4288386436
-0.092945002 0.167798 0.745 4287860606
-0.091176398 0.168254 0.74699998 4288189057
-0.0891582 0.16825899 0.74699998 4288518536
-0.0871398 0.168265 0.74699998 4288452744
-0.085007198 0.168045 0.74599999 4288518794
-0.083102398 0.168275 0.74699998 4288781968
-0.081083499 0.16828001 0.74699998 4288847761
-0.078958496 0.16806 0.74599999 4288979093
-0.076838799 0.16783901 0.745 4289110679
-0.074824803 0.167844 0.745 4289110679
-0.072712898 0.167623 0.74400002 4288979094
-0.070891298 0.168079 0.74599999 4289110426
-0.069058798 0.168534 0.74800003 4289176219
-0.066946402 0.168313 0.74699998 4289373598
-0.0647524 0.16786601 0.745 4288979354
-0.062653303 0.16764501 0.74400002 4289176473
-0.060559399 0.16742399 0.74299997 4289373851
-0.0586285 0.16765299 0.74400002 4289374105
-0.0566158 0.167657 0.74400002 4289374105
-0.0545297 0.16743501 0.74299997 4289439898
-0.052448899 0.16721299 0.74199998 4289308058
-0.050441299 0.167216 0.74199998 4289242519
-0.048368301 0.16699401 0.741 4289308312
-0.046300601 0.16677199 0.74000001 4289242517
-0.044298101 0.166775 0.74000001 4289242517
-0.0424098 0.167229 0.74199998 4289110931
-0.040510599 0.16768201 0.74400002 4289242519
-0.038600501 0.168136 0.74599999 4289308312
-0.036483198 0.167688 0.74400002 4289242779
-0.0343768 0.167239 0.74199998 4289111193
-0.032324702 0.167016 0.741 4288914331
-0.0301142 0.16589101 0.736 4288585625
-0.027969001 0.164992 0.73199999 4285624426
-0.025809901 0.163866 0.727 4283650122
-0.0238417 0.163868 0.727 4283583814
-0.0218735 0.16387001 0.727 4283452478
-0.0199326 0.164096 0.72799999 4283517754
-0.017961601 0.16409799 0.72799999 4283385654
-0.0159686 0.163874 0.727 4282859824
-0.0140194 0.16410001 0.72799999 4283385654
-0.0120483 0.164101 0.72799999 4283188789
-0.0101048 0.164552 0.73000002 4283122996
-0.0081059001 0.164102 0.72799999 4283189043
-0.0061346898 0.164103 0.72799999 4282925871
-0.0041577299 0.16387799 0.727 4282662445
-0.0021922099 0.164103 0.72799999 4282991150
-0.000220656 0.16387799 0.727 4282859564
0.00175029 0.164103 0.72799999 4282859310
0.0037164199 0.16387799 0.727 4282727724
0.0057005901 0.16432799 0.72899997 4282924589
0.0076745199 0.16432799 0.72899997 4282859310
0.0096484302 0.164327 0.72899997 4282661932
0.0116064 0.164101 0.72799999 4282727724
0.0135589 0.163875 0.727 4282728238
0.0155059 0.16364799 0.72600001 4282465066
0.017495699 0.163873 0.727 4282794285
0.0195175 0.164322 0.72899997 4282662185
0.0214912 0.16432101 0.72899997 4282596392
0.0234327 0.164094 0.72799999 4282464038
0.025333799 0.16364101 0.72600001 4282398759
0.0273368 0.163865 0.727 4282398245
0.029385399 0.164314 0.72899997 4282596138
0.031358801 0.16431201 0.72899997 4282333220
0.033332098 0.16430999 0.72899997 4282333220
0.035305299 0.164307 0.72899997 4282136355
0.037278499 0.164305 0.72899997 4282333734
0.039197698 0.164077 0.72799999 4282202147
0.041224498 0.16429999 0.72899997 4282070561
0.043197401 0.164297 0.72899997 4282596392
0.045232099 0.164519 0.73000002 4282399013
0.0471428 0.16429099 0.72899997 4282332966
0.0491153 0.164288 0.72899997 4282464552
0.0510878 0.16428401 0.72899997 4282661932
0.0529873 0.164055 0.72799999 4282399274
0.054881301 0.163827 0.727 4282465067
0.056926198 0.164048 0.72799999 4282202409
0.058895402 0.16404399 0.72799999 4282465581
0.0609481 0.16426601 0.72899997 4282333994
0.062919803 0.164262 0.72899997 4282399274
0.064980298 0.164483 0.73000002 4282070309
0.066954397 0.164479 0.73000002 4282530860
0.068833999 0.164249 0.72899997 4282596653
0.070805103 0.16424499 0.72899997 4282268202
0.072676197 0.164015 0.72799999 4282399788
0.074746802 0.16423599 0.72899997 4282268204
0.076717399 0.164231 0.72899997 4282071080
0.078903802 0.16467699 0.73100001 4282268714
0.080658197 0.164221 0.72899997 4282399787
0.082515098 0.163991 0.72799999 4282136615
0.084366299 0.163761 0.727 4282201894
0.086330697 0.163756 0.727 4282201894
0.088294998 0.16374999 0.727 4282596652
0.090259001 0.163745 0.727 4282070822
0.092222899 0.16373999 0.727 4282399787
0.094186701 0.163734 0.727 4282202409
0.096150197 0.163729 0.727 4282071082
0.098113596 0.16372301 0.727 4282334252
0.100214 0.16394299 0.72799999 4282267951
0.10218 0.163937 0.72799999 4282202408
0.104146 0.163931 0.72799999 4282202148
0.105965 0.1637 0.727 4282070561
0.107779 0.163469 0.72600001 4282531113
0.109437 0.163013 0.72399998 4282399273
0.111545 0.163232 0.72500002 4282202408
0.113658 0.163451 0.72600001 4282597420
0.115617 0.163445 0.72600001 4282202919
0.117576 0.16343801 0.72600001 4282005542
0.119534 0.163432 0.72600001 4282465838
0.12166 0.163651 0.727 4282794299
0.123621 0.163645 0.727 4282794299
0.12540901 0.163413 0.72600001 4282531374
0.12719201 0.16318201 0.72500002 4282728753
0.12914699 0.163175 0.72500002 4282860598
0.131102 0.163169 0.72500002 4282926137
0.132873 0.162938 0.72399998 4282728758
0.135198 0.163381 0.72600001 4281873449
0.138099 0.1645 0.73100001 4282992184
0.141794 0.166519 0.74000001 4283057975
0.144372 0.16718701 0.74299997 4282860596
0.146768 0.167631 0.745 4282992437
0.14877599 0.167624 0.745 4283452988
0.150784 0.16761699 0.745 4283650367
0.152996 0.167836 0.74599999 4283584574
0.154799 0.167604 0.745 4283715901
0.15701599 0.167822 0.74599999 4283781694
0.158813 0.16759101 0.745 4283715387
0.16125099 0.168034 0.74699998 4283583801
0.16326299 0.168028 0.74699998 4283189042
0.16505399 0.167796 0.74599999 4283451448
0.167063 0.16779 0.74599999 4283254322
0.168846 0.167559 0.745 4283320628
0.17154001 0.168227 0.74800003 4284044605
0.174018 0.16867 0.75 4283780665
0.176038 0.16866399 0.75 4284043835
0.177582 0.168208 0.74800003 4283714872
0.17935599 0.16797701 0.74699998 4283978044
0.18136699 0.167971 0.74699998 4284504386
0.183378 0.16796499 0.74699998 4283583284
0.185638 0.168184 0.74800003 4284307007
0.187401 0.167953 0.74699998 4284176190
0.18991899 0.16839699 0.74900001 4284373570
0.192191 0.168616 0.75 4284242245
0.19420999 0.16861001 0.75 4284373831
0.195967 0.16838001 0.74900001 4284241991
0.19771899 0.16814999 0.74800003 4284571210
0.199466 0.167919 0.74699998 4284373831
0.20147701 0.167914 0.74699998 4284307784
0.20348699 0.167909 0.74699998 4284110405
0.20522299 0.167679 0.74599999 4284702542
0.207231 0.16767401 0.74599999 4284439370
0.20952 0.167895 0.74699998 4283979332
0.211531 0.16789 0.74699998 4284637262
0.213542 0.16788501 0.74699998 4284703055
0.215553 0.167881 0.74699998 4284900434
0.217564 0.167877 0.74699998 4284900434
0.21987 0.168098 0.74800003 4284899921
0.22129101 0.16764399 0.74599999 4284899921
0.223599 0.16786499 0.74699998 4284768335
0.225308 0.16763701 0.74599999 4284834641
0.22731701 0.167634 0.74599999 4285229399
0.229634 0.16785499 0.74699998 4285229399
0.23226599 0.168302 0.74900001 4284637262
0.234597 0.168523 0.75 4284768848
0.236302 0.16829599 0.74900001 4285229399
0.237684 0.167844 0.74699998 4285031507
0.23969699 0.167842 0.74699998 4284570956
0.242034 0.168065 0.74800003 4284702282
0.243724 0.16783801 0.74699998 4285031246
0.245408 0.167612 0.74599999 4284834635
0.24742 0.16761 0.74599999 4285295186
0.24976601 0.167834 0.74699998 4285031760
0.25211701 0.16805799 0.74800003 4285163346
0.254475 0.168282 0.74900001 4285426265
0.25649601 0.168281 0.74900001 4284900432
0.25817201 0.168056 0.74800003 4285097554
0.25984299 0.167832 0.74699998 4285032018
0.26221001 0.16805699 0.74800003 4285032018
0.264229 0.16805699 0.74800003 4284966225
0.266249 0.16805799 0.74800003 4285163606
0.26826999 0.16805901 0.74800003 4285163606
0.270291 0.168061 0.74800003 4285097813
0.272313 0.168062 0.74800003 4285360726
0.274335 0.168064 0.74800003 4285097554
0.27672699 0.168291 0.74900001 4285294933
0.27838099 0.16806901 0.74800003 4285229140
0.280029 0.16784801 0.74699998 4285557851
0.282051 0.167851 0.74699998 4285492312
0.28445399 0.168079 0.74800003 4285886555
0.286479 0.168083 0.74800003 4286018395
0.288506 0.16808701 0.74800003 4285887576
0.29053301 0.168092 0.74800003 4286150234
0.292952 0.168322 0.74900001 4286084187
0.29458901 0.168102 0.74800003 4286281567
0.29661801 0.168108 0.74800003 4286281313
0.29785001 0.16766401 0.74599999 4286083934
0.29987499 0.16767099 0.74599999 4286478946
0.302306 0.16790199 0.74699998 4286413153
0.30474299 0.168134 0.74800003 4286282334
0.306777 0.16814201 0.74800003 4286150746
0.30839801 0.167925 0.74699998 4286150999
0.31001499 0.16770799 0.74599999 4285361485
0.31204599 0.16771699 0.74599999 4285624657
0.31365699 0.167501 0.745 4285032265
0.316111 0.16773599 0.74599999 4285229393
0.317718 0.167521 0.745 4285294932
0.31975099 0.167531 0.745 4285558364
0.32178399 0.167542 0.745 4285558364
0.32381901 0.16755401 0.745 4286150499
0.32541701 0.16734099 0.74400002 4286018915
0.32745099 0.167353 0.74400002 4285953122
0.32948601 0.167366 0.74400002 4285953122
0.33196899 0.167604 0.745 4285887329
0.33445799 0.167843 0.74599999 4285887327
0.33695301 0.168082 0.74699998 4286084448
0.33900201 0.168097 0.74699998 4286150754
0.340139 0.16766199 0.745 4285821787
0.34172601 0.16745199 0.74400002 4286413926
0.344695 0.167919 0.74599999 4286347878
0.34674701 0.167936 0.74599999 4286478953
0.3488 0.167953 0.74599999 4286873451
0.349915 0.167521 0.74400002 4286676071
0.35243899 0.16776399 0.745 4286479460
0.35449401 0.16778301 0.745 4286808425
0.35703 0.168028 0.74599999 4286677098
0.35957301 0.168274 0.74699998 4286676843
0.362607 0.168745 0.74900001 4286676332
0.36516699 0.168992 0.75 4286807918
0.36626601 0.16856299 0.74800003 4286545259
0.36833999 0.168586 0.74800003 4286808172
0.370417 0.16860899 0.74800003 4286742379
0.37349099 0.169084 0.75 4286742636
0.37457499 0.168658 0.74800003 4286676585
0.37665799 0.16868301 0.74800003 4286808171
0.378236 0.168483 0.74699998 4286611052
0.38082799 0.168735 0.74800003 4286742638
0.38291699 0.168763 0.74800003 4286677357
0.38552299 0.169016 0.74900001 4286808945
0.38710099 0.168819 0.74800003 4286808945
0.38867599 0.168623 0.74699998 4286874224
0.390771 0.168653 0.74699998 4286677359
0.392869 0.16868301 0.74699998 4286874477
0.39444 0.16848899 0.74599999 4286742891
0.39600801 0.168295 0.745 4286742891
0.39810699 0.168328 0.745 4286479719
0.40074599 0.168588 0.74599999 4285953373
0.402854 0.168622 0.74599999 4285624157
0.40604901 0.16911 0.74800003 4284505676
0.40816799 0.169146 0.74800003 4284308042
0.41028899 0.169183 0.74800003 4283979846
0.411311 0.168768 0.74599999 4282730808
0.41287801 0.16858 0.745 4284704608
0.41499999 0.16861901 0.745 4287599489
0.417124 0.168659 0.745 4287335803
0.41925201 0.16869999 0.745 4287401335
0.42194799 0.16896901 0.74599999 4286743403
0.42351699 0.16878501 0.745 4287532668
0.42565399 0.168828 0.745 4287401092
0.42779499 0.168873 0.745 4287203711
0.430516 0.169145 0.74599999 4287203964
0.432666 0.169191 0.74599999 4287204218
0.43482 0.169239 0.74599999 4287335289
0.43697801 0.169287 0.74599999 4287532154
0.43913901 0.16933601 0.74599999 4287663993
0.44189501 0.169613 0.74699998 4287335279
0.44525599 0.170119 0.74900001 4287137902
0.44803399 0.170398 0.75 4287137649
0.450223 0.170452 0.75 4287663738
0.45241499 0.170506 0.75 4287466361
0.454005 0.17033499 0.74900001 4287137396
0.45559299 0.170164 0.74800003 4287597947
0.458404 0.170449 0.74900001 4287532154
0.461225 0.170735 0.75 4287597945
0.46282101 0.17056701 0.74900001 4287597687
0.46379399 0.170173 0.74699998 4287729527
0.46725601 0.17069 0.74900001 4287466355
0.470734 0.17121001 0.75099999 4287466101
0.47296801 0.17127401 0.75099999 4287860345
0.47457501 0.171112 0.75 4287136883
0.47681701 0.171179 0.75 4287400055
0.47970301 0.17147499 0.75099999 4287136883
0.48195699 0.171545 0.75099999 4287465848
0.484862 0.17184401 0.75199997 4287531895
0.48777801 0.172144 0.75300002 4287400568
0.491357 0.172675 0.755 4287729533
0.49364501 0.17275 0.755 4287400566
0.497253 0.17328399 0.75700003 4287466614
0.498238 0.172904 0.755 4287532152
0.499881 0.172754 0.75400001 4287598200
-0.19977 0.164124 0.73900002 4288847508
-0.197781 0.164129 0.73900002 4288453264
-0.19605701 0.16435599 0.74000001 4288322194
-0.194589 0.16480599 0.74199998 4288191375
-0.19285101 0.165034 0.74299997 4286020468
-0.190595 0.16481701 0.74199998 4286612352
-0.188089 0.164378 0.74000001 4289441450
-0.185845 0.164162 0.73900002 4289440934
-0.18435401 0.164612 0.741 4289309348
-0.182605 0.16484 0.74199998 4289243555
-0.18109401 0.165291 0.74400002 4289243555
-0.17885 0.165075 0.74299997 4289046176
-0.17685001 0.16508099 0.74299997 4289309348
-0.17437901 0.164643 0.741 4289835433
-0.172616 0.16487101 0.74199998 4289374882
-0.170388 0.164655 0.741 4289374880
-0.16862001 0.164884 0.74199998 4289440928
-0.16639701 0.16466799 0.741 4289440412
-0.16462401 0.16489699 0.74199998 4289242779
-0.162844 0.165126 0.74299997 4289176986
-0.16105901 0.165354 0.74400002 4289242780
-0.15905499 0.165361 0.74400002 4288914331
-0.156629 0.164923 0.74199998 4289638054
-0.15463001 0.16493 0.74199998 4288848538
-0.152631 0.16493601 0.74199998 4289046431
-0.150428 0.16472 0.741 4288980124
-0.148432 0.164727 0.741 4288980638
-0.146632 0.164956 0.74199998 4289178017
-0.144633 0.16496301 0.74199998 4289243294
-0.14244001 0.164747 0.741 4289308312
-0.14025401 0.16453101 0.74000001 4288190084
-0.138446 0.16475999 0.741 4288123778
-0.136632 0.16498899 0.74199998 4288189057
-0.134813 0.165218 0.74299997 4288386436
-0.13298801 0.165447 0.74400002 4288386951
-0.130982 0.165454 0.74400002 4288584335
-0.128802 0.16523799 0.74299997 4288847507
-0.126627 0.165022 0.74199998 4288584850
-0.12429 0.164583 0.74000001 4288979608
-0.122459 0.164812 0.741 4289176472
-0.120459 0.164819 0.741 4289308058
-0.11846 0.16482501 0.741 4289045140
-0.116303 0.164609 0.74000001 4289176726
-0.114461 0.164838 0.741 4288979093
-0.112461 0.16484401 0.741 4288847507
-0.11061 0.16507199 0.74199998 4288781714
-0.10846 0.164856 0.741 4287662977
-0.106747 0.165307 0.74299997 4288584078
-0.105023 0.165758 0.745 4288451976
-0.103012 0.165764 0.745 4288780427
-0.101 0.16576999 0.745 4288649609
-0.098721899 0.16532999 0.74299997 4288452230
-0.096584901 0.165114 0.74199998 4288386436
-0.094453201 0.16489699 0.741 4288189571
-0.092576198 0.165125 0.74199998 4288254850
-0.0905715 0.16513 0.74199998 4288715401
-0.088686101 0.16535801 0.74299997 4288254850
-0.086678401 0.165363 0.74299997 4287334263
-0.0847845 0.165591 0.74400002 4287729021
-0.0827737 0.16559599 0.74400002 4288189577
-0.080762804 0.165601 0.74400002 4288386956
-0.0786459 0.16538399 0.74299997 4288715921
-0.076740503 0.165611 0.74400002 4288057991
-0.074628599 0.16539299 0.74299997 4287992198
-0.072717503 0.16562 0.74400002 4288189577
-0.070800804 0.165847 0.745 4288321164
-0.068878502 0.16607501 0.74599999 4288123785
-0.066681802 0.16563401 0.74400002 4288320910
-0.064582698 0.165415 0.74299997 4288452750
-0.062488899 0.165197 0.74199998 4288715921
-0.0605634 0.16542301 0.74299997 4288650382
-0.058553498 0.165427 0.74299997 4288584589
-0.056543399 0.16543099 0.74299997 4288847761
-0.0544599 0.16521201 0.74199998 4289110933
-0.0524523 0.165215 0.74199998 4289044886
-0.050376602 0.164996 0.741 4288913554
-0.048306201 0.164777 0.74000001 4289374105
-0.046115998 0.164112 0.73699999 4289308053
-0.0441215 0.164115 0.73699999 4289242517
-0.042241201 0.164563 0.73900002 4289176726
-0.0402955 0.16478799 0.74000001 4289505691
-0.038292602 0.164791 0.74000001 4289505691
-0.036240499 0.164571 0.73900002 4289439898
-0.034193799 0.164351 0.73799998 4289243033
-0.032239601 0.16457599 0.73900002 4289111963
-0.030116299 0.16391 0.736 4288585366
-0.0280091 0.163243 0.73299998 4285229668
-0.0258826 0.16235401 0.72899997 4283715914
-0.0239089 0.162356 0.72899997 4283649861
-0.0219352 0.162358 0.72899997 4283255097
-0.019988701 0.162582 0.73000002 4283254582
-0.0180122 0.16258299 0.73000002 4283254321
-0.0160136 0.16236199 0.72899997 4283122736
-0.0140396 0.16236299 0.72899997 4283188528
-0.0120657 0.16236401 0.72899997 4282991663
-0.0101055 0.162587 0.73000002 4282860078
-0.0081176003 0.162365 0.72899997 4282860078
-0.0061435401 0.162365 0.72899997 4283122996
-0.0041694599 0.162366 0.72899997 4282925617
-0.0021923601 0.16214301 0.72799999 4282990896
-0.00022067101 0.16192099 0.727 4282793517
0.0017480101 0.16192099 0.727 4282661931
0.0037217899 0.16214301 0.72799999 4282661931
0.0057009798 0.162365 0.72899997 4282727724
0.0076961098 0.16281 0.73100001 4282596138
0.0096755698 0.16281 0.73100001 4282596652
0.0116391 0.162586 0.73000002 4282662445
0.0135785 0.16214 0.72799999 4282530859
0.0155497 0.162139 0.72799999 4282136615
0.017545 0.162361 0.72899997 4282597166
0.0195456 0.162582 0.73000002 4282531112
0.0215222 0.162581 0.73000002 4282596391
0.0234665 0.162356 0.72899997 4282267426
0.025405301 0.16213199 0.72799999 4282464806
0.0274138 0.16235299 0.72899997 4282464806
0.029347099 0.162128 0.72799999 4282333480
0.031360898 0.162349 0.72899997 4282333480
0.033334401 0.162347 0.72899997 4282399787
0.0354046 0.16279 0.73100001 4282465580
0.037332099 0.16256499 0.73000002 4282070822
0.039308 0.162562 0.73000002 4282071076
0.0412273 0.16233701 0.72899997 4281939236
0.043200299 0.162334 0.72899997 4282136101
0.045235101 0.162554 0.73000002 4282070308
0.0472106 0.162551 0.73000002 4282004516
0.0492533 0.16277 0.73100001 4282069795
0.0511612 0.162544 0.73000002 4282530346
0.053136401 0.162541 0.73000002 4282201894
0.0550359 0.162315 0.72899997 4282333480
0.0570863 0.162534 0.73000002 4282465066
0.059222799 0.162975 0.73199999 4282202408
0.061286502 0.163194 0.73299998 4282070822
0.063182801 0.162967 0.73199999 4282136615
0.065162502 0.162963 0.73199999 4282070823
0.066958703 0.162514 0.73000002 4282333997
0.068932697 0.16250899 0.73000002 4282268207
0.070906699 0.162505 0.73000002 4281873449
0.072880402 0.16249999 0.73000002 4282202666
0.074854001 0.162496 0.73000002 4282136873
0.076827399 0.16249099 0.73000002 4281939749
0.078908697 0.162709 0.73100001 4282531886
0.080773801 0.162481 0.73000002 4282202921
0.082520097 0.16203099 0.72799999 4282268714
0.084487498 0.162026 0.72799999 4282071335
0.086454697 0.162021 0.72799999 4282070822
0.088300198 0.16179299 0.727 4282070822
0.090264402 0.161788 0.727 4282202921
0.092482097 0.162227 0.72899997 4282137128
0.094451301 0.162222 0.72899997 4282334507
0.096420303 0.16221599 0.72899997 4282334252
0.098254196 0.16198801 0.72799999 4282400300
0.10022 0.161983 0.72799999 4282202921
0.102326 0.16219901 0.72899997 4281742370
0.104152 0.161971 0.72799999 4282202408
0.105971 0.161743 0.727 4281873443
0.107934 0.16173699 0.727 4282005029
0.109896 0.161731 0.727 4282071335
0.112012 0.161947 0.72799999 4281939749
0.11382 0.161718 0.727 4282334505
0.115941 0.161935 0.72799999 4282334507
0.117906 0.161929 0.72799999 4281940008
0.120035 0.162145 0.72899997 4282465840
0.121834 0.161916 0.72799999 4282663219
0.123798 0.16191 0.72799999 4282662965
0.125761 0.16190299 0.72799999 4282400307
0.12772501 0.161897 0.72799999 4282400308
0.12951 0.161668 0.727 4283452996
0.13128901 0.161439 0.72600001 4282861375
0.133063 0.16121 0.72500002 4282794812
0.13539 0.161649 0.727 4282137136
0.13867299 0.16319899 0.73400003 4282795065
0.141993 0.164748 0.741 4283123770
0.144379 0.165186 0.74299997 4283057975
0.14638101 0.16518 0.74299997 4283058230
0.14858299 0.16539501 0.74400002 4283387195
0.15038601 0.165167 0.74299997 4283189303
0.152183 0.164938 0.74199998 4283649854
0.15376601 0.16448601 0.74000001 4283518268
0.15618099 0.164924 0.74199998 4283649854
0.158393 0.16514 0.74299997 4284044098
0.160826 0.16557799 0.745 4282794545
0.162177 0.164905 0.74199998 4283319861
0.163954 0.164676 0.741 4283582517
0.16595 0.16467001 0.741 4283451447
0.168172 0.164885 0.74199998 4283780666
0.17062899 0.165323 0.74400002 4284109628
0.172864 0.165539 0.745 4283780663
0.17510501 0.165755 0.74599999 4283912249
0.17687599 0.165527 0.745 4283977528
0.178882 0.16552 0.745 4284240700
0.180888 0.16551401 0.745 4284372286
0.183139 0.16573 0.74599999 4284174907
0.185395 0.16594701 0.74699998 4283912251
0.187406 0.165941 0.74699998 4284372800
0.189164 0.165713 0.74599999 4284570695
0.191172 0.16570701 0.74599999 4284505163
0.19317999 0.165701 0.74599999 4284373316
0.19492599 0.165473 0.745 4284307524
0.196932 0.16546801 0.745 4284702028
0.198937 0.165463 0.745 4284899407
0.20094199 0.165457 0.745 4284439370
0.202675 0.16523001 0.74400002 4284110405
0.204403 0.165003 0.74299997 4284373577
0.206403 0.16499799 0.74299997 4284044866
0.20896401 0.165437 0.745 4283255349
0.210969 0.165433 0.745 4284702796
0.21326099 0.16565 0.74599999 4284768335
0.21498001 0.165424 0.745 4284571469
0.216986 0.165419 0.745 4284703055
0.21899199 0.165415 0.745 4284768335
0.220998 0.165411 0.745 4284702542
0.223004 0.165408 0.745 4284834382
0.22470801 0.16518199 0.74400002 4284702542
0.226711 0.165178 0.74400002 4284965714
0.229022 0.165397 0.745 4285031507
0.23133899 0.16561601 0.74599999 4285032020
0.233036 0.165391 0.745 4284637009
0.235043 0.165388 0.745 4284636755
0.23705 0.16538601 0.745 4285163094
0.239057 0.165383 0.745 4284834129
0.241065 0.165381 0.745 4284965200
0.243073 0.165379 0.745 4285097040
0.244752 0.16515499 0.74400002 4285228625
0.246426 0.164932 0.74299997 4285228625
0.24876399 0.165153 0.74400002 4284965453
0.25110701 0.165374 0.745 4285162833
0.254136 0.166039 0.74800003 4285294419
0.256154 0.16603801 0.74800003 4285097553
0.25782701 0.16581599 0.74699998 4285492311
0.25914699 0.165372 0.745 4285360726
0.26115799 0.165372 0.745 4285163604
0.263522 0.165594 0.74599999 4285032020
0.26518101 0.165373 0.745 4285229144
0.26755199 0.16559599 0.74599999 4285163351
0.26956701 0.16559701 0.74599999 4284308297
0.271947 0.165821 0.74699998 4284570956
0.273599 0.1656 0.74599999 4284505417
0.27598599 0.165824 0.74699998 4284439624
0.27726099 0.165383 0.745 4283979073
0.27890199 0.16516399 0.74400002 4285031507
0.28053799 0.16494501 0.74299997 4284768335
0.28330901 0.165392 0.745 4284900175
0.28570899 0.165618 0.74599999 4285097554
0.28773001 0.165622 0.74599999 4285098064
0.28975099 0.165626 0.74599999 4285360979
0.29177299 0.165631 0.74599999 4285361491
0.293796 0.165636 0.74599999 4285558870
0.295026 0.165197 0.74400002 4285623637
0.29704499 0.16520301 0.74400002 4285821530
0.29866299 0.164987 0.74299997 4285887322
0.301085 0.165215 0.74400002 4285952601
0.30310699 0.165222 0.74400002 4286019419
0.30512899 0.16522899 0.74400002 4285756245
0.307152 0.16523699 0.74400002 4286085210
0.30875999 0.165023 0.74299997 4285953624
0.31036401 0.164809 0.74199998 4286151003
0.31280601 0.16504 0.74299997 4286019162
0.31483001 0.165049 0.74299997 4285821530
0.31685501 0.165059 0.74299997 4285229139
0.31931099 0.165291 0.74400002 4285426776
0.32090899 0.16508 0.74299997 4285821536
0.322938 0.16509099 0.74299997 4286216034
0.32496801 0.16510201 0.74299997 4286215781
0.32699901 0.165114 0.74299997 4286742125
0.32903099 0.16512699 0.74299997 4286676335
0.33106399 0.165139 0.74299997 4286808172
0.33399501 0.16559701 0.745 4286611050
0.33603701 0.165611 0.745 4287202930
0.33762601 0.16540299 0.74400002 4286940521
0.33966699 0.165418 0.74400002 4286545512
0.34125099 0.16521101 0.74299997 4286545257
0.34329301 0.165227 0.74299997 4286611052
0.34533599 0.165243 0.74299997 4286808431
0.34691301 0.165038 0.74199998 4286676332
0.34848601 0.16483299 0.741 4286347367
0.350528 0.16485099 0.741 4286347620
0.35257199 0.164869 0.741 4286808425
0.35509601 0.16511101 0.74199998 4286676585
0.35714599 0.16513 0.74199998 4286874222
0.35968199 0.165373 0.74299997 4286545000
0.361738 0.16539399 0.74299997 4286808431
0.36330599 0.16519301 0.74199998 4286940017
0.36585599 0.165437 0.74299997 4287005808
0.367917 0.16546001 0.74299997 4287137649
0.37047899 0.16570599 0.74400002 4287268722
0.37204701 0.165507 0.74299997 4287005804
0.37461799 0.16575401 0.74400002 4286742631
0.37669101 0.16577999 0.74400002 4287005803
0.37927401 0.16602799 0.745 4287203183
0.380842 0.165832 0.74400002 4287334769
0.38395101 0.16630501 0.74599999 4287268722
0.385003 0.165887 0.74400002 4287531895
0.38760599 0.16613901 0.745 4287268723
0.38917199 0.16594499 0.74400002 4287202930
0.39126 0.165975 0.74400002 4287663734
0.39335099 0.166006 0.74400002 4287335026
0.39544401 0.16603699 0.74400002 4286808684
0.398074 0.166292 0.745 4287203187
0.40017501 0.166325 0.745 4287137649
0.40227899 0.16635901 0.745 4286808429
0.404928 0.16661701 0.74599999 4287005810
0.406495 0.166429 0.745 4287071603
0.40860701 0.166465 0.745 4287137396
0.409619 0.16605499 0.74299997 4286678631
0.411731 0.16609199 0.74299997 4282336049
0.41384599 0.166131 0.74299997 4282731321
0.41596401 0.16617 0.74299997 4283322944
0.418648 0.166434 0.74400002 4282862393
0.421341 0.16669901 0.745 4282927672
0.42347401 0.16674 0.745 4282926915
0.426182 0.167007 0.74599999 4282401591
0.427176 0.166603 0.74400002 4282861887
0.42931601 0.166647 0.74400002 4282927935
0.43088001 0.16646899 0.74299997 4283980107
0.43302399 0.16651499 0.74299997 4284966488
0.434587 0.166338 0.74199998 4286413673
0.43732399 0.16661 0.74299997 4286808945
0.44007 0.16688401 0.74400002 4287007089
0.44342101 0.167383 0.74599999 4287598975
0.445593 0.16743401 0.74599999 4287270010
0.44716799 0.167262 0.745 4287203450
0.44994801 0.16754 0.74599999 4287335036
0.452737 0.16781899 0.74699998 4287466622
0.45492801 0.16787399 0.74699998 4287137657
0.45651099 0.167706 0.74599999 4287795840
0.458092 0.167538 0.745 4287466875
0.46029001 0.167597 0.745 4287466361
0.46249199 0.167656 0.745 4287795579
0.46532199 0.167942 0.74599999 4287597941
0.46816301 0.168229 0.74699998 4287597687
0.47038499 0.168293 0.74699998 4287663480
0.47324401 0.16858201 0.74800003 4287794553
0.474843 0.168422 0.74699998 4287795067
0.47835699 0.16893999 0.74900001 4287400055
0.479963 0.16878299 0.74800003 4287465848
0.483502 0.169303 0.75 4287597434
0.48576301 0.169374 0.75 4287663481
0.48998201 0.170123 0.75300002 4287466101
0.49160901 0.169971 0.75199997 4287663738
0.495206 0.170498 0.75400001 4287466359
0.49618101 0.170122 0.75199997 4287334773
0.49781299 0.169973 0.75099999 4287466101
0.498779 0.169598 0.74900001 4287137394
-0.198423 0.161035 0.73400003 4288584335
-0.19698299 0.161479 0.736 4288321678
-0.19526701 0.161704 0.73699999 4288453780
-0.19407 0.162368 0.74000001 4287466891
-0.19207799 0.16237301 0.74000001 4285099113
-0.18983001 0.16215999 0.73900002 4289046692
-0.18682399 0.16128799 0.73500001 4289244071
-0.184845 0.161294 0.73500001 4289309348
-0.183116 0.16151901 0.736 4289440934
-0.18162601 0.161964 0.73799998 4289375396
-0.179883 0.16218901 0.73900002 4289374882
-0.177894 0.162195 0.73900002 4289177503
-0.17614201 0.162421 0.74000001 4289309089
-0.173914 0.16220801 0.73900002 4289572261
-0.172157 0.162434 0.74000001 4288980638
-0.169705 0.162001 0.73799998 4288849052
-0.168172 0.16244601 0.74000001 4289243808
-0.16595501 0.162233 0.73900002 4288980377
-0.163964 0.16224 0.73900002 4289177240
-0.161974 0.162246 0.73900002 4289111447
-0.16041701 0.162692 0.741 4289242779
-0.15842099 0.162698 0.741 4289703330
-0.156002 0.162266 0.73900002 4289440159
-0.15380301 0.162053 0.73799998 4289045915
-0.151815 0.16205999 0.73799998 4289111710
-0.150232 0.162505 0.74000001 4289111710
-0.148238 0.162512 0.74000001 4289441189
-0.146244 0.16251899 0.74000001 4289046431
-0.14424901 0.162525 0.74000001 4289243296
-0.14206301 0.162312 0.73900002 4289242519
-0.14026 0.16253801 0.74000001 4287795071
-0.138265 0.162545 0.74000001 4288189571
-0.136454 0.162771 0.741 4288255364
-0.134275 0.162558 0.74000001 4288584329
-0.13228001 0.16256499 0.74000001 4288715916
-0.130284 0.162571 0.74000001 4288716173
-0.128462 0.162798 0.741 4288847759
-0.12629201 0.16258401 0.74000001 4288716175
-0.124128 0.16237099 0.73900002 4288979347
-0.122134 0.162377 0.73900002 4289242519
-0.120141 0.162384 0.73900002 4288979345
-0.118147 0.16238999 0.73900002 4289045138
-0.115995 0.162177 0.73799998 4289242517
-0.114158 0.162403 0.73900002 4289045138
-0.112163 0.16240899 0.73900002 4288781966
-0.110169 0.162415 0.73900002 4287992195
-0.108027 0.162201 0.73799998 4288781711
-0.106322 0.16264699 0.74000001 4288386185
-0.104606 0.163092 0.74199998 4288517516
-0.102603 0.16309801 0.74199998 4288386185
-0.100328 0.162664 0.74000001 4288320906
-0.098329 0.16267 0.74000001 4288452492
-0.096330203 0.16267601 0.74000001 4288321160
-0.0942038 0.162462 0.73900002 4288123011
-0.092207402 0.162467 0.73900002 4288912267
-0.090210699 0.16247299 0.73900002 4288517509
-0.088333301 0.162698 0.74000001 4288518022
-0.086333603 0.16270299 0.74000001 4288715402
-0.0843338 0.162708 0.74000001 4288781714
-0.082333699 0.16271301 0.74000001 4289176473
-0.0805507 0.163158 0.74199998 4288979094
-0.078438997 0.16294301 0.741 4288123785
-0.076435797 0.162948 0.741 4287268475
-0.074231498 0.162513 0.73900002 4288255365
-0.072331101 0.162737 0.74000001 4288452744
-0.0705202 0.16318201 0.74199998 4288387210
-0.0684212 0.162966 0.741 4288255624
-0.066327602 0.16275001 0.74000001 4287992198
-0.064239196 0.162535 0.73900002 4287992452
-0.062155999 0.162319 0.73799998 4288189572
-0.060322698 0.162763 0.74000001 4287992192
-0.058478501 0.163206 0.74199998 4288123265
-0.056471001 0.16321 0.74199998 4287860609
-0.0543167 0.162774 0.74000001 4288255624
-0.052173 0.16233701 0.73799998 4288584335
-0.050244 0.162561 0.73900002 4288124038
-0.0481789 0.16234399 0.73799998 4288518794
-0.046119101 0.162127 0.73699999 4288847502
-0.044124398 0.16213 0.73699999 4289044881
-0.0421868 0.16235299 0.73799998 4288979345
-0.0401893 0.162356 0.73799998 4289045140
-0.038243402 0.162578 0.73900002 4289242517
-0.0361939 0.162361 0.73799998 4289308310
-0.034196101 0.16236299 0.73799998 4289242517
-0.032198198 0.162366 0.73799998 4289177240
-0.0300774 0.161708 0.73500001 4288453778
-0.028011 0.16126999 0.73299998 4283321926
-0.025919899 0.160611 0.73000002 4283781961
-0.023976199 0.160833 0.73100001 4283518275
-0.022027001 0.161055 0.73199999 4283320890
-0.020017499 0.160836 0.73100001 4283255096
-0.0180628 0.161057 0.73199999 4283057203
-0.0160586 0.16083901 0.73100001 4283188789
-0.0140791 0.16084 0.73100001 4282991663
-0.0120665 0.1604 0.72899997 4282860077
-0.0101062 0.160621 0.73000002 4282925870
-0.0081292903 0.160622 0.73000002 4282794285
-0.00615239 0.160622 0.73000002 4282794031
-0.0041754702 0.160623 0.73000002 4282662445
-0.0021955201 0.160403 0.72899997 4282661931
-0.00022099 0.160183 0.72799999 4282530345
0.00175294 0.160403 0.72899997 4282596139
0.0037322701 0.160623 0.73000002 4282530346
0.00571702 0.160843 0.73100001 4282793517
0.00771769 0.161282 0.73299998 4282728238
0.0096894698 0.161061 0.73199999 4282399788
0.0116558 0.160841 0.73100001 4282399788
0.0136167 0.16062 0.73000002 4282597166
0.0155935 0.16061901 0.73000002 4281939494
0.017618399 0.16105799 0.73199999 4282400300
0.019627299 0.161276 0.73299998 4282728492
0.0215826 0.161055 0.73199999 4282465320
0.0235324 0.160833 0.73100001 4282596906
0.0254768 0.160612 0.73000002 4282465320
0.0274533 0.16061001 0.73000002 4282333480
0.0293894 0.16038799 0.72899997 4282202408
0.0313631 0.160386 0.72899997 4282202409
0.033336598 0.160384 0.72899997 4281676322
0.0353585 0.160602 0.73000002 4281873956
0.037334699 0.16059899 0.73000002 4281676577
0.039364502 0.160816 0.73100001 4281742370
0.041286599 0.160594 0.73000002 4281412892
0.0432624 0.16059101 0.73000002 4281215514
0.0452381 0.160588 0.73000002 4281347102
0.047278401 0.160805 0.73100001 4281676067
0.0493914 0.16124199 0.73299998 4281412379
0.0512347 0.160798 0.73100001 4282004515
0.053212602 0.160795 0.73100001 4281807650
0.055114999 0.16057201 0.73000002 4281610271
0.057168201 0.160788 0.73100001 4281873443
0.059226699 0.16100401 0.73199999 4281610271
0.061374001 0.16144 0.73400003 4281610271
0.063273102 0.16121601 0.73299998 4281741857
0.065166697 0.160992 0.73199999 4281873701
0.066962898 0.160548 0.73000002 4282268461
0.0689371 0.16054399 0.73000002 4281873703
0.070911102 0.160539 0.73000002 4282005289
0.0729848 0.16075499 0.73100001 4281939494
0.0749612 0.16075 0.73100001 4282334507
0.076937497 0.16074499 0.73100001 4282268714
0.079021499 0.16096 0.73199999 4282202666
0.0807788 0.16051599 0.73000002 4282268459
0.082525097 0.160071 0.72799999 4282531631
0.084376499 0.15984599 0.727 4282071335
0.086459897 0.160061 0.72799999 4282202921
0.088305503 0.15983599 0.727 4282466093
0.090269797 0.15983 0.727 4282268714
0.092360698 0.160045 0.72799999 4282531886
0.094456799 0.16025899 0.72899997 4282268714
0.096425898 0.160253 0.72899997 4282334507
0.098259903 0.160028 0.72799999 4282334507
0.100226 0.16002201 0.72799999 4281939749
0.102192 0.160016 0.72799999 4281873956
0.104014 0.15979099 0.727 4282137128
0.105977 0.159785 0.727 4281939749
0.10794 0.159779 0.727 4281808163
0.110053 0.15999299 0.72799999 4282071335
0.112018 0.159987 0.72799999 4282202921
0.11367 0.159541 0.72600001 4282597679
0.115788 0.15975501 0.727 4282926644
0.117912 0.159968 0.72799999 4282466354
0.120041 0.160182 0.72899997 4282532147
0.121673 0.15973599 0.727 4282991930
0.123634 0.15973 0.727 4282926652
0.125595 0.159723 0.727 4282992445
0.127556 0.15971699 0.727 4283321156
0.129338 0.159491 0.72600001 4283189570
0.130934 0.159045 0.72399998 4283124292
0.13307001 0.15925799 0.72500002 4282729534
0.135397 0.15969101 0.727 4282400054
0.13849001 0.161002 0.73299998 4282860859
0.141424 0.162094 0.73799998 4283123516
0.143802 0.16252699 0.74000001 4282794805
0.14599399 0.16274001 0.741 4282729010
0.14819001 0.162953 0.74199998 4283452988
0.149785 0.162507 0.74000001 4283189816
0.151779 0.16249999 0.74000001 4283452988
0.153357 0.162054 0.73799998 4283584574
0.15555599 0.162267 0.73900002 4283913026
0.157547 0.16226099 0.73900002 4283715133
0.15975299 0.16247401 0.74000001 4283254582
0.161309 0.162028 0.73799998 4283649080
0.163297 0.16202199 0.73799998 4283911482
0.165732 0.16245399 0.74000001 4283649080
0.167725 0.162448 0.74000001 4283517493
0.169718 0.162441 0.74000001 4284174664
0.171711 0.162435 0.74000001 4284043838
0.17393801 0.16264801 0.741 4283649330
0.175933 0.162642 0.741 4284701506
0.177928 0.162636 0.741 4284635458
0.18016601 0.16284899 0.74199998 4284569667
0.182409 0.16306201 0.74299997 4284503874
0.18465699 0.163276 0.74400002 4283846458
0.186911 0.163489 0.745 4284636488
0.18866199 0.16326401 0.74400002 4284702535
0.19066501 0.163258 0.74400002 4284702535
0.19215 0.16281401 0.74199998 4284702281
0.194409 0.163027 0.74299997 4284570695
0.196408 0.163022 0.74299997 4284373317
0.19840799 0.16301601 0.74299997 4284767821
0.200138 0.162792 0.74199998 4284373577
0.20186301 0.162567 0.741 4284241991
0.203582 0.162343 0.74000001 4284307784
0.205852 0.16255701 0.741 4284110659
0.20812701 0.162772 0.74199998 4283452729
0.210124 0.16276699 0.74199998 4284045372
0.21240801 0.162982 0.74299997 4284637003
0.214408 0.162977 0.74299997 4284439883
0.21582501 0.162534 0.741 4284439628
0.21782 0.16253 0.741 4284636750
0.219815 0.162526 0.741 4284768335
0.222109 0.16274101 0.74199998 4284571469
0.22350299 0.16229901 0.74000001 4284439883
0.22580101 0.162515 0.741 4284703055
0.228104 0.16273101 0.74199998 4284965972
0.23041201 0.162947 0.74299997 4284702800
0.2321 0.162724 0.74199998 4284899927
0.234099 0.16272099 0.74199998 4285031767
0.23609801 0.162719 0.74199998 4285031765
0.238097 0.162716 0.74199998 4285031507
0.24042 0.16293301 0.74299997 4285096786
0.24209601 0.16271199 0.74199998 4285031247
0.24376699 0.16249099 0.741 4285162832
0.245764 0.162489 0.741 4285425490
0.24776199 0.162488 0.741 4284899660
0.25043401 0.162925 0.74299997 4284175938
0.25277799 0.16314299 0.74400002 4284571210
0.25478399 0.16314299 0.74400002 4284768588
0.25610101 0.16270299 0.74199998 4284966480
0.25740799 0.162265 0.74000001 4284966480
0.25940499 0.162265 0.74000001 4285097811
0.261756 0.16248401 0.741 4285426778
0.26375601 0.162485 0.741 4285426523
0.26611599 0.162705 0.74199998 4285360730
0.26811999 0.162706 0.74199998 4285294679
0.269761 0.162488 0.741 4285294679
0.27176401 0.162489 0.741 4285294679
0.27376699 0.16249099 0.741 4284768335
0.27539799 0.162274 0.74000001 4285294679
0.27739999 0.162277 0.74000001 4285228886
0.27940199 0.16227999 0.74000001 4285163093
0.28216499 0.16272099 0.74199998 4285360726
0.284174 0.162725 0.74199998 4285229397
0.286183 0.162728 0.74199998 4285295190
0.28780499 0.162513 0.741 4285558617
0.28981301 0.16251799 0.741 4285558615
0.292216 0.162742 0.74199998 4285361491
0.29422799 0.162747 0.74199998 4285558357
0.29624099 0.162752 0.74199998 4285163599
0.29785299 0.16253901 0.741 4285755736
0.29986501 0.162545 0.741 4285229392
0.30187699 0.162552 0.741 4285558870
0.30348101 0.162339 0.74000001 4285690454
0.305906 0.16256601 0.741 4285756245
0.307506 0.16235401 0.74000001 4285821781
0.30951899 0.16236199 0.74000001 4285887574
0.311955 0.16259 0.741 4286413920
0.31397301 0.162599 0.741 4285953116
0.315566 0.162389 0.74000001 4286281828
0.31758401 0.16239899 0.74000001 4286413160
0.32003501 0.162628 0.741 4286675818
0.32205799 0.16263901 0.741 4286346590
0.32364401 0.162431 0.74000001 4286675555
0.32566601 0.162442 0.74000001 4286084694
0.32769001 0.16245399 0.74000001 4286413666
0.32971501 0.162467 0.74000001 4286084706
0.33218899 0.162699 0.741 4286150501
0.33421901 0.16271199 0.741 4286150248
0.335796 0.162507 0.74000001 4286413166
0.33782601 0.162521 0.74000001 4286347878
0.33939901 0.16231599 0.73900002 4286742636
0.340967 0.162112 0.73799998 4286676845
0.34299499 0.162128 0.73799998 4286676845
0.34502599 0.16214401 0.73799998 4287202676
0.347058 0.16216099 0.73799998 4287400055
0.34909099 0.16217899 0.73799998 4287268469
0.35112599 0.16219699 0.73799998 4287400309
0.353641 0.162435 0.73900002 4287202676
0.35520101 0.16223399 0.73799998 4287532154
0.35820901 0.16269401 0.74000001 4287466361
0.36025599 0.162714 0.74000001 4287466361
0.362306 0.162735 0.74000001 4287334775
0.364849 0.162976 0.741 4287400568
0.366905 0.16299801 0.741 4287729531
0.36896199 0.163021 0.741 4287203442
0.37002 0.162604 0.73900002 4286940270
0.37257999 0.162848 0.74000001 4287729526
0.37463999 0.162873 0.74000001 4287400561
0.37670299 0.162898 0.74000001 4287071597
0.37774399 0.16248301 0.73799998 4286610792
0.380321 0.16272999 0.73900002 4286545000
0.38187 0.16253699 0.73799998 4286741611
0.38445601 0.16278499 0.73900002 4286808172
0.386004 0.16259301 0.73799998 4286873965
0.38860101 0.162843 0.73900002 4286611046
0.391206 0.163093 0.74000001 4287071854
0.39381799 0.163344 0.741 4287137649
0.39643899 0.163596 0.74199998 4287137649
0.399068 0.163849 0.74299997 4287269235
0.40116599 0.163882 0.74299997 4287465848
0.40326601 0.16391499 0.74299997 4287203189
0.40482301 0.163729 0.74199998 4287137649
0.40692499 0.163764 0.74199998 4287466359
0.409031 0.1638 0.74199998 4287072623
0.41058499 0.163616 0.741 4285493597
0.412137 0.163433 0.74000001 4282270256
0.41368601 0.163251 0.73900002 4288784024
0.41692001 0.16373201 0.741 4288060817
0.41960299 0.163993 0.74199998 4287863439
0.421727 0.16403399 0.74199998 4288191636
0.42328301 0.163854 0.741 4288455322
0.42541 0.16389699 0.741 4287994771
0.42754099 0.16394 0.741 4287994511
0.429095 0.163764 0.74000001 4288520340
0.431813 0.16403 0.741 4287401345
0.43453899 0.164298 0.74199998 4286940539
0.43786401 0.16478799 0.74400002 4286743168
0.44002101 0.164836 0.74400002 4283125059
0.442182 0.164886 0.74400002 4282730554
0.44434699 0.16493601 0.74400002 4283191105
0.445315 0.164544 0.74199998 4283190591
0.44748199 0.16459601 0.74199998 4283322179
0.450865 0.165093 0.74400002 4284703316
0.45304599 0.16514701 0.74400002 4284242765
0.45461899 0.16497999 0.74299997 4286019944
0.45618999 0.164814 0.74199998 4286743666
0.45837799 0.16487101 0.74199998 4287466875
0.46057001 0.16493 0.74199998 4287730047
0.462767 0.16498899 0.74199998 4287729786
0.46559501 0.165272 0.74299997 4287663738
0.467803 0.165334 0.74299997 4287597945
0.47001699 0.165397 0.74299997 4287532152
0.47223499 0.165461 0.74299997 4287532154
0.47573599 0.16597199 0.745 4287466361
0.47797 0.16603801 0.745 4287663740
0.480854 0.166329 0.74599999 4287466865
0.48310199 0.166398 0.74599999 4287466614
0.48730701 0.167138 0.74900001 4288124544
0.48892099 0.166986 0.74800003 4287597945
0.492504 0.16750599 0.75 4287597945
0.49478599 0.16758101 0.75 4287795067
0.49641001 0.16743299 0.74900001 4287531894
0.49870101 0.16751 0.74900001 4287531895
-0.198158 0.158841 0.73299998 4288386956
-0.19645301 0.159063 0.73400003 4288387470
-0.19500799 0.159502 0.736 4287598732
-0.193289 0.159724 0.73699999 4286479996
-0.191046 0.159513 0.736 4286282882
-0.18880799 0.159302 0.73500001 4289375658
-0.186829 0.159308 0.73500001 4288980900
-0.1846 0.159097 0.73400003 4289111969
-0.182873 0.159319 0.73500001 4289440934
-0.18114001 0.15954199 0.736 4289375396
-0.17940199 0.15976501 0.73699999 4289440675
-0.176937 0.159338 0.73500001 4289243296
-0.17495801 0.159344 0.73500001 4289769640
-0.172979 0.15934999 0.73500001 4289243296
-0.171233 0.159573 0.736 4289243555
-0.168791 0.159146 0.73400003 4289901740
-0.16726901 0.159586 0.736 4289901738
-0.165287 0.159592 0.736 4289177756
-0.163305 0.15959901 0.736 4289177756
-0.16110399 0.15938801 0.73500001 4289176986
-0.15890799 0.159178 0.73400003 4289374365
-0.15735801 0.15961801 0.736 4289637538
-0.154953 0.159191 0.73400003 4289176987
-0.153184 0.15941501 0.73500001 4289374880
-0.150998 0.15920401 0.73400003 4289243296
-0.149427 0.15964501 0.736 4289506468
-0.147644 0.159868 0.73699999 4289243041
-0.14585499 0.160092 0.73799998 4289308834
-0.143866 0.160098 0.73799998 4289111194
-0.14149299 0.15967099 0.736 4288057991
-0.139319 0.15946101 0.73500001 4288189829
-0.13752399 0.159684 0.736 4288058243
-0.13572399 0.159908 0.73699999 4288321157
-0.133919 0.16013101 0.73799998 4288650122
-0.132107 0.160355 0.73900002 4288584329
-0.130114 0.16036101 0.73900002 4288452743
-0.127948 0.160151 0.73799998 4288781708
-0.125957 0.160157 0.73799998 4288847759
-0.123967 0.160164 0.73799998 4289110931
-0.12181 0.159953 0.73699999 4288979345
-0.119822 0.15996 0.73699999 4289176979
-0.117673 0.159749 0.736 4289242259
-0.115844 0.159972 0.73699999 4288848014
-0.113855 0.159978 0.73699999 4288979087
-0.111714 0.159768 0.736 4289044880
-0.109429 0.159339 0.73400003 4287992193
-0.107594 0.159563 0.73500001 4288846988
-0.105753 0.159786 0.736 4288451976
-0.104048 0.160226 0.73799998 4288780943
-0.102194 0.160449 0.73900002 4288517771
-0.099790998 0.159803 0.736 4288189320
-0.097803198 0.15980899 0.736 4288584078
-0.0958151 0.159815 0.736 4288649355
-0.093826897 0.15982001 0.736 4288188804
-0.091963299 0.160043 0.73699999 4288714634
-0.089849897 0.159831 0.736 4288254337
-0.087861098 0.15983599 0.736 4288452229
-0.085755497 0.159624 0.73500001 4288452230
-0.083883002 0.15984701 0.736 4288386699
-0.081893697 0.159852 0.736 4288123785
-0.080229901 0.16050801 0.73900002 4288320653
-0.078232199 0.160513 0.73900002 4288386700
-0.076234199 0.16051801 0.73900002 4288057988
-0.074035197 0.160088 0.73699999 4288715916
-0.072140098 0.16031 0.73799998 4288584330
-0.070239499 0.160532 0.73900002 4288650380
-0.068148598 0.160319 0.73799998 4288913552
-0.065883599 0.15967099 0.73500001 4289044883
-0.063895598 0.159676 0.73500001 4288979088
-0.061991598 0.159897 0.736 4288715915
-0.060163599 0.160335 0.73799998 4289175952
-0.058403399 0.160991 0.741 4288912781
-0.0563986 0.16099501 0.741 4288912781
-0.054393601 0.160998 0.741 4288715918
-0.052176401 0.16034999 0.73799998 4288452746
-0.050111301 0.160136 0.73699999 4288453001
-0.048051499 0.159922 0.736 4288453001
-0.0460595 0.159925 0.736 4288189572
-0.044127401 0.160145 0.73699999 4288518537
-0.042189699 0.160366 0.73799998 4288123779
-0.0401375 0.160151 0.73699999 4288057986
-0.038090698 0.159936 0.736 4288123779
-0.036049198 0.159722 0.73500001 4288387463
-0.034012999 0.15950701 0.73400003 4288387463
-0.0320694 0.15972599 0.73500001 4288387208
-0.0300385 0.159511 0.73400003 4287860866
-0.028051199 0.159513 0.73400003 4286940278
-0.025992701 0.15908 0.73199999 4285821283
-0.0240434 0.159299 0.73299998 4283979079
-0.0220886 0.159518 0.73400003 4282465838
-0.0200736 0.159302 0.73299998 4282202409
-0.0181133 0.159521 0.73400003 4282202408
-0.0160817 0.159087 0.73199999 4281807650
-0.0141186 0.159306 0.73299998 4282267687
-0.0120839 0.158654 0.73000002 4281807390
-0.0101207 0.15887301 0.73100001 4281610010
-0.0081409896 0.15887301 0.73100001 4281873183
-0.0061612399 0.15887401 0.73100001 4281741343
-0.00418719 0.159091 0.73199999 4281741343
-0.0021986801 0.158657 0.73000002 4282135588
-0.000221309 0.15843999 0.72899997 4282134818
0.00175306 0.15843999 0.72899997 4281938209
0.0037376401 0.15887401 0.73100001 4281741343
0.0057330499 0.159308 0.73299998 4282004515
0.0077287499 0.15952501 0.73400003 4281741857
0.0097166104 0.15952501 0.73400003 4281873956
0.0116885 0.159307 0.73299998 4281742370
0.0136549 0.159088 0.73199999 4281479198
0.0156159 0.15887 0.73100001 4281873701
0.017643699 0.15930399 0.73299998 4281544738
