# .PCD v0.7 - Point Cloud Data file format
VERSION 0.7
FIELDS x y z rgb
SIZE 4 4 4 4
TYPE F F F U
COUNT 1 1 1 1
WIDTH 1118
HEIGHT 1
VIEWPOINT 0 0 0 1 0 0 0
POINTS 1118
DATA ascii
0.28378999 0.166522 0.55599999 4287860579
0.28484601 0.166256 0.55500001 4287729256
0.28744599 0.16689 0.55699998 4287663209
0.28953999 0.167226 0.55800003 4287794796
0.29112101 0.167262 0.55800003 4287663985
0.29217899 0.167 0.55699998 4287466606
0.29323301 0.166738 0.55599999 4287663985
0.29481399 0.166777 0.55599999 4287466863
0.296397 0.166816 0.55599999 4287598192
0.29798201 0.16685601 0.55599999 4287531370
0.30064699 0.16749801 0.55800003 4287202659
0.3017 0.16723999 0.55699998 4287333216
0.303839 0.167583 0.55800003 4287004242
0.304344 0.167026 0.55599999 4286938449
0.30594099 0.16707 0.55599999 4287070035
0.30754 0.167116 0.55599999 4287267414
0.30914101 0.167162 0.55599999 4287003988
0.31186199 0.16780999 0.55800003 4287069781
0.312913 0.167558 0.55699998 4287004249
0.31395999 0.16730601 0.55599999 4287004766
0.31613901 0.167657 0.55699998 4287070559
0.318326 0.168009 0.55800003 4287003755
0.319949 0.16806 0.55800003 4286937446
0.32042199 0.167511 0.55599999 4286543184
0.32146499 0.167263 0.55500001 4286873170
0.32308799 0.167318 0.55500001 4287136342
0.325883 0.16797601 0.55699998 4287400028
0.328105 0.16833501 0.55800003 4287334497
0.330336 0.168694 0.55900002 4287137119
0.33138901 0.168451 0.55800003 4287005280
0.33303499 0.168511 0.55800003 4287400038
0.334685 0.16857199 0.55800003 4287334244
0.33573499 0.168332 0.55699998 4287333984
0.33738801 0.168395 0.55699998 4287136605
0.33782801 0.16785499 0.55500001 4287399262
0.33886999 0.16761699 0.55400002 4287070044
0.33991 0.167381 0.55299997 4286610008
0.34403601 0.168659 0.55699998 4285820752
0.346948 0.16933399 0.55900002 4284834372
0.34987599 0.17001 0.56099999 4284769093
0.35031301 0.169476 0.55900002 4285361230
0.35200101 0.169548 0.55900002 4285624661
0.35369301 0.169622 0.55900002 4286611556
0.35539001 0.169698 0.55900002 4287269235
0.35772899 0.17007799 0.56 4287729784
0.358794 0.169852 0.55900002 4287203695
0.35985801 0.169627 0.55800003 4287335020
0.360919 0.169403 0.55699998 4287400552
0.36328101 0.169789 0.55800003 4287531623
0.36500001 0.169872 0.55800003 4287597930
0.36737999 0.170261 0.55900002 4287335273
0.36844999 0.17004199 0.55800003 4287598447
0.369519 0.169825 0.55699998 4287466608
0.37125301 0.16991299 0.55699998 4287137127
0.374331 0.170614 0.55900002 4287202405
0.37608099 0.170706 0.55900002 4286939993
0.37716001 0.17049301 0.55800003 4287400038
0.37823701 0.17028201 0.55699998 4287202405
0.379996 0.170378 0.55699998 4286873441
0.38176 0.170476 0.55699998 4287070566
0.38352999 0.17057499 0.55699998 4287005280
0.38530499 0.17067599 0.55699998 4286676567
0.38708499 0.170779 0.55699998 4286742107
0.38887101 0.170883 0.55699998 4286611038
0.390663 0.17098901 0.55699998 4286413918
-0.19995201 0.16048799 0.54400003 4288254066
-0.198474 0.16048101 0.54400003 4288122740
-0.19663499 0.16018 0.54299998 4287925622
-0.195161 0.160173 0.54299998 4288188796
-0.19368801 0.16016699 0.54299998 4288057208
-0.192569 0.160457 0.54400003 4288122487
-0.190742 0.160156 0.54299998 4288056947
-0.18927 0.160151 0.54299998 4288122994
-0.18779901 0.160146 0.54299998 4287991408
-0.18667001 0.160437 0.54400003 4287991408
-0.184856 0.160138 0.54299998 4287925101
-0.183386 0.160133 0.54299998 4288319859
-0.18158101 0.159835 0.542 4288057201
-0.180446 0.160126 0.54299998 4288057201
-0.179307 0.160418 0.54400003 4287991408
-0.177835 0.16041499 0.54400003 4287859821
-0.17636301 0.160412 0.54400003 4287991407
-0.17489199 0.160409 0.54400003 4288056686
-0.17374 0.16070201 0.54500002 4287990893
-0.172267 0.16069999 0.54500002 4287925101
-0.170481 0.160403 0.54400003 4287793515
-0.169011 0.160401 0.54400003 4288188019
-0.167541 0.1604 0.54400003 4288122226
-0.16637699 0.160694 0.54500002 4288122480
-0.165207 0.160987 0.546 4287858538
-0.163433 0.16069201 0.54500002 4288253296
-0.16166399 0.16039599 0.54400003 4288187758
-0.16049001 0.16068999 0.54500002 4287924586
-0.15901899 0.16068999 0.54500002 4288121965
-0.157259 0.160395 0.54400003 4288056172
-0.155791 0.160395 0.54400003 4288056170
-0.154323 0.160395 0.54400003 4287859046
-0.15285499 0.16039599 0.54400003 4287859044
-0.151109 0.16010199 0.54299998 4287990630
-0.14992 0.16039699 0.54400003 4288122216
-0.148452 0.16039801 0.54400003 4288056423
-0.147255 0.160694 0.54500002 4288122218
-0.14632 0.161285 0.54699999 4287792998
-0.14484499 0.161286 0.54699999 4288253804
-0.14363199 0.16158199 0.54799998 4288056423
-0.14215399 0.161584 0.54799998 4287924839
-0.14067701 0.161585 0.54799998 4288056423
-0.138945 0.161292 0.54699999 4287859044
-0.13747001 0.161294 0.54699999 4287859046
-0.135996 0.161296 0.54699999 4287990632
-0.134275 0.16100299 0.546 4288121961
-0.13256 0.16071101 0.54500002 4287792998
-0.131091 0.160713 0.54500002 4287727205
-0.129622 0.160715 0.54500002 4287859046
-0.128153 0.16071799 0.54500002 4287924582
-0.126683 0.16072001 0.54500002 4287924580
-0.12544399 0.161018 0.546 4287792994
-0.124199 0.16131601 0.54699999 4287924582
-0.122949 0.161613 0.54799998 4288121961
-0.121472 0.161616 0.54799998 4287924582
-0.119776 0.16132399 0.54699999 4287858791
-0.117869 0.16073699 0.54500002 4287924584
-0.116614 0.161035 0.546 4287989872
-0.115353 0.16133399 0.54699999 4287858538
-0.114086 0.161632 0.54799998 4287990120
-0.112404 0.16134 0.54699999 4287792996
-0.111132 0.16163801 0.54799998 4287792994
-0.109255 0.161052 0.546 4287924833
-0.107585 0.16076 0.54500002 4288187499
-0.106116 0.16076399 0.54500002 4287858286
-0.105223 0.161652 0.54799998 4287990124
-0.103935 0.16195001 0.54900002 4287924327
-0.102454 0.161954 0.54900002 4288187754
-0.100974 0.16195799 0.54900002 4288056168
-0.0993127 0.16166601 0.54799998 4288121959
-0.097835101 0.16167 0.54799998 4287990375
-0.096357398 0.16167299 0.54799998 4287990630
-0.094879702 0.161677 0.54799998 4287924580
-0.093572304 0.16197599 0.54900002 4287924579
-0.092259496 0.162274 0.55000001 4288056165
-0.090776198 0.162278 0.55000001 4287990885
-0.089130402 0.16198701 0.54900002 4288056676
-0.08749 0.161695 0.54799998 4288188005
-0.085854903 0.161404 0.54699999 4287990626
-0.084687904 0.161998 0.54900002 4288055651
-0.083206996 0.162001 0.54900002 4287924579
-0.082023598 0.162595 0.551 4287924579
-0.080244802 0.162008 0.54900002 4287990372
-0.078907102 0.16230699 0.55000001 4287530079
-0.077423103 0.162311 0.55000001 4287727458
-0.075939 0.162314 0.55000001 4287727458
-0.074454904 0.16231801 0.55000001 4287727460
-0.073103398 0.162616 0.551 4287924584
-0.071746401 0.16291501 0.55199999 4287727203
-0.070383899 0.163214 0.55299997 4287858787
-0.068766803 0.16292199 0.55199999 4287990372
-0.067155004 0.16263001 0.551 4287858786
-0.065667696 0.162633 0.551 4287661407
-0.064413302 0.16322701 0.55299997 4287529822
-0.062920503 0.16323 0.55299997 4287200859
-0.061427601 0.163233 0.55299997 4287003225
-0.060043 0.163532 0.55400002 4287464031
-0.058547199 0.163535 0.55400002 4287266649
-0.057154302 0.16383301 0.55500001 4287792479
-0.0555554 0.163541 0.55400002 4287727201
-0.054059401 0.163544 0.55400002 4287727203
-0.052468501 0.163251 0.55299997 4288187501
-0.050975099 0.16325399 0.55299997 4288516466
-0.0494815 0.163257 0.55299997 4286937689
-0.047901198 0.162964 0.55199999 4288253804
-0.0465784 0.16355699 0.55400002 4288122216
-0.0451634 0.163855 0.55500001 4288319597
-0.043664198 0.163858 0.55500001 4288780148
-0.042165 0.16385999 0.55500001 4288714616
-0.040592398 0.16356701 0.55400002 4288780410
-0.0390957 0.16357 0.55400002 4288517752
-0.037599001 0.163572 0.55400002 4288583030
-0.036102202 0.163574 0.55400002 4288583030
-0.034605399 0.16357601 0.55400002 4288450928
-0.033108499 0.163578 0.55400002 4288582769
-0.0316686 0.163875 0.55500001 4288385390
-0.030223301 0.16417199 0.55599999 4288582769
-0.0287209 0.16417401 0.55599999 4288714355
-0.0272184 0.164176 0.55599999 4288649076
-0.0257621 0.164472 0.55699998 4288451444
-0.024256799 0.164474 0.55699998 4288583030
-0.0227107 0.16418 0.55599999 4288320373
-0.021169901 0.163886 0.55500001 4288649338
-0.0196699 0.16388699 0.55500001 4288715131
-0.018202599 0.164184 0.55599999 4287991408
-0.016699901 0.164185 0.55599999 4288451442
-0.0151698 0.16389 0.55500001 4288253549
-0.0136697 0.163891 0.55500001 4288648307
-0.0121696 0.163892 0.55500001 4288582514
-0.0106887 0.164188 0.55599999 4288714100
-0.0091858199 0.164189 0.55599999 4288320111
-0.0076691299 0.163894 0.55500001 4288385904
-0.0061689499 0.163894 0.55500001 4288517488
-0.0046771802 0.16418999 0.55599999 4288516974
-0.00317999 0.16448499 0.55699998 4288122471
-0.00168039 0.165076 0.55900002 4288122471
-0.000169372 0.165076 0.55900002 4286543178
0.00133925 0.164781 0.55800003 4286872143
0.00284756 0.164781 0.55800003 4286872143
0.0043558702 0.164781 0.55800003 4287200594
0.0058536599 0.16448499 0.55699998 4287266387
0.0073724599 0.16478001 0.55800003 4287069010
0.00886482 0.16448399 0.55699998 4287397975
0.0103704 0.16448399 0.55699998 4287398235
0.0118546 0.164188 0.55599999 4287003477
0.0134055 0.164777 0.55800003 4288319337
0.0149137 0.164777 0.55800003 4287135317
0.016451299 0.165071 0.55900002 4287990885
0.0179621 0.16507 0.55900002 4287595872
0.019472999 0.165069 0.55900002 4288056423
0.0209087 0.16447701 0.55699998 4287332702
0.022454301 0.16477101 0.55800003 4287398240
0.0239623 0.16477001 0.55800003 4287792998
0.0254703 0.164768 0.55800003 4288385388
0.0269299 0.164471 0.55699998 4288319850
0.028486099 0.164765 0.55800003 4287661920
0.0300477 0.165058 0.55900002 4286806611
0.0315018 0.16476101 0.55800003 4286411598
0.033009499 0.164759 0.55800003 4287201114
0.034517199 0.164757 0.55800003 4287925092
0.036089499 0.165051 0.55900002 4288319848
0.037599798 0.165049 0.55900002 4287925344
0.039039999 0.16475099 0.55800003 4287662172
0.040547501 0.164749 0.55800003 4287793506
0.042054899 0.164746 0.55800003 4287332955
0.043640401 0.165039 0.55900002 4287727713
0.045069601 0.16474199 0.55800003 4287398495
0.0464934 0.164444 0.55699998 4287004766
0.047997799 0.164441 0.55699998 4286148690
0.049591102 0.16473401 0.55800003 4283650612
0.0513728 0.165617 0.56099999 4283189834
0.052699301 0.165023 0.55900002 4285097831
0.054111999 0.16472501 0.55800003 4288322172
0.0557184 0.16501699 0.55900002 4287861103
0.057125501 0.164719 0.55800003 4287925353
0.058632199 0.16471601 0.55800003 4288056423
0.059923202 0.164123 0.55599999 4288056425
0.0615348 0.164415 0.55699998 4288253804
0.062925398 0.164116 0.55599999 4288122218
0.064426303 0.164113 0.55599999 4287792998
0.065808602 0.16381501 0.55500001 4287859046
0.067306697 0.163811 0.55500001 4288188011
0.0686808 0.163513 0.55400002 4288122730
0.070302702 0.16380499 0.55500001 4288188009
0.071671203 0.163506 0.55400002 4288056423
0.073166303 0.16350301 0.55400002 4288122216
0.0746613 0.163499 0.55400002 4287727458
0.076431103 0.164086 0.55599999 4287990632
0.078071602 0.164377 0.55699998 4287793253
0.079717301 0.16466901 0.55800003 4287661926
0.081077203 0.16437 0.55699998 4287661926
0.082431696 0.16407099 0.55599999 4287990891
0.083478801 0.16318201 0.55299997 4288188270
0.085124202 0.16347399 0.55400002 4288253804
0.086618602 0.16347 0.55400002 4288188009
0.088271998 0.163761 0.55500001 4287793253
0.089607202 0.163463 0.55400002 4287990632
0.091265798 0.163754 0.55500001 4287793512
0.092929803 0.16404501 0.55599999 4288056687
0.094259404 0.163747 0.55500001 4287794029
0.095583603 0.16344801 0.55400002 4288057201
0.097077496 0.163444 0.55400002 4287925875
0.098571397 0.163441 0.55400002 4287136613
0.100065 0.16343699 0.55400002 4287728750
0.101376 0.163138 0.55299997 4287991408
0.102867 0.16313501 0.55299997 4287268199
0.104358 0.163131 0.55299997 4287530856
0.10604 0.163423 0.55400002 4287333991
0.107534 0.16341899 0.55400002 4287531370
0.109027 0.163416 0.55400002 4287597163
0.110321 0.16311701 0.55299997 4287729003
0.111812 0.163114 0.55299997 4287860335
0.113302 0.16311 0.55299997 4287991921
0.114793 0.16310699 0.55299997 4288057715
0.116494 0.163399 0.55400002 4287926128
0.117987 0.163396 0.55400002 4287991922
0.119265 0.16309801 0.55299997 4287860336
0.120537 0.1628 0.55199999 4287860336
0.122025 0.162797 0.55199999 4288057715
0.123289 0.162499 0.551 4287860336
0.124775 0.162496 0.551 4287662443
0.126031 0.16219801 0.55000001 4287728236
0.127745 0.16249 0.551 4287662443
0.129465 0.162783 0.55199999 4287728235
0.130953 0.16278 0.55199999 4287728235
0.132921 0.163367 0.55400002 4287925614
0.13417201 0.16306999 0.55299997 4288057714
0.135662 0.163068 0.55299997 4287992175
0.136905 0.162771 0.55199999 4288123761
0.138393 0.162769 0.55199999 4287794796
0.139882 0.16276699 0.55199999 4287992175
0.14137 0.162765 0.55199999 4287926382
0.1426 0.162469 0.551 4288057715
0.144347 0.162762 0.55199999 4288123508
0.145835 0.16276 0.55199999 4287860336
0.14785799 0.163349 0.55400002 4287991922
0.149352 0.163348 0.55400002 4287728749
0.150846 0.16334701 0.55400002 4287926382
0.15206499 0.16305099 0.55299997 4288057454
0.153835 0.16334499 0.55400002 4287662957
0.155049 0.16305 0.55299997 4287465578
0.156258 0.162754 0.55199999 4287793775
0.157748 0.162754 0.55199999 4287794289
0.15952601 0.163049 0.55299997 4287925875
0.16072699 0.162754 0.55199999 4287926129
0.16221701 0.162754 0.55199999 4287795057
0.163707 0.162755 0.55199999 4287860850
0.165497 0.16305 0.55299997 4287861103
0.16668899 0.162756 0.55199999 4287926382
0.16817901 0.16275699 0.55199999 4287992175
0.16967 0.16275799 0.55199999 4287925614
0.171472 0.163055 0.55299997 4287860336
0.172653 0.162762 0.55199999 4287794289
0.174145 0.162763 0.55199999 4287400299
0.17563701 0.16276599 0.55199999 4287137129
0.17713 0.16276801 0.55199999 4287267945
0.17862201 0.16277 0.55199999 4287728750
0.18044201 0.163068 0.55299997 4287794543
0.182267 0.163366 0.55400002 4287531887
0.18343399 0.163074 0.55299997 4287860852
0.184596 0.162783 0.55199999 4287795057
0.18609101 0.16278701 0.55199999 4287466606
0.187925 0.163086 0.55299997 4287729264
0.190108 0.16368 0.55500001 4287795057
0.19161201 0.163684 0.55500001 4287729778
0.19276799 0.163394 0.55400002 4287663985
0.193919 0.163105 0.55299997 4287663726
0.195418 0.16311 0.55299997 4287664238
0.19656201 0.16282099 0.55199999 4287729517
0.19806001 0.162827 0.55199999 4287926896
0.199196 0.16253801 0.551 4287730033
0.201057 0.16283999 0.55199999 4287927412
0.202189 0.162552 0.551 4287663985
0.20442501 0.163149 0.55299997 4287729778
0.205928 0.163157 0.55299997 4287729778
0.207807 0.16346 0.55400002 4287598192
0.20855799 0.16287801 0.55199999 4288058482
0.210821 0.163477 0.55400002 4287860589
0.211946 0.16319101 0.55299997 4287729517
0.213452 0.16320001 0.55299997 4287860335
0.21457 0.16291501 0.55199999 4287926898
0.216075 0.162925 0.55199999 4287860850
0.21758001 0.162935 0.55199999 4287663985
0.219483 0.163241 0.55299997 4287927412
0.22139201 0.16354799 0.55400002 4287795826
0.223307 0.163854 0.55500001 4287795824
0.224419 0.163571 0.55400002 4287861872
0.22552501 0.163289 0.55299997 4287796079
0.227448 0.163597 0.55400002 4287795824
0.228964 0.16361 0.55400002 4287598445
0.230481 0.163624 0.55400002 4287795310
0.23199899 0.163638 0.55400002 4287795310
0.233518 0.163653 0.55400002 4287927410
0.235038 0.16366801 0.55400002 4287664238
0.236131 0.163388 0.55299997 4287861619
0.23722 0.16310801 0.55199999 4287532656
0.238737 0.16312499 0.55199999 4287729778
0.240255 0.163141 0.55199999 4287861364
0.242212 0.163454 0.55299997 4287795571
0.244176 0.16376799 0.55400002 4287861621
0.245702 0.16378599 0.55400002 4287861876
0.24722999 0.16380499 0.55400002 4287663985
0.249208 0.16412 0.55500001 4287532399
0.250741 0.16414 0.55500001 4287795057
0.25182 0.163865 0.55400002 4287333477
0.252895 0.16359 0.55299997 4287202145
0.254886 0.163908 0.55400002 4287399524
0.25688401 0.164226 0.55500001 4287465830
0.258423 0.164248 0.55500001 4287663209
0.25996301 0.164272 0.55500001 4287532654
0.26150501 0.164296 0.55500001 4287532656
0.26304799 0.16432001 0.55500001 4287861621
0.26506901 0.16464099 0.55599999 4287401070
0.26661801 0.164667 0.55599999 4287532399
0.26768601 0.164397 0.55500001 4287860850
0.268749 0.16412801 0.55400002 4287598192
0.26980901 0.16385899 0.55299997 4287400554
0.271846 0.16418301 0.55400002 4287269227
0.27388999 0.164508 0.55500001 4287268968
0.275942 0.16483399 0.55599999 4287268966
0.27750099 0.164864 0.55599999 4287202658
0.27956399 0.16519199 0.55699998 4287202912
0.28062499 0.16492701 0.55599999 4287597153
0.28168201 0.164662 0.55500001 4287663200
0.28222501 0.164101 0.55299997 4287597923
0.284298 0.164432 0.55400002 4287663462
0.28586301 0.16446599 0.55400002 4287926381
0.28794801 0.16479801 0.55500001 4287729519
0.28951901 0.16483299 0.55500001 4287795057
0.29109201 0.16486999 0.55500001 4287400813
0.29266801 0.16490699 0.55500001 4287532399
0.294245 0.16494501 0.55500001 4287401070
0.29529101 0.16468599 0.55400002 4287992436
0.29686999 0.164726 0.55400002 4287926128
0.298989 0.16506401 0.55500001 4287531110
0.30057499 0.165105 0.55500001 4287399007
0.30161899 0.164849 0.55400002 4286872656
0.302659 0.16459399 0.55299997 4286938449
0.30424601 0.164638 0.55299997 4287267413
0.30583501 0.164682 0.55299997 4286741320
0.30798301 0.165025 0.55400002 4286872656
0.30958 0.165071 0.55400002 4287398240
0.31117901 0.16511799 0.55400002 4287267162
0.31278199 0.16516601 0.55400002 4287070042
0.315521 0.165811 0.55599999 4287136090
0.31713399 0.165861 0.55599999 4287136342
0.31932399 0.16621099 0.55699998 4286806872
0.32036901 0.16596401 0.55599999 4286411598
0.32141101 0.165718 0.55500001 4286873423
0.323033 0.16577201 0.55500001 4287333720
0.32524201 0.166125 0.55599999 4287531614
0.32804799 0.166779 0.55800003 4287663462
0.329687 0.16683599 0.55800003 4287136865
0.33073601 0.166595 0.55699998 4287136866
0.33178201 0.166354 0.55599999 4287268713
0.33282501 0.166115 0.55500001 4287268198
0.33386499 0.165876 0.55400002 4287268452
0.33550799 0.165938 0.55400002 4287267938
0.336546 0.165701 0.55299997 4287202398
0.338193 0.165765 0.55299997 4287333216
0.338615 0.165231 0.551 4286610007
0.342116 0.166197 0.55400002 4286018385
0.34563801 0.167164 0.55699998 4285294408
0.34855801 0.167834 0.55900002 4284703300
0.348988 0.167303 0.55699998 4285427280
0.350669 0.167375 0.55699998 4285690454
0.351722 0.167147 0.55599999 4286940521
0.35467899 0.167822 0.55800003 4287532919
0.35637501 0.167897 0.55800003 4287467128
0.35807401 0.167974 0.55800003 4287532407
0.35913399 0.16775 0.55699998 4287861372
0.36083901 0.16782901 0.55699998 4287466612
0.36254901 0.16790999 0.55699998 4287597940
0.36360899 0.16768999 0.55599999 4287730037
0.36532399 0.16777299 0.55599999 4287532656
0.367044 0.16785701 0.55599999 4287466863
0.36876899 0.167943 0.55599999 4287532660
0.370498 0.16802999 0.55599999 4287335020
0.37290201 0.168421 0.55699998 4287335275
0.37464401 0.168511 0.55699998 4287269227
0.37571499 0.1683 0.55599999 4287597931
0.37678501 0.16809 0.55500001 4287268713
0.37921801 0.168487 0.55599999 4287071334
0.380977 0.16858301 0.55599999 4287136612
0.38343 0.168984 0.55699998 4287202405
0.38589501 0.169387 0.55800003 4287005532
0.38698199 0.169185 0.55699998 4287071326
0.388767 0.169287 0.55699998 4286940001
0.38985601 0.16908801 0.55599999 4286677345
-0.19921 0.158429 0.542 4288320373
-0.19773801 0.15842199 0.542 4288254326
-0.196266 0.158416 0.542 4287925622
-0.194796 0.15841 0.542 4287991417
-0.193325 0.15840399 0.542 4287991417
-0.191855 0.158399 0.542 4287728243
-0.190386 0.15839399 0.542 4288057201
-0.188568 0.158097 0.54100001 4288057201
-0.187794 0.158677 0.54299998 4287991408
-0.186666 0.15896399 0.54400003 4287991408
-0.185193 0.15896 0.54400003 4287991408
-0.183045 0.158372 0.542 4287925101
-0.181577 0.158369 0.542 4287794029
-0.17977799 0.15807299 0.54100001 4287991408
-0.178644 0.158362 0.542 4288122994
-0.176851 0.158067 0.54100001 4288122993
-0.17538799 0.15806501 0.54100001 4287859821
-0.173925 0.15806299 0.54100001 4287728235
-0.172782 0.158353 0.542 4287859308
-0.171317 0.158351 0.542 4287859308
-0.169852 0.15834901 0.542 4287925361
-0.16807701 0.15805499 0.54100001 4287925361
-0.16661599 0.15805399 0.54100001 4287793777
-0.165765 0.158637 0.54299998 4287727984
-0.164601 0.15892901 0.54400003 4288122226
-0.16283201 0.158636 0.54299998 4288056433
-0.161367 0.15863501 0.54299998 4287727722
-0.15990099 0.15863501 0.54299998 4287925101
-0.15901899 0.159219 0.54500002 4287990893
-0.157259 0.15892699 0.54400003 4287727722
-0.155504 0.15863501 0.54299998 4287859307
-0.15375599 0.158343 0.542 4287990891
-0.15285499 0.15892801 0.54400003 4287990632
-0.15110999 0.158637 0.54299998 4287464547
-0.149645 0.158638 0.54299998 4287727719
-0.147907 0.158346 0.542 4287990377
-0.14698599 0.158932 0.54400003 4288056170
-0.145786 0.159225 0.54500002 4287661414
-0.144317 0.159227 0.54500002 4287924584
-0.142847 0.159228 0.54500002 4287990377
-0.141378 0.15922999 0.54500002 4287858791
-0.140165 0.15952399 0.546 4287858791
-0.138439 0.159234 0.54500002 4287859046
-0.136718 0.158943 0.54400003 4287792998
-0.135003 0.15865301 0.54299998 4287595619
-0.133294 0.158363 0.542 4288056170
-0.132076 0.158658 0.54299998 4287792745
-0.130612 0.15865999 0.54299998 4288253296
-0.12962399 0.159247 0.54500002 4288187758
-0.12815499 0.15925001 0.54500002 4288056172
-0.126919 0.159545 0.546 4288187758
-0.12544701 0.159548 0.546 4287924839
-0.124202 0.159843 0.54699999 4288122218
-0.122952 0.160138 0.54799998 4288056168
-0.121697 0.16043299 0.54900002 4288122218
-0.119779 0.159852 0.54699999 4287661414
-0.118089 0.159563 0.546 4288055917
-0.116403 0.159274 0.54500002 4288056172
-0.114934 0.15927701 0.54500002 4288056172
-0.113673 0.15957201 0.546 4287990120
-0.112202 0.159576 0.546 4288056168
-0.11073 0.15957899 0.546 4288187754
-0.108858 0.158998 0.54400003 4288055913
-0.107194 0.158709 0.54299998 4287990120
-0.10573 0.158713 0.54299998 4287793000
-0.10465 0.159301 0.54500002 4287924329
-0.10337 0.15959699 0.546 4287924329
-0.101898 0.1596 0.546 4288055913
-0.10061 0.159896 0.54699999 4287924584
-0.099135101 0.15989999 0.54699999 4287924584
-0.098017298 0.16048799 0.54900002 4287990632
-0.0961852 0.159907 0.54699999 4287727460
-0.0948833 0.16020299 0.54799998 4287793253
-0.0934055 0.160207 0.54799998 4287990630
-0.092095397 0.160503 0.54900002 4287793251
-0.090614803 0.16050699 0.54900002 4287925092
-0.088971801 0.160218 0.54799998 4287925090
-0.087334 0.15993001 0.54699999 4287793245
-0.085858598 0.159933 0.54699999 4287793245
-0.084691599 0.160522 0.54900002 4288056419
-0.083362199 0.160818 0.55000001 4287924833
-0.081878401 0.16082101 0.55000001 4287727200
-0.080102198 0.16023999 0.54799998 4287792993
-0.078767203 0.16053601 0.54900002 4287727460
-0.077285901 0.16054 0.54900002 4287595874
-0.075804502 0.16054399 0.54900002 4287859046
-0.074187703 0.160255 0.54799998 4288056168
-0.072841503 0.160551 0.54900002 4287726948
-0.0714899 0.16084699 0.55000001 4287727203
-0.070005499 0.16085 0.55000001 4287858787
-0.068396501 0.160561 0.54900002 4287792993
-0.066792697 0.160272 0.54799998 4287924579
-0.065313503 0.160275 0.54799998 4287595614
-0.0640672 0.160864 0.55000001 4287661408
-0.062696204 0.16115899 0.551 4287464031
-0.061097499 0.16087 0.55000001 4287464031
-0.0597209 0.161166 0.551 4287332443
-0.058233202 0.16116901 0.551 4287529821
-0.0569514 0.16175701 0.55299997 4287661407
-0.055357799 0.161468 0.55199999 4287529821
-0.053867199 0.16147 0.55199999 4287661407
-0.052281599 0.161181 0.551 4287990375
-0.050793499 0.161184 0.551 4288056425
-0.049305301 0.16118599 0.551 4286872151
-0.0478171 0.161189 0.551 4288188009
-0.0464128 0.161484 0.55199999 4288319595
-0.045003202 0.161779 0.55299997 4288648560
-0.043509301 0.161782 0.55299997 4288517490
-0.0420154 0.16178399 0.55299997 4288780409
-0.040521398 0.161787 0.55299997 4288517752
-0.0390274 0.161789 0.55299997 4288517752
-0.037533302 0.161791 0.55299997 4288583545
-0.036039099 0.16179401 0.55299997 4288451445
-0.034482501 0.161503 0.55199999 4288385651
-0.033110399 0.16209 0.55400002 4288582767
-0.031613398 0.162092 0.55400002 4288385388
-0.0302251 0.162679 0.55599999 4288451695
-0.0286709 0.162388 0.55500001 4288715122
-0.027171001 0.16238999 0.55500001 4288583536
-0.0256711 0.16239101 0.55500001 4288254316
-0.0241712 0.162393 0.55500001 4288451697
-0.0226303 0.162102 0.55400002 4288385649
-0.021133 0.162103 0.55400002 4288977789
-0.0196002 0.16181201 0.55299997 4288583545
-0.018138301 0.16210601 0.55400002 4288057201
-0.016640799 0.16210701 0.55400002 4288648823
-0.0151707 0.16240001 0.55500001 4288188272
-0.0136459 0.162108 0.55400002 4288582261
-0.0121484 0.162109 0.55400002 4288450675
-0.0106317 0.161817 0.55299997 4288385135
-0.00915334 0.162111 0.55400002 4288056939
-0.0076419599 0.161818 0.55299997 4288320109
-0.0061471001 0.161819 0.55299997 4288320364
-0.0046606399 0.162112 0.55400002 4288517229
-0.0031687601 0.162405 0.55500001 4287990885
-0.00167448 0.16299 0.55699998 4287464541
-0.00016877599 0.16299 0.55699998 4286477387
0.00133453 0.162697 0.55599999 4286806352
0.0028324199 0.162405 0.55500001 4287464028
0.0043249102 0.162112 0.55400002 4287529561
0.0058329999 0.162404 0.55500001 4287200856
0.0073464802 0.162696 0.55599999 4286937684
0.0088653602 0.16298901 0.55699998 4287201110
0.0103524 0.16269501 0.55599999 4287069524
0.011834 0.162402 0.55500001 4287201110
0.0133582 0.16269401 0.55599999 4288319591
0.0148611 0.16269299 0.55599999 4287332696
0.016393401 0.162985 0.55699998 4287661661
0.017898999 0.162984 0.55699998 4288254057
0.019404501 0.162982 0.55699998 4288253802
0.0209099 0.162981 0.55699998 4287530079
0.022375099 0.162687 0.55599999 4287201116
0.0238779 0.16268601 0.55599999 4288056425
0.0253805 0.16268399 0.55599999 4288253802
0.0269315 0.162975 0.55699998 4288254057
0.0284368 0.162974 0.55699998 4287859299
0.030049499 0.16355699 0.55900002 4287464029
0.031447198 0.16297001 0.55699998 4286411600
0.032952301 0.16296799 0.55699998 4286937944
0.0345193 0.163259 0.55800003 4287990632
0.0360916 0.16354901 0.55900002 4288254055
0.037601899 0.16354699 0.55900002 4288188516
0.039042301 0.163252 0.55800003 4287793758
0.0405498 0.16325 0.55800003 4287990883
0.042057302 0.163248 0.55800003 4287332700
0.0436428 0.16353799 0.55900002 4287398493
0.0449914 0.16294999 0.55699998 4287464035
0.046412501 0.162655 0.55599999 4286872918
0.047828101 0.16236 0.55500001 4286347611
0.049593799 0.16323499 0.55800003 4283321147
0.051284101 0.163817 0.56 4282731088
0.052607901 0.163229 0.55800003 4285229931
0.054017901 0.16293401 0.55699998 4287730035
0.055522099 0.162931 0.55699998 4287992436
0.0570262 0.162928 0.55699998 4288056939
0.058425099 0.162632 0.55599999 4287793767
0.059926301 0.16262899 0.55599999 4287924584
0.0614275 0.162626 0.55599999 4287990377
0.062928602 0.162623 0.55599999 4287990377
0.064197801 0.162034 0.55400002 4288056170
0.065811902 0.162323 0.55500001 4287661926
0.067310102 0.16232 0.55500001 4288056939
0.068808101 0.16231699 0.55500001 4287991146
0.070179403 0.162021 0.55400002 4288056939
0.071545303 0.161725 0.55299997 4288056678
0.073037699 0.16172101 0.55299997 4287925092
0.074664801 0.16201 0.55400002 4287990883
0.076159798 0.162007 0.55400002 4287727713
0.077935003 0.162588 0.55599999 4287596127
0.079435199 0.16258401 0.55599999 4287595872
0.081080899 0.162873 0.55699998 4287793251
0.082138903 0.161992 0.55400002 4288056425
0.083482496 0.161696 0.55299997 4288122218
0.084974296 0.16169199 0.55299997 4287924839
0.086622298 0.161981 0.55400002 4287924837
0.088116698 0.16197699 0.55400002 4287859046
0.0892874 0.16138899 0.55199999 4287924584
0.090940699 0.161677 0.55299997 4287661928
0.092599303 0.161966 0.55400002 4287661928
0.0940933 0.161962 0.55400002 4287794029
0.095587298 0.16195799 0.55400002 4287925615
0.096905999 0.161662 0.55299997 4287662443
0.0985751 0.16195101 0.55400002 4287201892
0.099888302 0.16165499 0.55299997 4287661929
0.101563 0.161943 0.55400002 4287727722
0.10287 0.16164701 0.55299997 4287398756
0.10455 0.161936 0.55400002 4287464802
0.105852 0.16164 0.55299997 4287464802
0.107537 0.161929 0.55400002 4287267938
0.108834 0.161633 0.55299997 4287860075
0.110324 0.16162901 0.55299997 4287990891
0.111411 0.16104101 0.551 4287794028
0.113306 0.161622 0.55299997 4287728236
0.114589 0.161327 0.55199999 4287991408
0.116497 0.161908 0.55400002 4288188787
0.117565 0.16132 0.55199999 4287926128
0.119268 0.16160899 0.55299997 4288123247
0.120322 0.16102099 0.551 4287991144
0.122249 0.161603 0.55299997 4288122730
0.123516 0.16130701 0.55199999 4287727460
0.12523 0.161597 0.55299997 4287727460
0.12649199 0.161301 0.55199999 4287661412
0.12797999 0.16129901 0.55199999 4287727205
0.12946799 0.161296 0.55199999 4287661926
0.13095599 0.161293 0.55199999 4287925100
0.132443 0.161291 0.55199999 4288056686
0.134174 0.16158 0.55299997 4287925868
0.135419 0.161286 0.55199999 4287925867
0.136659 0.160991 0.551 4288122732
0.138145 0.160989 0.551 4288122732
0.139884 0.16127899 0.55199999 4288122477
0.14111599 0.16098499 0.551 4287991407
0.142601 0.160983 0.551 4288057201
0.144087 0.160982 0.551 4287925615
0.146101 0.16156401 0.55299997 4287991408
0.14812601 0.162147 0.55500001 4287859822
0.149353 0.161854 0.55400002 4287596649
0.150575 0.16156 0.55299997 4287596903
0.15179101 0.161267 0.55199999 4287860075
0.15328 0.161266 0.55199999 4287530857
0.154769 0.161266 0.55199999 4287530857
0.155976 0.160973 0.551 4287794029
0.157462 0.160972 0.551 4287925615
0.159237 0.161264 0.55199999 4287925615
0.16072699 0.161264 0.55199999 4287662443
0.16251101 0.16155601 0.55299997 4287794542
0.163707 0.161265 0.55199999 4287992691
0.165197 0.161265 0.55199999 4287663724
0.16638599 0.160973 0.551 4287663726
0.167569 0.16068199 0.55000001 4287926128
0.169054 0.16068301 0.55000001 4287926129
0.17054 0.160684 0.55000001 4287991922
0.17233901 0.160978 0.551 4287596910
0.17382801 0.16098 0.551 4287334506
0.174999 0.160689 0.55000001 4286939748
0.176806 0.16098399 0.551 4287860336
0.178296 0.16098601 0.551 4287728750
0.180439 0.16157299 0.55299997 4287333991
0.182264 0.16186801 0.55400002 4287400299
0.183762 0.161871 0.55400002 4287794543
0.184927 0.16158199 0.55299997 4287597678
0.186424 0.161586 0.55299997 4287335020
0.187581 0.16129699 0.55199999 4287531885
0.18907601 0.161301 0.55199999 4287860850
0.190917 0.161598 0.55299997 4287663471
0.192415 0.16160201 0.55299997 4287597678
0.193563 0.16131499 0.55199999 4287728749
0.195059 0.16132 0.55199999 4287663724
0.196556 0.16132601 0.55199999 4287992174
0.198413 0.161624 0.55299997 4287729002
0.199913 0.16163 0.55299997 4287466344
0.201414 0.16163599 0.55299997 4287597931
0.202916 0.161643 0.55299997 4287466606
0.204418 0.16165 0.55299997 4287795571
0.20592099 0.16165701 0.55299997 4287663985
0.207799 0.161957 0.55400002 4287729519
0.209305 0.161965 0.55400002 4287663724
0.211193 0.162266 0.55500001 4287663209
0.21232 0.161982 0.55400002 4287860589
0.213443 0.161699 0.55299997 4287794796
0.21456 0.16141599 0.55199999 4287991922
0.216065 0.16142599 0.55199999 4287860850
0.21796399 0.16172799 0.55299997 4287729778
0.21947201 0.16173901 0.55299997 4287466861
0.220981 0.16175 0.55299997 4287927410
0.222893 0.162054 0.55400002 4287466859
0.224811 0.162358 0.55500001 4287730286
0.22592001 0.16207699 0.55400002 4287729516
0.22743499 0.16209 0.55400002 4287532137
0.22853801 0.16181 0.55299997 4287926895
0.23005199 0.161824 0.55299997 4287663723
0.231566 0.161837 0.55299997 4287794795
0.233082 0.161852 0.55299997 4287531623
0.234598 0.16186599 0.55299997 4287926382
0.23611601 0.161881 0.55299997 4287926381
0.237204 0.161604 0.55199999 4287729517
0.238721 0.16162001 0.55199999 4287926896
0.239803 0.16134401 0.551 4287861103
0.24175701 0.161654 0.55199999 4287730033
0.243276 0.161671 0.55199999 4287927412
0.24524 0.161982 0.55299997 4287730290
0.246765 0.162 0.55299997 4287532656
0.24874 0.162312 0.55400002 4287400813
0.250269 0.162332 0.55400002 4287729264
0.2518 0.162352 0.55400002 4287531371
0.25287399 0.16207901 0.55299997 4287332963
0.25486499 0.162394 0.55400002 4287530595
0.25639901 0.162415 0.55400002 4287530595
0.25886601 0.16302399 0.55599999 4288123246
0.25947201 0.16246 0.55400002 4287663724
0.26100999 0.16248401 0.55400002 4287795571
0.26255 0.162507 0.55400002 4287861364
0.26456699 0.162825 0.55500001 4287598192
0.266592 0.16314401 0.55599999 4287795057
0.26814201 0.16316999 0.55599999 4287729264
0.26920801 0.162903 0.55500001 4287663985
0.27075699 0.162929 0.55500001 4287203689
0.27230799 0.162957 0.55500001 4287269227
0.27484801 0.163573 0.55699998 4287268968
0.27690399 0.163895 0.55800003 4287268966
0.27796999 0.16363101 0.55699998 4287465830
0.27903101 0.163368 0.55599999 4287268705
0.27958399 0.162811 0.55400002 4287860325
0.28114301 0.16284201 0.55400002 4288123497
0.28270301 0.162874 0.55400002 4287926888
0.28426501 0.162907 0.55400002 4287597670
0.28582901 0.16294099 0.55400002 4287663723
0.28791299 0.163269 0.55500001 4287861103
0.290005 0.163599 0.55599999 4287663724
0.29157999 0.163634 0.55599999 4287664238
0.29262999 0.163377 0.55500001 4287335273
0.293677 0.16312 0.55400002 4287532652
0.29471901 0.162863 0.55299997 4287663726
0.296294 0.162902 0.55299997 4287991921
0.29841 0.16323601 0.55400002 4287465316
0.299992 0.163276 0.55400002 4287530593
0.301577 0.16331699 0.55400002 4287135828
0.302616 0.163065 0.55299997 4286938952
0.30420199 0.16310699 0.55299997 4287332949
0.30579099 0.163151 0.55299997 4287070035
0.30738199 0.163195 0.55299997 4287267160
0.30841601 0.162945 0.55199999 4287333207
0.31113201 0.163582 0.55400002 4287399260
0.31329799 0.16392501 0.55500001 4287333467
0.31547201 0.164268 0.55599999 4287202135
0.31708401 0.164317 0.55599999 4286873423
0.318699 0.16436701 0.55599999 4286873170
0.320317 0.164418 0.55599999 4286412365
0.32135901 0.16417401 0.55500001 4287202395
0.322979 0.16422699 0.55500001 4287136602
0.32577199 0.164873 0.55699998 4287202911
0.32799199 0.165224 0.55800003 4287203172
0.330221 0.165576 0.55900002 4287202659
0.33067799 0.165041 0.55699998 4287268198
0.331723 0.164802 0.55599999 4287202405
0.332165 0.164268 0.55400002 4287005026
0.33380401 0.16432799 0.55400002 4287268451
0.33484101 0.164092 0.55299997 4287202144
0.33709201 0.164451 0.55400002 4287136605
0.33813 0.164217 0.55299997 4287005019
0.33855 0.16368701 0.551 4286939225
0.34081501 0.164049 0.55199999 4286544467
0.34494999 0.16530401 0.55599999 4285558086
0.34848899 0.166264 0.55900002 4284505659
0.349545 0.16603599 0.55800003 4285098568
0.349969 0.165511 0.55599999 4285559121
0.351017 0.16528501 0.55500001 4286612324
0.35333401 0.165655 0.55599999 4287401588
0.35438401 0.16543099 0.55500001 4287796607
0.35607299 0.16550601 0.55500001 4287730300
0.35776699 0.165582 0.55500001 4287795579
0.36011201 0.165958 0.55599999 4287663993
0.36181799 0.16603699 0.55599999 4287663993
0.36287299 0.165819 0.55500001 4287730300
0.364584 0.16590001 0.55500001 4287796091
0.36629999 0.16598301 0.55500001 4287532919
0.36802 0.166067 0.55500001 4287664505
0.36974499 0.166153 0.55500001 4287532660
0.37214401 0.16654 0.55599999 4287203693
0.373209 0.166329 0.55500001 4287532401
0.37494799 0.166419 0.55500001 4287334761
0.376692 0.16651 0.55500001 4287269227
0.37912399 0.166903 0.55599999 4287071848
0.38088101 0.166998 0.55599999 4287334761
0.383333 0.167395 0.55699998 4287137382
0.384413 0.167192 0.55599999 4287268968
0.385492 0.166991 0.55500001 4287203175
0.38726801 0.167091 0.55500001 4287268968
0.38905001 0.16719399 0.55500001 4287006310
-0.198835 0.156671 0.54100001 4287860082
-0.197367 0.156664 0.54100001 4287531634
-0.195898 0.15665799 0.54100001 4287728759
-0.19442999 0.156653 0.54100001 4287794552
-0.192606 0.156358 0.54000002 4288057210
-0.190788 0.15606301 0.53899997 4287860084
-0.189327 0.156058 0.53899997 4288254326
-0.188215 0.156343 0.54000002 4288386166
-0.187444 0.156918 0.542 4288386166
-0.18631899 0.157203 0.54299998 4288057201
-0.18484899 0.157199 0.54299998 4288188787
-0.18304101 0.15690599 0.542 4288188787
-0.181574 0.156903 0.542 4287925615
-0.180108 0.1569 0.542 4287991408
-0.17897099 0.157186 0.54299998 4287925615
-0.177503 0.157184 0.54299998 4287925615
-0.176034 0.15718099 0.54299998 4288057201
-0.174245 0.15689 0.542 4287794028
-0.17278001 0.15688799 0.542 4287794028
-0.17163099 0.157176 0.54299998 4287794029
-0.16985101 0.156885 0.542 4287925361
-0.16807599 0.15659399 0.54100001 4287859568
-0.166307 0.156304 0.54000002 4287859570
-0.16545901 0.156882 0.542 4287530605
-0.164601 0.15746 0.54400003 4287925361
-0.16283201 0.15717 0.54299998 4287859822
-0.16106901 0.15688001 0.542 4287794029
-0.15931199 0.156591 0.54100001 4287925615
-0.158143 0.15688001 0.542 4287925615
-0.15696999 0.15717 0.54299998 4287662443
-0.155505 0.15717 0.54299998 4287925615
-0.15375599 0.156881 0.542 4287925614
-0.152575 0.157171 0.54299998 4287728235
-0.15110999 0.15717199 0.54299998 4287859307
-0.149646 0.15717299 0.54299998 4287859307
-0.147909 0.156885 0.542 4287859307
-0.14698701 0.157465 0.54400003 4287727721
-0.145788 0.157756 0.54500002 4287727721
-0.144318 0.157757 0.54500002 4287858791
-0.142849 0.157759 0.54500002 4287596135
-0.14138 0.15776099 0.54500002 4287925100
-0.13991 0.157763 0.54500002 4287727722
-0.13818701 0.15747499 0.54400003 4287596136
-0.136721 0.157478 0.54400003 4287464550
-0.135006 0.15719 0.54299998 4287661929
-0.133542 0.15719301 0.54299998 4287727722
-0.132322 0.15748499 0.54400003 4287530605
-0.130615 0.157198 0.54299998 4287793777
-0.129151 0.15719999 0.54299998 4287531119
-0.12768801 0.157203 0.54299998 4287465326
-0.126689 0.157785 0.54500002 4287859568
-0.12522 0.15778799 0.54500002 4287727722
-0.123978 0.15808 0.546 4287596135
-0.122507 0.15808301 0.546 4287727205
-0.120813 0.15779699 0.54500002 4287792998
-0.119344 0.1578 0.54500002 4287792745
-0.117875 0.157803 0.54500002 4287990124
-0.11662 0.158096 0.546 4287990124
-0.114938 0.15781 0.54500002 4287792745
-0.113469 0.157813 0.54500002 4287990124
-0.111999 0.15781701 0.54500002 4287858538
-0.110733 0.15810999 0.546 4287661159
-0.109261 0.158113 0.546 4287792745
-0.107592 0.157827 0.54500002 4288055660
-0.106318 0.158121 0.546 4288055913
-0.104846 0.158124 0.546 4288121708
-0.103184 0.157838 0.54500002 4288055913
-0.101715 0.157842 0.54500002 4288055398
-0.100246 0.157846 0.54500002 4287990375
-0.099138796 0.158429 0.54699999 4287990120
-0.0978425 0.158722 0.54799998 4287859046
-0.096189 0.158436 0.54699999 4287858791
-0.094713897 0.15843999 0.54699999 4287596135
-0.093238898 0.158444 0.54699999 4287990377
-0.091763698 0.158448 0.54699999 4288056170
-0.0901234 0.158162 0.546 4287793253
-0.0884884 0.157876 0.54500002 4288188009
-0.087178104 0.158169 0.546 4287859299
-0.085705303 0.15817299 0.546 4287727713
-0.084541097 0.158756 0.54799998 4287858786
-0.082911201 0.15847 0.54699999 4287924580
-0.081435502 0.158474 0.54699999 4287793251
-0.0798136 0.158188 0.546 4287727460
-0.0786274 0.15877099 0.54799998 4287529828
-0.077008002 0.158485 0.54699999 4287398240
-0.075669996 0.158778 0.54799998 4287727205
-0.073920503 0.15820201 0.546 4287727203
-0.072712399 0.158786 0.54799998 4287661410
-0.071363501 0.159079 0.54900002 4287858787
-0.070136301 0.15966199 0.551 4287858786
-0.068524502 0.159376 0.55000001 4287595614
-0.066796102 0.15880001 0.54799998 4287661407
-0.065316901 0.158803 0.54799998 4287989858
-0.063954003 0.159096 0.54900002 4287660894
-0.0624719 0.159099 0.54900002 4287660640
-0.0609896 0.15910301 0.54900002 4287332445
-0.059615701 0.15939599 0.55000001 4287595617
-0.058236301 0.15968899 0.551 4287727201
-0.056748498 0.159692 0.551 4287792994
-0.055160299 0.15940499 0.55000001 4287661407
-0.053675 0.159408 0.55000001 4287990372
-0.052284501 0.159701 0.551 4287990373
-0.050611898 0.159124 0.54900002 4287859044
-0.049218599 0.159417 0.55000001 4287003735
-0.047646198 0.15912899 0.54900002 4288385390
-0.0462473 0.159422 0.55000001 4288319597
-0.044842899 0.159714 0.551 4288451181
-0.0434331 0.160007 0.55199999 4288714869
-0.041941799 0.160009 0.55199999 4288583030
-0.0403772 0.159722 0.551 4288386166
-0.038817901 0.15943401 0.55000001 4288451959
-0.037399702 0.15972599 0.551 4288188787
-0.035845701 0.159439 0.55000001 4288385652
-0.034421999 0.159731 0.551 4288385135
-0.032933101 0.159733 0.551 4288385390
-0.031558201 0.16031399 0.55299997 4288385902
-0.030063801 0.16031601 0.55299997 4288649074
-0.0285693 0.160318 0.55299997 4288451950
-0.027074801 0.16032 0.55299997 4288188776
-0.0255339 0.16003101 0.55199999 4288254569
-0.024041999 0.160033 0.55199999 4288057192
-0.02255 0.160034 0.55199999 4288385902
-0.021058001 0.160036 0.55199999 4289043579
-0.019566 0.160037 0.55199999 4288254579
-0.0180739 0.16003799 0.55199999 4288254579
-0.0166118 0.160329 0.55299997 4288254579
-0.015117 0.16033 0.55299997 4288451444
-0.0136467 0.160621 0.55400002 4288517238
-0.0121272 0.16033199 0.55299997 4288517238
-0.0106323 0.16033199 0.55299997 4288385649
-0.00915391 0.160623 0.55400002 4288320111
-0.0076562599 0.160623 0.55400002 4288320109
-0.0061474801 0.16033401 0.55299997 4288385902
-0.0046525099 0.16033401 0.55299997 4288451181
-0.0031632499 0.160624 0.55400002 4288319595
-0.00167158 0.161204 0.55599999 4286674513
-0.00016818001 0.160915 0.55500001 4287069270
0.00132981 0.160625 0.55400002 4286937171
0.0028172899 0.160045 0.55199999 4287398236
0.0043173698 0.16033401 0.55299997 4287200342
0.0058228499 0.160624 0.55400002 4287332442
0.0073469402 0.161203 0.55599999 4287069270
0.0088340798 0.16091301 0.55500001 4287201110
0.0103344 0.16091201 0.55500001 4287464282
0.0118134 0.160622 0.55400002 4287201110
0.013335 0.16091099 0.55500001 4288319591
0.014862 0.1612 0.55599999 4287201110
0.016364999 0.161199 0.55599999 4287595868
0.0178358 0.160908 0.55500001 4288187751
0.019336 0.160907 0.55500001 4288122216
0.0208361 0.160906 0.55500001 4287464286
0.0223363 0.16090401 0.55500001 4286806358
0.023793399 0.160613 0.55400002 4288122218
0.0252907 0.160611 0.55400002 4288319595
0.026788 0.16061001 0.55400002 4288451436
0.0283364 0.160898 0.55500001 4287990630
0.029890001 0.16118599 0.55599999 4287464029
0.0313926 0.161184 0.55599999 4286148173
0.032835901 0.16089299 0.55500001 4286411345
0.034459401 0.16147 0.55699998 4287530079
0.0358354 0.160889 0.55500001 4288385643
0.037402298 0.161176 0.55599999 4288254308
0.038834602 0.16088399 0.55500001 4287793758
0.040406901 0.161172 0.55599999 4287925090
0.041909002 0.16116901 0.55599999 4287332955
0.043489199 0.161457 0.55699998 4287003737
0.044913199 0.161164 0.55599999 4287595619
0.046331599 0.160872 0.55500001 4286872412
0.047830801 0.160869 0.55500001 4286346069
0.0495077 0.16144601 0.55699998 4283518269
0.050920598 0.161153 0.55599999 4283191639
0.0524223 0.16115101 0.55599999 4287664507
0.053923901 0.161148 0.55599999 4288059000
0.055624802 0.161724 0.55800003 4287860850
0.056926899 0.16114201 0.55599999 4287859305
0.0583231 0.160849 0.55500001 4288188011
0.059714001 0.160556 0.55400002 4288056425
0.061209802 0.160552 0.55400002 4287924839
0.062705502 0.160549 0.55400002 4287924839
0.064201199 0.160546 0.55400002 4287661667
0.065578103 0.160253 0.55299997 4287925353
0.067070901 0.16024899 0.55299997 4288188525
0.068563603 0.160246 0.55299997 4288122732
0.070056297 0.16024201 0.55299997 4288320111
0.071548797 0.160239 0.55299997 4288319850
0.072909199 0.159945 0.55199999 4288188264
0.074398898 0.159942 0.55199999 4287727713
0.076025903 0.160228 0.55299997 4287530334
0.077798501 0.160804 0.55500001 4287859299
0.079296 0.1608 0.55500001 4287596127
0.0807935 0.160796 0.55500001 4287661920
0.081994303 0.16021299 0.55299997 4288254057
0.083486199 0.160209 0.55299997 4288056423
0.084977999 0.16020501 0.55299997 4288122218
0.086313397 0.15991201 0.55199999 4287859046
0.087643303 0.15961801 0.551 4287990377
0.088967703 0.159325 0.55000001 4287661414
0.090779997 0.15990099 0.55199999 4287990379
0.092268698 0.159897 0.55199999 4287727721
0.0940971 0.16047201 0.55400002 4287728235
0.095591098 0.160468 0.55400002 4288056686
0.096909799 0.160175 0.55299997 4287596650
0.0985789 0.16046099 0.55400002 4286807133
0.099891998 0.16016699 0.55299997 4287398250
0.101566 0.16045301 0.55400002 4287596136
0.102688 0.15987 0.55199999 4287135584
0.104176 0.15986601 0.55199999 4287332702
0.105473 0.159573 0.551 4287201630
0.107152 0.159859 0.55199999 4287267423
0.108444 0.159566 0.551 4287596388
0.109929 0.15956201 0.551 4287991146
0.111212 0.15926901 0.55000001 4287991661
0.113104 0.15984499 0.55199999 4287991407
0.114592 0.159841 0.55199999 4287794028
0.11608 0.15983801 0.55199999 4287991408
0.117142 0.159255 0.55000001 4287860075
0.11884 0.159541 0.551 4287794281
0.120107 0.15924899 0.55000001 4288122471
0.12181 0.15953501 0.551 4287596127
0.123072 0.159242 0.55000001 4287464286
0.124554 0.15923899 0.55000001 4287530081
0.126266 0.15952601 0.551 4287266656
0.127519 0.159233 0.55000001 4287529828
0.12900101 0.15922999 0.55000001 4287596136
0.130484 0.159227 0.55000001 4287661929
0.13196599 0.159225 0.55000001 4287793512
0.133449 0.15922201 0.55000001 4287859305
0.135176 0.159509 0.551 4287925353
0.13641401 0.159217 0.55000001 4288188009
0.137896 0.159215 0.55000001 4288122216
0.139125 0.158923 0.54900002 4288122732
0.140861 0.15921099 0.55000001 4287794282
0.142085 0.15891901 0.54900002 4287859822
0.14382701 0.159207 0.55000001 4287728236
0.145574 0.159495 0.551 4287596649
0.14732701 0.15978201 0.55199999 4287399270
0.148546 0.159492 0.551 4287662696
0.14975899 0.159201 0.55000001 4287399524
0.151242 0.1592 0.55000001 4287530856
0.15272599 0.159199 0.55000001 4287661929
0.153929 0.15890799 0.54900002 4287464550
0.15541001 0.158907 0.54900002 4287925101
0.156891 0.158907 0.54900002 4287859822
0.15866099 0.159196 0.55000001 4287794029
0.160145 0.159196 0.55000001 4287794029
0.16192301 0.159485 0.551 4287728749
0.163114 0.159196 0.55000001 4287860336
0.16489799 0.159485 0.551 4287795312
0.16608299 0.159196 0.55000001 4287729519
0.167568 0.159197 0.55000001 4287794543
0.16874599 0.15890799 0.54900002 4287662957
0.17053901 0.159199 0.55000001 4287728750
0.172025 0.1592 0.55000001 4287465578
0.17382599 0.159491 0.551 4287465577
0.174997 0.15920299 0.55000001 4287005280
0.17648301 0.159205 0.55000001 4287663209
0.17797001 0.159207 0.55000001 4287465830
0.18010999 0.159789 0.55199999 4287860328
0.181932 0.160081 0.55299997 4287860588
0.183759 0.160373 0.55400002 4287925867
0.18492401 0.16008601 0.55299997 4287662956
0.18641999 0.16009 0.55299997 4287465577
0.18757699 0.159804 0.55199999 4287662957
0.189072 0.15980799 0.55199999 4287728235
0.190567 0.159812 0.55199999 4287596649
0.19206201 0.159816 0.55199999 4287794282
0.193207 0.159531 0.551 4287860074
0.194701 0.159536 0.551 4287860074
0.19619501 0.159541 0.551 4287596902
0.198048 0.15983599 0.55199999 4287860328
0.199184 0.15955301 0.551 4287400037
0.200315 0.15926901 0.55000001 4287597930
0.20180801 0.15927599 0.55000001 4287729519
0.203302 0.159282 0.55000001 4287597678
0.20516901 0.15957899 0.551 4287662957
