# .PCD v0.7 - Point Cloud Data file format
VERSION 0.7
FIELDS x y z rgb
SIZE 4 4 4 4
TYPE F F F U
COUNT 1 1 1 1
WIDTH 1057
HEIGHT 1
VIEWPOINT 0 0 0 1 0 0 0
POINTS 1057
DATA ascii
0.37813699 -0.069817998 0.96700001 4287269494
0.38034999 -0.069745101 0.96600002 4287532666
0.382954 -0.069744498 0.96600002 4287664252
0.38555801 -0.069744103 0.96600002 4287861631
0.38776201 -0.069671601 0.96499997 4287663738
0.389557 -0.069527 0.963 4287400566
0.39174801 -0.069454797 0.96200001 4287400566
0.39557499 -0.069671497 0.96499997 4287927165
0.39900601 -0.069816202 0.96700001 4287730045
0.40078801 -0.069672301 0.96499997 4287599226
0.402978 -0.069600701 0.96399999 4288125056
0.40516299 -0.069529198 0.963 4287926910
0.408191 -0.069602303 0.96399999 4286808429
0.410373 -0.069531202 0.963 4286083673
0.41255099 -0.069460303 0.96200001 4286872673
0.41515601 -0.069461703 0.96200001 4287201892
0.41819599 -0.069535501 0.963 4287003999
0.42080599 -0.0695372 0.963 4287003998
0.423417 -0.069539197 0.963 4286872926
0.42603001 -0.069541298 0.963 4286675548
0.42908901 -0.069615804 0.96399999 4286610268
0.43125799 -0.069546103 0.963 4287333991
0.43297401 -0.069404297 0.96100003 4286413404
0.43468001 -0.069262803 0.95899999 4286742369
0.43774399 -0.069338001 0.95999998 4286610783
0.440815 -0.069413498 0.96100003 4286939750
0.443894 -0.069489203 0.96200001 4286742117
0.44651499 -0.069492899 0.96200001 4287071336
0.44820401 -0.069352202 0.95999998 4287203436
0.45129201 -0.0694286 0.96100003 4286742631
0.45486 -0.069577403 0.963 4286808425
0.459391 -0.069870897 0.96700001 4286545253
0.461079 -0.069731101 0.96499997 4285492822
0.46131599 -0.0693748 0.95999998 4282927411
0.46249399 -0.069163099 0.95700002 4287336570
0.46511501 -0.069168501 0.95700002 4287468670
0.46724999 -0.069101803 0.95599997 4287205499
0.469381 -0.069035403 0.95499998 4287468157
0.47150901 -0.068969198 0.954 4287138938
0.47413099 -0.068975396 0.954 4287336317
0.47675401 -0.068981998 0.954 4287402110
0.47938001 -0.0689888 0.954 4288060040
0.48150301 -0.068923503 0.95300001 4287467904
0.48362201 -0.068858497 0.95200002 4287796869
0.48573899 -0.068793602 0.95099998 4287862662
0.48785201 -0.068729103 0.94999999 4287335289
0.49047801 -0.068737097 0.94999999 4287598459
0.49310699 -0.068745397 0.94999999 4287993211
0.49469501 -0.068609297 0.94800001 4287927414
0.49679899 -0.068545699 0.94700003 4287204461
0.49890101 -0.068482399 0.94599998 4287335540
-0.199423 -0.071769603 0.95499998 4283126090
-0.19664299 -0.071699098 0.954 4284244581
-0.19427601 -0.071778901 0.95499998 4283587938
-0.192103 -0.071933798 0.95700002 4283192927
-0.189127 -0.071788102 0.95499998 4283651944
-0.18635701 -0.071717501 0.954 4283585640
-0.18359201 -0.071646899 0.95300001 4285164913
-0.181401 -0.071801797 0.95499998 4287731600
-0.179574 -0.072107002 0.95899999 4283125576
-0.177725 -0.072412297 0.963 4287862418
-0.17549001 -0.072567202 0.96499997 4288783774
-0.173244 -0.0727221 0.96700001 4289112475
-0.170634 -0.0727266 0.96700001 4289243549
-0.16785 -0.072655797 0.96600002 4289505951
-0.1649 -0.072509699 0.96399999 4289440158
-0.162297 -0.072514102 0.96399999 4289242780
-0.159528 -0.072443098 0.963 4289177756
-0.156927 -0.072447397 0.963 4289112222
-0.154165 -0.0723764 0.96200001 4288059536
-0.152196 -0.072681502 0.96600002 4287862157
-0.15066899 -0.0732124 0.97299999 4287796362
-0.149865 -0.074119501 0.98500001 4289112224
-0.149893 -0.075478204 1.003 4289178268
-0.151143 -0.077514298 1.03 4289046682
-0.15527201 -0.081130996 1.0779999 4288915349
-0.159564 -0.084973902 1.1289999 4288915349
-0.16122399 -0.087537602 1.163 4289178521
-0.160661 -0.0889723 1.182 4289113242
-0.158528 -0.089579098 1.1900001 4287271038
-0.15557 -0.089734301 1.192 4287599750
-0.151832 -0.089437596 1.188 4288783257
-0.14586499 -0.087785698 1.166 4288586133
-0.071940497 -0.0463087 0.61500001 4288982711
-0.070046499 -0.046160199 0.61299998 4288984254
-0.068163201 -0.046011701 0.611 4288589495
-0.066399299 -0.045938399 0.61000001 4288457910
-0.0647467 -0.045940399 0.61000001 4288523703
-0.062990598 -0.0458671 0.60900003 4288523703
-0.061340399 -0.045869 0.60900003 4288588982
-0.059493899 -0.045720201 0.60699999 4288128430
-0.057944 -0.0457973 0.60799998 4288457395
-0.056295902 -0.045799099 0.60799998 4287997098
-0.054647699 -0.045800801 0.60799998 4287996328
-0.052999198 -0.0458025 0.60799998 4288193707
-0.051519599 -0.045954801 0.61000001 4288259500
-0.049947102 -0.046031699 0.611 4288391341
-0.048369098 -0.0461086 0.61199999 4287996583
-0.046785399 -0.046185501 0.61299998 4287799204
-0.045269798 -0.046337601 0.61500001 4288325548
-0.043601401 -0.046339002 0.61500001 4287996583
-0.0419329 -0.046340398 0.61500001 4288062891
-0.0402642 -0.046341699 0.61500001 4288128684
-0.038658101 -0.046418399 0.616 4288193707
-0.0370465 -0.046494901 0.61699998 4287996583
-0.035372 -0.046496101 0.61699998 4286811795
-0.033642799 -0.0464219 0.616 4285758852
-0.031970698 -0.046422899 0.616 4285232763
-0.030397 -0.046574701 0.61799997 4285298301
-0.0288122 -0.046726301 0.62 4284838005
-0.0271728 -0.046802599 0.62099999 4284245868
-0.0253636 -0.046577401 0.61799997 4285627266
-0.023608999 -0.046427399 0.616 4285693828
-0.0218652 -0.046277501 0.61400002 4287996583
-0.0201979 -0.0462781 0.61400002 4287864997
-0.018500401 -0.046203401 0.61299998 4287799204
-0.016835701 -0.046204001 0.61299998 4287733925
-0.0151958 -0.0462799 0.61400002 4288128683
-0.0135062 -0.046204999 0.61299998 4287996583
-0.0118221 -0.046130002 0.61199999 4287272346
-0.0101267 -0.0459796 0.61000001 4286942350
-0.0085254498 -0.046281401 0.61400002 4285955452
-0.0069248001 -0.046734001 0.62 4284375903
-0.0053337999 -0.0475633 0.63099998 4283717713
-0.0036772799 -0.048317201 0.64099997 4282598717
-0.0019664301 -0.0490711 0.65100002 4282729273
-0.00020033401 -0.049598798 0.65799999 4282860598
0.0016013799 -0.050051101 0.66399997 4282663472
0.00342542 -0.050352499 0.66799998 4282531886
0.0052947099 -0.05088 0.67500001 4282662959
0.0071808901 -0.051256701 0.68000001 4282531373
0.0091207596 -0.051784001 0.68699998 4282465580
0.0110506 -0.052085198 0.69099998 4282399787
0.0130396 -0.052537099 0.69700003 4282531631
0.0150397 -0.052913502 0.70200002 4282465840
0.017042801 -0.053214401 0.70599997 4282597426
0.0190138 -0.053364601 0.708 4282663217
0.0210844 -0.053740799 0.713 4282663217
0.023149701 -0.054041602 0.71700001 4282466093
0.0253067 -0.054492999 0.72299999 4282137128
0.0274584 -0.054869 0.72799999 4282729265
0.0296777 -0.0553203 0.73400003 4282597166
0.0319294 -0.0557715 0.74000001 4282662959
0.034213599 -0.056222599 0.74599999 4282531373
0.0367731 -0.0570505 0.75700003 4282531627
0.039238401 -0.057652101 0.76499999 4282531627
0.041692901 -0.058178298 0.77200001 4283123763
0.044015199 -0.0584784 0.77600002 4283650361
0.046418399 -0.058853701 0.78100002 4283847739
0.048972901 -0.059379701 0.78799999 4283716154
0.0518247 -0.060206901 0.79900002 4283716154
0.0561551 -0.062616497 0.83099997 4283650618
0.063470498 -0.0680397 0.903 4283650361
0.069424301 -0.071654297 0.95099998 4283650361
0.073215403 -0.072857603 0.96700001 4283716154
0.0759167 -0.0729305 0.96799999 4283650620
0.078704298 -0.073078804 0.97000003 4283782204
0.081251003 -0.0730009 0.96899998 4283979330
0.0841382 -0.073224299 0.972 4288519302
0.086952202 -0.073372297 0.97399998 4288519302
0.089684702 -0.073444903 0.97500002 4287136361
0.092138298 -0.073291399 0.97299999 4287530605
0.094580702 -0.073137902 0.97100002 4287530343
0.097212203 -0.073134899 0.97100002 4287990894
0.099946201 -0.0732072 0.972 4287531110
0.10258 -0.0732041 0.972 4287860336
0.105213 -0.073201001 0.972 4287860852
0.107846 -0.0731977 0.972 4287663219
0.110479 -0.073194496 0.972 4287268722
0.113111 -0.073191099 0.972 4288387203
0.115624 -0.073112398 0.97100002 4288321410
0.118253 -0.073108897 0.97100002 4288518789
0.120881 -0.073105402 0.97100002 4288584835
0.123891 -0.073327601 0.97399998 4288190331
0.126527 -0.073324002 0.97399998 4288321401
0.12903 -0.073244996 0.97299999 4287861356
0.13152701 -0.073165901 0.972 4288452473
0.134157 -0.073162101 0.972 4287925622
0.136645 -0.073082902 0.97100002 4287400308
0.139128 -0.073003799 0.97000003 4287663740
0.14175101 -0.072999798 0.97000003 4284637280
0.144224 -0.072920501 0.96899998 4287531665
0.147147 -0.073066898 0.97100002 4288058252
0.149771 -0.0730628 0.97100002 4287334520
0.15270901 -0.073209196 0.97299999 4287399541
0.15517899 -0.073129699 0.972 4287070829
0.15748 -0.072975002 0.97000003 4287202416
0.15977 -0.072820298 0.96799999 4287399290
0.162552 -0.072891198 0.96899998 4287333242
0.165169 -0.072886802 0.96899998 4287596406
0.167785 -0.072882399 0.96899998 4287399278
0.170753 -0.073028401 0.97100002 4287267431
0.173374 -0.0730239 0.97100002 4287267431
0.17599399 -0.0730194 0.97100002 4287267947
0.17824601 -0.072864503 0.96899998 4287267947
0.180674 -0.072784796 0.96799999 4287137389
0.182717 -0.072554603 0.96499997 4287005803
0.184936 -0.072399698 0.963 4287400562
0.18733799 -0.072319902 0.96200001 4287400048
0.190129 -0.072390497 0.963 4287399533
0.192725 -0.0723859 0.963 4287596396
0.19552401 -0.072456397 0.96399999 4287990894
0.198328 -0.072526902 0.96499997 4287596650
0.20113599 -0.072597302 0.96600002 4287794029
0.203739 -0.072592601 0.96600002 4287662189
0.206341 -0.0725879 0.96600002 4287399278
0.208727 -0.072508 0.96499997 4287268209
0.21154501 -0.0725784 0.96600002 4287136623
0.214146 -0.072573699 0.96600002 4287202416
0.216747 -0.072568901 0.96600002 4287202415
0.21912099 -0.072489098 0.96499997 4287268198
0.221259 -0.072334103 0.963 4287399785
0.22408301 -0.072404496 0.96399999 4287465840
0.22644199 -0.072324596 0.963 4287729012
0.228558 -0.072169699 0.96100003 4287465587
0.230903 -0.072089903 0.95999998 4287268208
0.23324201 -0.0720101 0.95899999 4287728759
0.236067 -0.072080597 0.95999998 4287334001
0.238152 -0.0719257 0.958 4287334001
0.24072801 -0.071921103 0.958 4287465587
0.242542 -0.071691297 0.95499998 4287400308
0.24511001 -0.0716867 0.95499998 4287466101
0.247418 -0.071607001 0.954 4287532152
0.24972101 -0.071527503 0.95300001 4287729274
0.25201699 -0.071447901 0.95200002 4288058239
0.25430799 -0.071368396 0.95099998 4287795066
0.25686401 -0.071363904 0.95099998 4288124031
0.25942001 -0.0713595 0.95099998 4288190337
0.26197499 -0.071355097 0.95099998 4288585095
0.26425201 -0.071275704 0.94999999 4288519302
0.26680401 -0.071271397 0.94999999 4288650888
0.26878899 -0.071117103 0.94800001 4287992699
0.27104899 -0.071037903 0.94700003 4288387456
0.27301499 -0.070883699 0.94499999 4288058491
0.27584499 -0.070954598 0.94599998 4287860859
0.278386 -0.070950598 0.94599998 4287400819
0.280927 -0.0709465 0.94599998 4287729784
0.282868 -0.070792601 0.94400001 4287795577
0.285101 -0.070713699 0.94300002 4287927163
0.28702301 -0.070559897 0.94099998 4287598200
0.29016599 -0.070706099 0.94300002 4287400821
0.292698 -0.070702299 0.94300002 4287927165
0.29585701 -0.070848599 0.94499999 4287861370
0.29839501 -0.070845 0.94499999 4287861113
0.300614 -0.070766501 0.94400001 4287598198
0.30250701 -0.070613101 0.94199997 4287203442
0.304389 -0.070459798 0.94 4287532154
0.30658701 -0.070381597 0.93900001 4287466875
0.309109 -0.0703784 0.93900001 4287796354
0.31163099 -0.070375197 0.93900001 4287795840
0.31381899 -0.070297197 0.93800002 4287598459
0.31566399 -0.070144303 0.93599999 4287664507
0.31851801 -0.070216402 0.93699998 4287796093
0.32103601 -0.070213601 0.93699998 4287664505
0.323899 -0.070285797 0.93800002 4287532919
0.326419 -0.070283197 0.93800002 4287861372
0.32964101 -0.070430502 0.94 4287663993
0.33322799 -0.070652798 0.94300002 4287861370
0.33647501 -0.070800297 0.94499999 4287598200
0.34009099 -0.071022801 0.94800001 4288124542
0.34336299 -0.071170501 0.94999999 4288322176
0.34664601 -0.071318299 0.95200002 4287927163
0.348106 -0.0710916 0.949 4287730047
0.348811 -0.070715196 0.94400001 4287533182
0.35060599 -0.070563696 0.94199997 4287007099
0.35351601 -0.070637003 0.94300002 4286481019
0.35718599 -0.070860296 0.94599998 4286415226
0.360874 -0.071083702 0.949 4285099112
0.36457801 -0.0713071 0.95200002 4285099619
0.36829901 -0.0715307 0.95499998 4286612080
0.37242499 -0.071829401 0.95899999 4287006324
0.37539899 -0.0719034 0.95999998 4287795840
0.37759301 -0.071827799 0.95899999 4287269496
0.380178 -0.071827203 0.95899999 4287664254
0.38236499 -0.0717519 0.958 4287664254
0.384949 -0.071751602 0.958 4288190084
0.38672501 -0.071601696 0.95599997 4287400568
0.38971201 -0.071676597 0.95700002 4287597945
0.39229599 -0.071676798 0.95700002 4285887582
0.395293 -0.071751997 0.958 4287467128
0.39705101 -0.071602702 0.95599997 4287730812
0.399216 -0.071528398 0.95499998 4288059263
0.402219 -0.071604103 0.95599997 4288256130
0.40565199 -0.071754903 0.958 4288058751
0.40824401 -0.071756102 0.958 4287465326
0.40997899 -0.071607597 0.95599997 4286412122
0.41213599 -0.071534097 0.95499998 4287201892
0.415158 -0.071610697 0.95599997 4287070306
0.41774899 -0.071612597 0.95599997 4287003998
0.42078099 -0.071689501 0.95700002 4287135584
0.42293501 -0.071616799 0.95599997 4286741594
0.42597499 -0.071694098 0.95700002 4286807386
0.42812601 -0.071621798 0.95599997 4287071072
0.42982301 -0.071474701 0.954 4286610522
0.431963 -0.071402803 0.95300001 4287136613
0.435467 -0.071555801 0.95499998 4286347097
0.437608 -0.071484298 0.954 4287070566
0.440667 -0.071562797 0.95499998 4286610785
0.44280499 -0.071491703 0.954 4287400301
0.44587299 -0.071570598 0.95499998 4287137129
0.448479 -0.071574897 0.95499998 4286939496
0.45155799 -0.071654297 0.95599997 4286873703
0.456545 -0.072033703 0.96100003 4286742117
0.45965001 -0.072113603 0.96200001 4286544999
0.46035999 -0.071818903 0.958 4285492824
0.46104899 -0.071524397 0.954 4282533167
0.463177 -0.071455002 0.95300001 4286810741
0.46627799 -0.071535803 0.954 4287534464
0.468896 -0.071541898 0.954 4287863429
0.47052699 -0.071398199 0.95200002 4288323212
0.472646 -0.071329802 0.95099998 4288059526
0.47476199 -0.0712616 0.94999999 4286744180
0.47687399 -0.071193598 0.949 4287204731
0.478984 -0.071125902 0.94800001 4287862661
0.480582 -0.070983402 0.94599998 4287600004
0.48268199 -0.070916101 0.94499999 4287994247
0.484779 -0.070849098 0.94400001 4287467387
0.487905 -0.0709325 0.94499999 4286875505
0.49000201 -0.070866004 0.94400001 4287204207
0.49209499 -0.070799798 0.94300002 4287664242
0.49471 -0.070808902 0.94300002 4287138414
0.49627301 -0.070668198 0.94099998 4287203954
0.49835801 -0.070602797 0.94 4287269494
-0.198165 -0.073886797 0.949 4288585356
-0.195196 -0.0737359 0.94700003 4285888881
-0.19244 -0.073662803 0.94599998 4283717713
-0.18968999 -0.073589601 0.94499999 4284836194
-0.18694399 -0.073516399 0.94400001 4285428077
-0.184008 -0.073365301 0.94199997 4284967536
-0.182238 -0.073681504 0.94599998 4287533714
-0.18082701 -0.074153498 0.95200002 4286218108
-0.179382 -0.0746255 0.958 4283717469
-0.176982 -0.074708097 0.95899999 4289705137
-0.174577 -0.074790597 0.95999998 4289310118
-0.17216501 -0.074873097 0.96100003 4289244061
-0.169571 -0.074877702 0.96100003 4289375135
-0.166803 -0.074804299 0.95999998 4289571744
-0.16386899 -0.074653 0.958 4289703330
-0.161282 -0.074657403 0.958 4289375135
-0.158364 -0.074506 0.95599997 4289309342
-0.155782 -0.074510299 0.95599997 4289441442
-0.153199 -0.074514702 0.95599997 4288915349
-0.151876 -0.075142503 0.96399999 4288784017
-0.15113001 -0.076082297 0.97600001 4289046682
-0.15123001 -0.077489801 0.99400002 4289046682
-0.15212999 -0.079365201 1.018 4289046936
-0.15627401 -0.083034001 1.0650001 4288981142
-0.165213 -0.091152303 1.169 4289046935
-0.16413 -0.092326798 1.184 4289046429
-0.16133501 -0.092565604 1.187 4283585881
-0.158391 -0.092726298 1.189 4285691259
-0.15504301 -0.092652999 1.188 4284047192
-0.15029401 -0.091721699 1.176 4287336327
-0.14173201 -0.088372298 1.133 4289243547
-0.073244497 -0.047739699 0.61199999 4288784565
-0.071119502 -0.047429901 0.60799998 4288655289
-0.069244497 -0.047276001 0.60600001 4288457656
-0.067603298 -0.047278099 0.60600001 4288721341
-0.065961801 -0.0472802 0.60600001 4288720828
-0.064213999 -0.0472042 0.60500002 4288326070
-0.062368002 -0.0470502 0.60299999 4288326324
-0.060734101 -0.0470521 0.60299999 4288588982
-0.059002001 -0.046976 0.602 4288391602
-0.057465699 -0.0470559 0.60299999 4288391602
-0.055831201 -0.047057699 0.60299999 4288128430
-0.054286402 -0.047137499 0.60399997 4288457395
-0.052648898 -0.047139298 0.60399997 4288391602
-0.051180098 -0.047297001 0.60600001 4288325295
-0.049618501 -0.0473767 0.60699999 4288062121
-0.0481304 -0.047534399 0.60900003 4287667363
-0.046402302 -0.0474579 0.60799998 4288259755
-0.044826701 -0.047537498 0.60900003 4288193962
-0.043245502 -0.047617 0.61000001 4288062891
-0.0416588 -0.0476964 0.611 4288062891
-0.039935499 -0.0476197 0.61000001 4287667879
-0.038343102 -0.047699101 0.611 4287865512
-0.036745101 -0.047778402 0.61199999 4288127914
-0.0350269 -0.0477015 0.611 4288127914
-0.033314001 -0.047624599 0.61000001 4287996844
-0.031658299 -0.047625698 0.61000001 4287930537
-0.030100901 -0.047782902 0.61199999 4288193709
-0.028439499 -0.0477839 0.61199999 4287141535
-0.0268656 -0.047940899 0.61400002 4286417298
-0.0251166 -0.047785699 0.61199999 4285627780
-0.023454901 -0.0477865 0.61199999 4288194476
-0.021722 -0.0476311 0.61000001 4288128683
-0.020065701 -0.0476318 0.61000001 4287799718
-0.0183791 -0.0475544 0.60900003 4287865511
-0.0166979 -0.047476899 0.60799998 4288194477
-0.0150468 -0.047477402 0.60799998 4287798949
-0.0134176 -0.047556002 0.60900003 4287338653
-0.0117444 -0.0474783 0.60799998 4286877074
-0.0101097 -0.047556799 0.60900003 4286218627
-0.0085529396 -0.048103701 0.616 4284047453
-0.0070139202 -0.0490411 0.62800002 4283454541
-0.0054012402 -0.049900301 0.639 4282862404
-0.00371731 -0.0506033 0.648 4282269497
-0.00197844 -0.051150002 0.65499997 4282269236
-0.000201545 -0.051696699 0.662 4282334768
0.00161097 -0.052165199 0.66799998 4282729010
0.00344582 -0.052477501 0.67199999 4282597166
0.0053180698 -0.052945901 0.67799997 4282728752
0.0072123301 -0.053336099 0.68300003 4282531373
0.0091469996 -0.053804401 0.68900001 4282466093
0.0110823 -0.054116402 0.69300002 4282663217
0.0130579 -0.054506499 0.69800001 4282334252
0.0150392 -0.054818299 0.70200002 4282399793
0.017042199 -0.055130102 0.70599997 4282597426
0.0190669 -0.055441901 0.70999998 4282729010
0.021142799 -0.0558316 0.71499997 4282663217
0.0232781 -0.0562994 0.72100002 4282597679
0.0253758 -0.056610901 0.72500002 4282334507
0.027533 -0.057000399 0.73000002 4282531886
0.029717101 -0.0573899 0.73500001 4282268201
0.032057799 -0.058013499 0.74299997 4282531886
0.0343959 -0.0585589 0.75 4282466093
0.036966201 -0.0594166 0.76099998 4282466093
0.039339699 -0.059883699 0.76700002 4283255349
0.041691501 -0.060272701 0.77200001 4283781693
0.044013701 -0.060583599 0.77600002 4283584568
0.046357401 -0.0608944 0.77999997 4283255602
0.048909198 -0.061439302 0.787 4283518774
0.051823001 -0.062374402 0.79900002 4283518774
0.056288399 -0.065026797 0.833 4283650873
0.063257501 -0.070254996 0.89999998 4283452981
0.068911001 -0.073687501 0.94400001 4283518774
0.072531603 -0.074777998 0.958 4283650873
0.075286902 -0.074931704 0.95999998 4283519032
0.0780527 -0.075085297 0.96200001 4283584825
0.080577597 -0.0750046 0.96100003 4283979585
0.083443098 -0.075236097 0.96399999 4288585095
0.086324498 -0.075467497 0.96700001 4288518789
0.089038 -0.075542703 0.96799999 4287004520
0.091472499 -0.0753837 0.96600002 4287662191
0.093993299 -0.075302698 0.96499997 4287595882
0.0964083 -0.075143702 0.963 4287727722
0.099120602 -0.075218603 0.96399999 4287859822
0.101732 -0.075215399 0.96399999 4287728750
0.104236 -0.075134203 0.963 4287663471
0.106955 -0.075208902 0.96399999 4287400047
0.109566 -0.075205497 0.96399999 4288123771
0.112293 -0.0752801 0.96499997 4288583816
0.114668 -0.075120598 0.963 4288518276
0.117397 -0.075195 0.96399999 4288650114
0.120006 -0.075191401 0.96399999 4288452989
0.122743 -0.075265698 0.96499997 4288453501
0.125484 -0.075339898 0.96600002 4288650366
0.128098 -0.075336099 0.96600002 4287729264
0.130712 -0.075332202 0.96600002 4288715645
0.133187 -0.075250298 0.96499997 4287728750
0.13579699 -0.075246401 0.96499997 4287466606
0.137833 -0.0749304 0.96100003 4287400299
0.140577 -0.075004399 0.96200001 4285361244
0.143029 -0.074922301 0.96100003 4286216312
0.14593001 -0.075074002 0.963 4287861127
0.14868701 -0.0751478 0.96399999 4287399542
0.15144899 -0.075221397 0.96499997 4287597427
0.154057 -0.075217098 0.96499997 4287729013
0.156501 -0.075134799 0.96399999 4287400309
0.15894 -0.0750525 0.963 4287268469
0.161541 -0.075048096 0.963 4287202930
0.164142 -0.075043596 0.963 4287399794
0.166742 -0.075039104 0.963 4287794038
0.16969299 -0.075190403 0.96499997 4287596398
0.171941 -0.075029999 0.963 4287530603
0.17454 -0.075025402 0.963 4287399533
0.177138 -0.075020701 0.963 4287202154
0.179923 -0.075094 0.96399999 4286940011
0.182144 -0.074933499 0.96200001 4287268975
0.18435501 -0.074772999 0.95999998 4287005803
0.186749 -0.074690402 0.95899999 4287136875
0.189532 -0.074763499 0.95999998 4287267945
0.19192 -0.074680902 0.95899999 4287399271
0.194708 -0.074754 0.95999998 4287662443
0.197295 -0.074749202 0.95999998 4287267685
0.20029899 -0.074900098 0.96200001 4287531371
0.20310199 -0.074973099 0.963 4287531117
0.205696 -0.074968196 0.963 4287465840
0.208074 -0.074885502 0.96200001 4287531381
0.210226 -0.074725002 0.95999998 4287334002
0.21258999 -0.074642301 0.95899999 4287662966
0.214948 -0.074559599 0.958 4287925877
0.2173 -0.074476898 0.95700002 4287860082
0.21987601 -0.074472003 0.95700002 4287728750
0.222684 -0.074545003 0.958 4287268968
0.22502699 -0.074462302 0.95700002 4287663471
0.227126 -0.074301898 0.95499998 4287729013
0.22945499 -0.074219301 0.954 4287466355
0.232021 -0.074214503 0.954 4287663220
0.234833 -0.074287497 0.95499998 4287531634
0.23690499 -0.0741271 0.95300001 4287597687
0.239216 -0.0740446 0.95200002 4287926138
0.241014 -0.073806502 0.949 4287662966
0.24382199 -0.0738796 0.94999999 4287531894
0.246117 -0.073797099 0.949 4287597173
0.24893001 -0.073870197 0.94999999 4287531895
0.250954 -0.073710099 0.94800001 4287728759
0.253234 -0.073627703 0.94700003 4287267956
0.25550899 -0.073545396 0.94599998 4287662450
0.25777799 -0.073463202 0.94499999 4287728243
0.260593 -0.073536403 0.94599998 4288057463
0.26313499 -0.073531903 0.94599998 4287663220
0.26567599 -0.0735275 0.94599998 4287071344
0.26765099 -0.0733677 0.94400001 4287268208
0.27018699 -0.073363401 0.94400001 4287334001
0.27243301 -0.0732814 0.94300002 4287005541
0.274966 -0.073277198 0.94300002 4287136623
0.27720499 -0.073195301 0.94199997 4286545000
0.28003201 -0.073268898 0.94300002 4286544999
0.28196499 -0.073109403 0.94099998 4286347620
0.28388801 -0.072949998 0.93900001 4287137394
0.285799 -0.072790697 0.93699998 4286611050
0.28862399 -0.072864503 0.93800002 4287268722
0.291453 -0.072938398 0.93900001 4286939757
0.29428801 -0.0730123 0.94 4287202669
0.29712799 -0.073086299 0.94099998 4287728243
0.299018 -0.072927304 0.93900001 4287465841
0.30089799 -0.072768502 0.93699998 4287531381
0.302443 -0.072531998 0.93400002 4287400815
0.30495101 -0.072528698 0.93400002 4287796081
0.30680099 -0.072370097 0.93199998 4288124797
0.30963701 -0.072444499 0.93300003 4287926910
0.31180799 -0.072363697 0.93199998 4287795579
0.31431201 -0.072360702 0.93199998 4287729786
0.31715599 -0.072435297 0.93300003 4287532656
0.319662 -0.072432503 0.93300003 4287598451
0.32251501 -0.072507299 0.93400002 4287664246
0.32502401 -0.072504699 0.93400002 4287466612
0.32823601 -0.072657302 0.93599999 4287861370
0.332165 -0.072965302 0.94 4287663991
0.33576 -0.0731958 0.94300002 4287927165
0.33901301 -0.073348701 0.94499999 4287598200
0.34263799 -0.073579401 0.94800001 4287729786
0.34591499 -0.073732503 0.94999999 4287927165
0.348104 -0.073652901 0.949 4287795577
0.349179 -0.073340602 0.94499999 4287795579
0.34986001 -0.072950803 0.94 4287599219
0.35089001 -0.072638802 0.93599999 4286480738
0.35303199 -0.072559699 0.935 4287269496
0.35668999 -0.072791196 0.93800002 4285098072
0.36151299 -0.073255599 0.94400001 4282466607
0.36636901 -0.073720098 0.94999999 4282795572
0.370094 -0.0739519 0.95300001 4285295706
0.373052 -0.074028596 0.954 4286874224
0.375624 -0.074027903 0.954 4287597945
0.37859201 -0.074105002 0.95499998 4287597947
0.38116699 -0.0741046 0.95499998 4287927426
0.38374299 -0.074104302 0.95499998 4287861631
0.38551101 -0.073949002 0.95300001 4287861886
0.388491 -0.074026696 0.954 4287203956
0.39106601 -0.074026898 0.954 4287401588
0.39364299 -0.074027203 0.954 4287796346
0.395805 -0.073950097 0.95300001 4287401588
0.39796299 -0.0738732 0.95200002 4287467381
0.40137801 -0.074029297 0.954 4288058749
0.40438199 -0.0741079 0.95499998 4288058749
0.406966 -0.0741091 0.95499998 4287993211
0.408694 -0.073955297 0.95300001 4286874217
0.41041201 -0.073801696 0.95099998 4287070820
0.41385701 -0.073958598 0.95300001 4287070820
0.41600299 -0.073882997 0.95200002 4287135585
0.41946399 -0.074040301 0.954 4286740827
0.421168 -0.0738874 0.95200002 4286872412
0.42375201 -0.073889904 0.95200002 4286675801
0.42589 -0.073815003 0.95099998 4286741593
0.42847401 -0.073817901 0.95099998 4287596902
0.43105999 -0.073821001 0.95099998 4287202145
0.43364701 -0.073824301 0.95099998 4287465063
0.435776 -0.073750198 0.94999999 4286741341
0.438364 -0.073753998 0.94999999 4287136099
0.44048801 -0.073680297 0.949 4287201892
0.44307601 -0.073684402 0.949 4287530857
0.44566599 -0.073688798 0.949 4287267945
0.44778401 -0.073615797 0.94800001 4287267945
0.45179901 -0.073853597 0.95099998 4286742117
0.45535499 -0.074014001 0.95300001 4286610792
0.45796201 -0.074019402 0.95300001 4286084706
0.45960501 -0.073869601 0.95099998 4285164118
0.461238 -0.073720098 0.949 4282928186
0.46384099 -0.073726103 0.949 4287204731
0.466445 -0.073732398 0.949 4287928454
0.46855599 -0.073661201 0.94800001 4287664768
0.47116199 -0.073668003 0.94800001 4287664254
0.47327 -0.073597401 0.94700003 4287137910
0.47537401 -0.073526897 0.94599998 4287335289
0.47595999 -0.073223598 0.94199997 4287467903
0.47703299 -0.072998203 0.93900001 4287928454
0.479114 -0.072928503 0.93800002 4287534210
0.48221901 -0.073014602 0.93900001 4287862661
0.48481601 -0.0730232 0.93900001 4287402364
0.48689601 -0.072954297 0.93800002 4287533435
0.48897299 -0.0728857 0.93699998 4287467387
0.49157199 -0.072895102 0.93699998 4287533180
0.493646 -0.072826996 0.93599999 4287664768
0.49571699 -0.0727593 0.935 4287401597
0.49831799 -0.072769597 0.935 4287467390
0.49985099 -0.072624497 0.93300003 4287663487
-0.199871 -0.076127604 0.94499999 4289308816
-0.19753399 -0.076213099 0.94599998 4289308816
-0.194573 -0.076056898 0.94400001 4288453507
-0.192232 -0.076142304 0.94499999 4289177230
-0.189083 -0.075905398 0.94199997 4287729540
-0.185949 -0.075668499 0.93900001 4288321163
-0.183027 -0.075512096 0.93699998 4287796868
-0.181656 -0.076000497 0.94300002 4287467399
-0.180822 -0.076730601 0.95200002 4283125576
-0.17918999 -0.077138402 0.95700002 4287863186
-0.176424 -0.077062599 0.95599997 4288521116
-0.17384399 -0.077067398 0.95599997 4287533707
-0.171444 -0.077152699 0.95700002 4288913571
-0.16868401 -0.0770768 0.95599997 4289572008
-0.16593 -0.077000797 0.95499998 4289506203
-0.163352 -0.077005401 0.95499998 4289967009
-0.16077299 -0.077009998 0.95499998 4289900961
-0.15786301 -0.076853201 0.95300001 4289703582
-0.1548 -0.076615803 0.94999999 4289835423
-0.152393 -0.076700903 0.95099998 4289900447
-0.151242 -0.077431202 0.95999998 4289638044
-0.150815 -0.0785648 0.97399998 4289638044
-0.15137801 -0.080263197 0.995 4289703837
-0.15362 -0.082929797 1.028 4289441180
-0.15964501 -0.087774903 1.0880001 4289506973
-0.16692901 -0.093507901 1.159 4289506973
-0.16761 -0.095691398 1.186 4289375135
-0.165096 -0.096099898 1.191 4286348916
-0.16160201 -0.095943503 1.189 4283191883
-0.15838601 -0.095948502 1.189 4283652180
-0.15477701 -0.095711201 1.186 4284178778
-0.149267 -0.0942633 1.168 4289178270
-0.073122501 -0.0493178 0.611 4288389554
-0.070766397 -0.048835799 0.60500002 4289247172
-0.068899602 -0.048676599 0.60299999 4289115588
-0.067154899 -0.048597999 0.602 4288786880
-0.065524399 -0.048600201 0.602 4288852673
-0.063893601 -0.048602302 0.602 4288984259
-0.0620558 -0.0484428 0.60000002 4288721088
-0.060430001 -0.0484448 0.60000002 4288786623
-0.058706101 -0.0483661 0.59899998 4288523451
-0.057082701 -0.048367999 0.59899998 4288128691
-0.0555516 -0.0484506 0.60000002 4288326070
-0.054014999 -0.048533101 0.60100001 4288260531
-0.052298501 -0.048454199 0.60000002 4288457910
-0.050756101 -0.048536599 0.60100001 4287997359
-0.049208201 -0.048619099 0.602 4287997359
-0.047654599 -0.048701499 0.60299999 4288063152
-0.045942899 -0.048622299 0.602 4288523702
-0.0443836 -0.048704602 0.60299999 4287799979
-0.042818699 -0.0487868 0.60399997 4288063151
-0.041248299 -0.048868999 0.60500002 4287865772
-0.039541401 -0.048789602 0.60399997 4287602601
-0.037965301 -0.0488717 0.60500002 4287668394
-0.036263499 -0.048792198 0.60399997 4287799465
-0.034624401 -0.048793498 0.60399997 4288325809
-0.032985199 -0.048794601 0.60399997 4287997358
-0.0313458 -0.0487957 0.60399997 4287931565
-0.029755499 -0.048877601 0.60500002 4288063151
-0.0281597 -0.048959401 0.60600001 4287865772
-0.026558399 -0.0490411 0.60699999 4287734187
-0.0249105 -0.049042001 0.60699999 4287931565
-0.023224199 -0.048962001 0.60600001 4287997612
-0.0215788 -0.048962802 0.60600001 4287471268
-0.019900501 -0.048882801 0.60500002 4287668132
-0.0182276 -0.048802599 0.60399997 4287668133
-0.016532499 -0.0486416 0.602 4287338914
-0.0149225 -0.048723001 0.60299999 4287601570
-0.013307 -0.048804302 0.60399997 4287140246
-0.0117054 -0.0489663 0.60600001 4286284421
-0.010126 -0.049289901 0.61000001 4283915869
-0.0085942904 -0.050017498 0.61900002 4283454541
-0.0070583499 -0.051068202 0.63200003 4282796611
-0.00543486 -0.051957302 0.64300001 4282466617
-0.0037229201 -0.052442301 0.64899999 4282466100
-0.0019783799 -0.0529272 0.65499997 4282663219
-0.00020123299 -0.053412098 0.66100001 4282729265
0.0016109101 -0.053977702 0.66799998 4282334507
0.00345082 -0.054381602 0.67299998 4282860338
0.0053178798 -0.054785501 0.67799997 4282531886
0.0072015198 -0.055108499 0.68199998 4282400045
0.0091334097 -0.055592999 0.68800002 4282531631
0.0110659 -0.0559159 0.69199997 4282860851
0.0130574 -0.056400299 0.69800001 4282729010
0.0150173 -0.056642201 0.70099998 4282597426
0.0170175 -0.0569648 0.70499998 4282794805
0.0189857 -0.057125799 0.70700002 4282400045
0.0210534 -0.057529099 0.71200001 4282268714
0.023180399 -0.0580131 0.71799999 4282400300
0.025374999 -0.058577798 0.72500002 4282597677
0.0276074 -0.0591425 0.73199999 4282400298
0.0298374 -0.0596263 0.73799998 4282597677
0.032229301 -0.060352299 0.74699998 4282795056
0.034532301 -0.060835902 0.75300002 4282860849
0.037013501 -0.061561801 0.76200002 4282860849
0.039338298 -0.0619644 0.76700002 4283584827
0.041636098 -0.062286198 0.77100003 4283716154
0.043955501 -0.062607802 0.77499998 4283585080
0.046296399 -0.062929399 0.77899998 4283782459
0.0489075 -0.063574001 0.787 4283716407
0.051821299 -0.064541698 0.79900002 4283716407
0.056354102 -0.067367002 0.83399999 4283716407
0.063395999 -0.072857603 0.90200001 4283781946
0.068616703 -0.075924702 0.94 4283716407
0.071999297 -0.0768108 0.95099998 4283847993
0.074892297 -0.077131398 0.95499998 4283519287
0.077644497 -0.077290401 0.95700002 4283848252
0.080239601 -0.077287696 0.95700002 4286216545
0.083007596 -0.077446498 0.95899999 4288387716
0.085607603 -0.077443697 0.95899999 4288650633
0.088299297 -0.0775216 0.95999998 4287136622
0.0908067 -0.0774379 0.95899999 4287398764
0.093405902 -0.077434801 0.95899999 4287530605
0.095904604 -0.077350996 0.958 4287859822
0.098706096 -0.077509299 0.95999998 4287662443
0.101307 -0.077505998 0.95999998 4287399785
0.103799 -0.077422 0.95899999 4287465324
0.106508 -0.0774993 0.95999998 4287465324
0.108994 -0.077415101 0.95899999 4288057463
0.111708 -0.077492297 0.95999998 4286149464
0.114426 -0.077569403 0.96100003 4287136866
0.117028 -0.077565797 0.96100003 4288386680
0.119629 -0.077561997 0.96100003 4288584059
0.122103 -0.077477597 0.95999998 4288584573
0.124961 -0.077635102 0.96200001 4288847745
0.12743101 -0.077550501 0.96100003 4288321401
0.129896 -0.077465802 0.95999998 4287663987
0.132355 -0.077381097 0.95899999 4287729266
0.134948 -0.077376999 0.95899999 4287795320
0.13711201 -0.077130899 0.95599997 4287268980
0.139697 -0.077126697 0.95599997 4286019690
0.142281 -0.077122502 0.95599997 4284246121
0.145017 -0.0771989 0.95700002 4288189829
0.14775801 -0.077275202 0.958 4287465577
0.150346 -0.077270903 0.958 4287136612
0.152935 -0.077266403 0.958 4287597164
0.155361 -0.077181302 0.95700002 4287596912
0.15794601 -0.077176802 0.95700002 4287465326
0.16053 -0.077172302 0.95700002 4287793777
0.163114 -0.077167697 0.95700002 4287859570
0.165525 -0.0770825 0.95599997 4287991154
0.168106 -0.077077799 0.95599997 4287859568
0.170508 -0.076992497 0.95499998 4287531119
0.173085 -0.076987803 0.95499998 4287860084
0.175478 -0.076902397 0.954 4287662705
0.178425 -0.077058896 0.95599997 4287400047
0.181004 -0.077054098 0.95599997 4287597426
0.18339001 -0.0769687 0.95499998 4287596912
0.185771 -0.076883197 0.954 4287925877
0.188146 -0.076797798 0.95300001 4287728498
0.190915 -0.076873504 0.954 4288056947
0.19328301 -0.076788001 0.95300001 4287926129
0.195852 -0.076783098 0.95300001 4287991922
0.19862799 -0.076858699 0.954 4287465578
0.20098799 -0.076773196 0.95300001 4287334508
0.20334101 -0.076687701 0.95200002 4287334769
0.205689 -0.076602198 0.95099998 4287531894
0.208032 -0.076516703 0.94999999 4287531894
0.21036801 -0.0764312 0.949 4287860345
0.212475 -0.076265201 0.94700003 4287663219
0.215251 -0.076340698 0.94800001 4287531885
0.218033 -0.076416299 0.949 4287860852
0.220587 -0.076411404 0.949 4287598194
0.22290599 -0.076325901 0.94800001 4287597426
0.225219 -0.076240502 0.94700003 4287466355
0.227285 -0.076074503 0.94499999 4287203183
0.229828 -0.076069601 0.94499999 4287729527
0.232124 -0.075984202 0.94400001 4287795320
0.234414 -0.075898901 0.94300002 4287597941
0.236699 -0.075813502 0.94199997 4287860599
0.238978 -0.0757282 0.94099998 4287794806
0.24176399 -0.075803898 0.94199997 4287728759
0.24377801 -0.075638197 0.94 4287991931
0.246567 -0.075713903 0.94099998 4287860859
0.248831 -0.075628698 0.94 4287794552
0.251625 -0.075704403 0.94099998 4287728245
0.254154 -0.075699799 0.94099998 4287728498
0.25641 -0.075614698 0.94 4287794291
0.25893599 -0.075610101 0.94 4288188533
0.26146099 -0.075605497 0.94 4287859578
0.263706 -0.075520597 0.93900001 4287334001
0.26594499 -0.075435698 0.93800002 4287531634
0.268179 -0.075350903 0.93699998 4287268462
0.27069601 -0.0753465 0.93699998 4287268462
0.272921 -0.075261801 0.93599999 4287400048
0.275141 -0.075177103 0.935 4287334255
0.27824599 -0.0753337 0.93699998 4286807657
0.28106201 -0.075409897 0.93800002 4286873704
0.28297701 -0.075245 0.93599999 4286742378
0.28518501 -0.0751606 0.935 4286741864
0.287081 -0.074995898 0.93300003 4286610278
0.28989699 -0.0750724 0.93400002 4286215520
0.29240599 -0.075068504 0.93400002 4286609762
0.29523 -0.075145103 0.935 4286807141
0.29742199 -0.075061001 0.93400002 4286543971
0.29960999 -0.0749771 0.93300003 4286412385
0.301792 -0.074893199 0.93199998 4286412889
0.303642 -0.074729003 0.93000001 4286545245
0.30581099 -0.074645303 0.92900002 4286216280
0.30797401 -0.074561603 0.92799997 4286610278
0.310467 -0.0745584 0.92799997 4286543212
0.31296 -0.0745553 0.92799997 4286675567
0.31579301 -0.074632697 0.92900002 4286413153
0.31828901 -0.074629702 0.92900002 4287005541
0.32113099 -0.074707203 0.93000001 4286939748
0.32363001 -0.074704498 0.93000001 4286677092
0.32683101 -0.074862503 0.93199998 4287203182
0.33074901 -0.075181298 0.93599999 4287400562
0.334333 -0.075419798 0.93900001 4287663734
0.33793399 -0.075658403 0.94199997 4287531894
0.34119001 -0.075816803 0.94400001 4287860859
0.34482101 -0.076055601 0.94700003 4287597687
0.34773499 -0.076133899 0.94800001 4287927418
0.349177 -0.0758911 0.94499999 4287664246
0.35023099 -0.075568102 0.94099998 4287795832
0.350889 -0.075164899 0.93599999 4287598453
0.35189801 -0.0748422 0.93199998 4286677098
0.35478699 -0.074921101 0.93300003 4287334773
0.35883099 -0.075241096 0.93699998 4287795324
0.36328301 -0.075641498 0.94199997 4288124289
0.36698601 -0.075881399 0.94499999 4287795840
0.369923 -0.075960897 0.94599998 4287729531
0.372473 -0.075960197 0.94599998 4287532152
0.37542 -0.076039903 0.94700003 4287795840
0.37757501 -0.075959302 0.94599998 4287532666
0.38052899 -0.076039299 0.94700003 4287598714
0.383084 -0.076039203 0.94700003 4288585609
0.38564 -0.076039299 0.94700003 4287532919
0.388197 -0.076039501 0.94700003 4287532919
0.390342 -0.075959697 0.94599998 4288256383
0.392483 -0.075879902 0.94499999 4287401588
0.39461899 -0.075800397 0.94400001 4287861884
0.39801401 -0.075961903 0.94599998 4287927163
0.40141901 -0.076123603 0.94800001 4288124542
0.40398499 -0.076124899 0.94800001 4288124544
0.406122 -0.076045997 0.94700003 4287532147
0.408687 -0.076047704 0.94700003 4286676324
0.41168699 -0.076129802 0.94800001 4287202152
0.41338301 -0.075971201 0.94599998 4286807134
0.41594899 -0.075973399 0.94599998 4287267685
0.417631 -0.075815201 0.94400001 4287004513
0.420194 -0.075817801 0.94400001 4286675547
0.42275801 -0.075820602 0.94400001 4286873694
0.42622399 -0.075984299 0.94599998 4287136866
0.42879701 -0.075987503 0.94599998 4287333731
0.43136999 -0.075990997 0.94599998 4286478168
0.433487 -0.075914301 0.94499999 4286149204
0.43652201 -0.0759985 0.94599998 4287596650
0.438636 -0.075922303 0.94499999 4286741855
0.44121301 -0.075926602 0.94499999 4286873441
0.443322 -0.0758508 0.94400001 4287136359
0.445427 -0.075775303 0.94300002 4287202922
0.448479 -0.075860597 0.94400001 4287071083
0.452016 -0.076026604 0.94599998 4286808171
0.45604599 -0.0762733 0.949 4286545259
0.45912701 -0.076359399 0.94999999 4285755743
0.459786 -0.076043896 0.94599998 4284901462
0.46189201 -0.0759698 0.94499999 4283191358
0.463994 -0.075895898 0.94400001 4287665282
0.46757501 -0.076063499 0.94599998 4287467903
0.47116899 -0.076231398 0.94800001 4287466873
0.47427699 -0.076319098 0.949 4286216808
0.47638699 -0.076246299 0.94800001 4280887320
0.476473 -0.075851999 0.94300002 4279506436
0.476533 -0.075457901 0.93800002 4282073131
0.47758999 -0.075224899 0.935 4286876281
0.48017401 -0.075233497 0.935 4288652692
0.482243 -0.075162001 0.93400002 4287863175
0.48431 -0.075090699 0.93300003 4287863175
0.48637301 -0.075019702 0.93199998 4287731075
0.48895901 -0.075029403 0.93199998 4287467903
0.49101901 -0.074959002 0.93099999 4287402111
0.49254599 -0.0748083 0.92900002 4287598976
0.49513099 -0.074818902 0.92900002 4287598976
0.49611199 -0.074588299 0.926 4287729794
0.497078 -0.0743578 0.92299998 4287664001
0.49857199 -0.0742082 0.921 4287532658
-0.19902 -0.078351401 0.94099998 4289176720
-0.196485 -0.0783564 0.94099998 4289373845
-0.19374301 -0.078278199 0.94 4288716428
-0.191007 -0.078199901 0.93900001 4288913807
-0.18787301 -0.077955 0.93599999 4288453256
-0.184954 -0.0777933 0.93400002 4288058243
-0.182436 -0.077798203 0.93400002 4288191113
-0.181073 -0.078302898 0.94 4283059519
-0.179488 -0.078724399 0.94499999 4287993488
-0.17749999 -0.078979202 0.94800001 4287336581
-0.174943 -0.078984097 0.94800001 4284835424
-0.172567 -0.079072297 0.949 4283715410
-0.17000601 -0.079077102 0.949 4287136900
-0.16726799 -0.078998499 0.94800001 4288124291
-0.164709 -0.079003297 0.94800001 4288519049
-0.16249201 -0.079174697 0.94999999 4288255877
-0.159927 -0.079179399 0.94999999 4288387463
-0.15703 -0.079017296 0.94800001 4288519049
-0.15414301 -0.078855202 0.94599998 4288848014
-0.151748 -0.078943104 0.94700003 4288847761
-0.15029199 -0.0795312 0.954 4288979600
-0.149572 -0.080536097 0.96600002 4289045393
-0.1497 -0.082041398 0.98400003 4288782735
-0.151971 -0.084797502 1.017 4288782735
-0.15729199 -0.089388303 1.072 4288782735
-0.165916 -0.096064202 1.152 4288782735
-0.167605 -0.098904699 1.186 4288849042
-0.16536801 -0.099493697 1.193 4289177754
-0.161869 -0.099332102 1.191 4289244063
-0.15877999 -0.0994206 1.192 4289112738
-0.154772 -0.098925099 1.186 4289770152
-0.14887901 -0.097178303 1.165 4289704098
-0.073718503 -0.051391002 0.616 4287204506
-0.071231999 -0.050809301 0.60900003 4286088334
-0.069240101 -0.050561301 0.60600001 4286549399
-0.067375802 -0.050396699 0.60399997 4287471015
-0.065522201 -0.050232101 0.602 4288392117
-0.063679203 -0.050067302 0.60000002 4289115586
-0.061743401 -0.049819101 0.597 4289247432
-0.0600251 -0.049737699 0.59600002 4289181126
-0.058508102 -0.049823102 0.597 4289181639
-0.056985501 -0.049908601 0.59799999 4288918466
-0.055457201 -0.049993899 0.59899998 4288721341
-0.053923301 -0.050079301 0.60000002 4288589755
-0.052122399 -0.0499142 0.59799999 4288523962
-0.0504166 -0.0498324 0.597 4288589755
-0.048797801 -0.049834199 0.597 4288457656
-0.0472579 -0.0499193 0.59799999 4288852414
-0.0457124 -0.0500044 0.59899998 4288589242
-0.044161301 -0.0500894 0.60000002 4288589496
-0.042533699 -0.050090998 0.60000002 4288063152
-0.040906001 -0.050092399 0.60000002 4287997359
-0.039278202 -0.0500938 0.60000002 4287865773
-0.037587501 -0.050011698 0.59899998 4288063152
-0.035962101 -0.050012998 0.59899998 4287799979
-0.0343366 -0.050014202 0.59899998 4288063151
-0.032765601 -0.0500989 0.60000002 4287602600
-0.031189 -0.050183602 0.60100001 4287668393
-0.029607 -0.050268199 0.602 4288063151
-0.0279264 -0.050185699 0.60100001 4288128944
-0.0263387 -0.0502702 0.602 4287997358
-0.0247044 -0.050271101 0.602 4287734186
-0.023070101 -0.050271899 0.602 4288194991
-0.0214356 -0.050272699 0.602 4287602854
-0.019801101 -0.0502735 0.602 4287602340
-0.0181062 -0.050107099 0.60000002 4287141789
-0.0164495 -0.0500242 0.59899998 4287009949
-0.014823 -0.0500248 0.59899998 4286812054
-0.0132845 -0.050359402 0.60299999 4286810511
-0.0117436 -0.050777402 0.60799998 4285428854
-0.0102418 -0.0515294 0.61699998 4282928458
-0.0087328199 -0.052531999 0.62900001 4281875770
-0.0071697701 -0.053617999 0.64200002 4282137911
-0.00549383 -0.054286402 0.64999998 4282729273
-0.0037629399 -0.054787599 0.65600002 4282729012
-0.0019934101 -0.055121802 0.66000003 4282663217
-0.00020274799 -0.055622902 0.66600001 4282531886
0.0016205 -0.056124002 0.67199999 4282400300
0.0034660799 -0.056458 0.676 4282728752
0.0053333798 -0.056791902 0.68000001 4282795058
0.00722238 -0.057125799 0.68400002 4282729010
0.0091463597 -0.057543099 0.68900001 4282400045
0.0110815 -0.057876699 0.69300002 4282400045
0.013057 -0.058293901 0.69800001 4282268459
0.0150382 -0.058627401 0.70200002 4282531633
0.017041 -0.0589609 0.70599997 4282531631
0.0190387 -0.0592108 0.70899999 4282531886
0.0211413 -0.059711199 0.71499997 4282466093
0.0232764 -0.060211401 0.72100002 4282597677
0.025479101 -0.060795099 0.72799999 4282400553
0.0277573 -0.061462201 0.736 4282400553
0.0300385 -0.062045801 0.74299997 4282860849
0.032400701 -0.062712699 0.75099999 4282992435
0.034668699 -0.063129 0.75599998 4283124276
0.037012201 -0.063628703 0.76200002 4283452986
0.039285701 -0.063961402 0.76599997 4283584827
0.041634701 -0.064377502 0.77100003 4283913790
0.043954 -0.064709902 0.77499998 4283716666
0.046235401 -0.064958803 0.778 4283453239
0.0488437 -0.065625101 0.78600001 4283519285
0.0518195 -0.066708699 0.79900002 4283914043
0.056554802 -0.069879398 0.83700001 4283914043
0.063464098 -0.075387403 0.903 4283321908
0.068322398 -0.078140102 0.93599999 4283519285
0.071542598 -0.078888997 0.94499999 4283848250
0.074340798 -0.079136901 0.94800001 4283519287
0.076992802 -0.079217702 0.949 4283585080
0.079566099 -0.079214998 0.949 4286874475
0.082225703 -0.079295702 0.94999999 4288453254
0.084801301 -0.079292797 0.94999999 4287927165
0.087468497 -0.0793733 0.95099998 4287596406
0.090046197 -0.079370297 0.95099998 4287596659
0.092623599 -0.079367198 0.95099998 4287399533
0.095300801 -0.0794475 0.95200002 4287465064
0.098085903 -0.0796111 0.954 4287794029
0.100671 -0.0796078 0.954 4287860082
0.10293 -0.0793541 0.95099998 4287531119
0.105506 -0.079350598 0.95099998 4288123254
0.107968 -0.079263598 0.94999999 4286412122
0.110773 -0.0794269 0.95200002 4288584059
0.113708 -0.079673499 0.95499998 4287465064
0.116293 -0.079669803 0.95499998 4286346582
0.11863 -0.079499103 0.95300001 4287465578
0.121082 -0.079411797 0.95200002 4288189815
0.123918 -0.079574697 0.954 4288781954
0.126499 -0.079570703 0.954 4288256124
0.12880901 -0.079399802 0.95200002 4287466354
0.131246 -0.079312302 0.95099998 4287532147
0.133678 -0.079224803 0.94999999 4287729786
0.13596 -0.079053797 0.94800001 4287006838
0.138523 -0.079049498 0.94800001 4284572758
0.14123499 -0.079128601 0.949 4285427571
0.144255 -0.079374403 0.95200002 4288124805
0.146828 -0.079369999 0.95200002 4286808417
0.1494 -0.079365499 0.95200002 4286741854
0.151813 -0.079277597 0.95099998 4286807648
0.15438201 -0.079273 0.95099998 4286675555
0.157116 -0.079351798 0.95200002 4286543969
0.159519 -0.079263799 0.95099998 4286807141
0.16208699 -0.079259098 0.95099998 4286478176
0.164308 -0.079087697 0.949 4286807396
0.167046 -0.079166301 0.94999999 4287070568
0.16960999 -0.079161502 0.94999999 4286807141
0.17217401 -0.079156697 0.94999999 4287267692
0.17455301 -0.079068497 0.949 4287070568
0.17711399 -0.079063602 0.949 4287267947
0.180052 -0.079225302 0.95099998 4287333738
0.18261699 -0.079220399 0.95099998 4287465326
0.18518201 -0.0792154 0.95099998 4287596659
0.187548 -0.079127103 0.94999999 4287662450
0.190309 -0.079205401 0.95099998 4287860084
0.192467 -0.079033799 0.949 4288057463
0.195025 -0.0790288 0.949 4287795059
0.19758201 -0.079023696 0.949 4287992438
0.200139 -0.079018697 0.949 4287794805
0.202482 -0.078930303 0.94800001 4287729012
0.20481899 -0.078841999 0.94700003 4287992185
0.207151 -0.078753598 0.94599998 4287926392
0.20947701 -0.078665301 0.94499999 4287860599
0.211797 -0.078576997 0.94400001 4287860082
0.21456499 -0.078655198 0.94499999 4287992184
0.21710899 -0.078650102 0.94499999 4287926906
0.219652 -0.078644998 0.94499999 4287729527
0.22195999 -0.078556702 0.94400001 4287795066
0.224738 -0.078634903 0.94499999 4287860860
0.226559 -0.078380197 0.94199997 4287531894
0.22885001 -0.0782919 0.94099998 4287860859
0.23088901 -0.0781205 0.93900001 4288124031
0.23316599 -0.0780323 0.93800002 4287663480
0.23543701 -0.077944197 0.93699998 4288057724
0.237703 -0.077856101 0.93599999 4287728759
0.240476 -0.077934302 0.93699998 4287531894
0.24299499 -0.0779294 0.93699998 4287531894
0.245776 -0.078007698 0.93800002 4287466614
0.24829701 -0.0780029 0.93800002 4287663734
0.25081801 -0.077998102 0.93800002 4287926129
0.25306901 -0.077910103 0.93699998 4288057201
0.25504199 -0.077739097 0.935 4288122993
0.25755399 -0.077734403 0.935 4288056687
0.25978801 -0.077646598 0.93400002 4287728243
0.26201701 -0.077558801 0.93300003 4287662452
0.26424 -0.077471197 0.93199998 4287465587
0.266743 -0.0774666 0.93199998 4287202415
