# .PCD v0.7 - Point Cloud Data file format
VERSION 0.7
FIELDS x y z rgb
SIZE 4 4 4 4
TYPE F F F U
COUNT 1 1 1 1
WIDTH 1211
HEIGHT 1
VIEWPOINT 0 0 0 1 0 0 0
POINTS 1211
DATA ascii
0.081342503 0.35657001 1.08 4284044879
0.0843364 0.35689601 1.081 4284308051
0.0874971 0.35788301 1.084 4284176205
0.090507001 0.35820901 1.085 4284439377
0.093522303 0.35853499 1.086 4284176204
0.096454002 0.358531 1.086 4284242251
0.099660203 0.35951799 1.089 4284242251
0.1026 0.35951301 1.089 4284571214
0.105733 0.36016899 1.091 4284242249
0.108578 0.359835 1.09 4283847754
0.111725 0.36048999 1.092 4283782475
0.114778 0.360816 1.0930001 4283979854
0.117943 0.361471 1.095 4284637017
0.120898 0.361467 1.095 4284373845
0.123967 0.361792 1.096 4284242259
0.12704 0.36211699 1.097 4284570710
0.13000099 0.36211199 1.097 4284044366
0.132961 0.36210701 1.097 4284307538
0.135921 0.362102 1.097 4284110673
0.13926101 0.36308801 1.1 4285097568
0.14222901 0.363083 1.1 4284834396
0.145329 0.363408 1.101 4284373844
0.148165 0.36307201 1.1 4284439377
0.151133 0.363067 1.1 4284636756
0.15438101 0.363722 1.102 4284899927
0.15749601 0.36404699 1.103 4284439630
0.16061801 0.36437199 1.104 4284373837
0.163596 0.36436701 1.104 4284374097
0.16672499 0.364692 1.105 4284636755
0.16985901 0.365017 1.1059999 4284834649
0.17268699 0.36468199 1.105 4283650375
0.17550801 0.36434701 1.104 4284242258
0.17864799 0.36467201 1.105 4284637017
0.181793 0.364997 1.1059999 4284374359
0.18511 0.36565199 1.108 4284505431
0.187759 0.36498699 1.1059999 4285229153
0.190742 0.36498201 1.1059999 4284834649
0.193725 0.364977 1.1059999 4285426271
0.197064 0.36563301 1.108 4283979079
0.200233 0.36595801 1.109 4284570962
0.203041 0.365623 1.108 4285360740
0.206029 0.365619 1.108 4284965982
0.20863999 0.36495501 1.1059999 4284440152
0.211814 0.36528099 1.107 4284834910
0.2148 0.36527699 1.107 4285492325
0.217786 0.365273 1.107 4285689704
0.220771 0.36526901 1.107 4284769117
0.223353 0.36460501 1.105 4286217077
0.226128 0.364272 1.104 4286546044
0.22848301 0.363278 1.101 4285428078
0.231663 0.36360499 1.102 4285493870
0.23463599 0.36360201 1.102 4285690735
0.238039 0.364259 1.104 4285756526
0.24079899 0.36392701 1.103 4285624681
0.243332 0.36326399 1.101 4285755497
0.245855 0.362602 1.099 4285755497
0.24881899 0.3626 1.099 4286742392
0.252013 0.362928 1.1 4286742907
0.254749 0.36259699 1.099 4287204488
0.25748 0.36226499 1.098 4287665040
0.25973099 0.361274 1.095 4287731093
0.262925 0.36160299 1.096 4287665300
0.265883 0.36160299 1.096 4288060574
0.26883999 0.36160201 1.096 4286876301
0.271054 0.360612 1.0930001 4288060575
0.27400401 0.36061299 1.0930001 4288258210
0.276701 0.36028299 1.092 4287402901
0.279136 0.359624 1.09 4287600023
0.281562 0.35896501 1.0880001 4288455332
0.284237 0.35863701 1.087 4287929245
0.287173 0.358639 1.087 4288981934
0.290108 0.358641 1.087 4289377206
0.29277399 0.35831299 1.086 4288850864
0.29516301 0.357656 1.084 4289903552
0.29754099 0.35699901 1.082 4289245622
0.299909 0.356343 1.08 4288916657
0.302266 0.35568699 1.0779999 4290165954
0.30461299 0.35503101 1.076 4289639610
0.30695 0.35437599 1.074 4290099904
0.30956501 0.35405099 1.073 4289507767
0.31159201 0.35306701 1.0700001 4289113267
0.31419101 0.352743 1.069 4290626506
0.31648901 0.35208899 1.067 4290363848
0.31937599 0.35209599 1.067 4290034883
0.32196 0.35177299 1.066 4289705918
0.32393101 0.35079101 1.063 4290890192
0.3265 0.35046899 1.062 4291219157
0.32844499 0.34948701 1.059 4290232517
0.330374 0.348506 1.056 4290363334
0.33228701 0.34752601 1.053 4290758091
0.33482099 0.347206 1.052 4290823884
0.33670899 0.34622601 1.049 4290561227
0.33825701 0.344917 1.045 4290693327
0.339784 0.34360799 1.041 4291615459
0.34096101 0.34197 1.036 4290365906
0.342444 0.340662 1.0319999 4290694871
0.34357101 0.33902499 1.027 4290562771
0.34534699 0.33804801 1.024 4290496464
0.34676701 0.336741 1.02 4290298055
0.348851 0.33609599 1.018 4291087056
0.35023499 0.33478999 1.0140001 4288849837
0.352294 0.33414599 1.012 4288257954
0.35469401 0.333832 1.011 4289047469
0.35779601 0.33417901 1.012 4288587172
0.360549 0.33419701 1.012 4287731863
0.363662 0.33454499 1.013 4286613382
0.366781 0.33489501 1.0140001 4285429365
0.371364 0.336566 1.0190001 4285955452
0.375976 0.338238 1.024 4285297522
0.38246599 0.34156299 1.034 4284310625
0.395345 0.35050401 1.061 4283915867
0.41212699 0.36275199 1.098 4283849559
0.424575 0.37103701 1.123 4284112985
0.43068701 0.373707 1.131 4283586126
0.43492699 0.374726 1.1339999 4282138419
0.43841201 0.375085 1.135 4282335284
0.44229299 0.37577599 1.137 4282795833
0.445795 0.37613699 1.138 4282335282
0.44930401 0.376499 1.1390001 4282467382
0.452025 0.376201 1.138 4282861626
0.455143 0.37623399 1.138 4282927419
0.45866501 0.37659901 1.1390001 4282401591
0.46178901 0.376634 1.1390001 4282400824
0.464506 0.37634 1.138 4282927166
0.46763101 0.37637699 1.138 4281743147
0.47034401 0.37608501 1.137 4281743145
0.47305399 0.37579301 1.136 4282335284
0.476179 0.37583399 1.136 4282993214
0.47888401 0.37554401 1.135 4282400559
0.48158601 0.375256 1.1339999 4282532145
0.48428401 0.37496799 1.133 4282400300
0.48697901 0.37468201 1.132 4282334507
0.49010399 0.37472701 1.132 4282203435
0.49235901 0.37411201 1.13 4281743399
0.49548301 0.37415999 1.13 4282730556
0.49816701 0.373878 1.1289999 4283256645
-0.199854 0.35576701 1.087 4287137930
-0.19656 0.35511699 1.085 4286414207
-0.19399101 0.35577601 1.087 4286940551
-0.19123501 0.35610801 1.0880001 4286742917
-0.188301 0.35611299 1.0880001 4286677124
-0.185196 0.355791 1.087 4287401361
-0.182264 0.35579601 1.087 4287796119
-0.179497 0.35612801 1.0880001 4287598740
-0.176725 0.35646001 1.089 4288322463
-0.17394701 0.35679299 1.09 4287861912
-0.170693 0.356143 1.0880001 4287400847
-0.167604 0.35582101 1.087 4288190363
-0.164369 0.35517201 1.085 4287927191
-0.16159099 0.35550401 1.086 4288321951
-0.15866099 0.35551 1.086 4287927705
-0.15573099 0.355515 1.086 4288914600
-0.15280101 0.35552001 1.086 4288387997
-0.14987101 0.35552499 1.086 4287664786
-0.146806 0.355203 1.085 4287730579
-0.143878 0.35520801 1.085 4287993751
-0.14082099 0.354886 1.084 4287928212
-0.137896 0.354891 1.084 4287862419
-0.135096 0.35522401 1.085 4287862165
-0.13216799 0.35522899 1.085 4287927958
-0.12912101 0.35490701 1.084 4287796374
-0.125962 0.35425699 1.082 4287796374
-0.122929 0.35393399 1.081 4287730840
-0.120122 0.354267 1.082 4287862426
-0.117202 0.35427099 1.082 4287862426
-0.114282 0.354276 1.082 4288388770
-0.111464 0.354608 1.0829999 4288322979
-0.108541 0.35461301 1.0829999 4287862428
-0.105618 0.35461801 1.0829999 4288915116
-0.102599 0.35429499 1.082 4289047217
-0.099402301 0.35331699 1.079 4288126115
-0.096400097 0.35299301 1.0779999 4288783791
-0.093403101 0.35267001 1.077 4288717484
-0.090495497 0.35267401 1.077 4289573561
-0.087587804 0.352678 1.077 4289705147
-0.084601402 0.352355 1.076 4290428870
-0.081772096 0.35268599 1.077 4290231491
-0.078791 0.35236201 1.076 4290955214
-0.075673997 0.351383 1.073 4290692299
-0.072641097 0.350732 1.071 4289771197
-0.069618799 0.35008001 1.069 4289639354
-0.066669703 0.349756 1.068 4289902783
-0.063725904 0.34943199 1.067 4290034115
-0.060730401 0.34878001 1.0650001 4290428873
-0.057745699 0.34812701 1.063 4290560459
-0.054874901 0.34812999 1.063 4290495436
-0.051955201 0.34780499 1.062 4290758608
-0.048948299 0.346825 1.059 4290889424
-0.0460447 0.34650001 1.058 4291020753
-0.043146301 0.34617499 1.057 4290757581
-0.040291499 0.34617701 1.057 4290560202
-0.0373303 0.34519601 1.054 4290889421
-0.034450799 0.34487 1.053 4290494663
-0.0315766 0.34454501 1.052 4290626249
-0.028680401 0.34389099 1.05 4289836732
-0.0257705 0.34290999 1.0470001 4289638839
-0.022898501 0.34225601 1.045 4289704632
-0.0200566 0.34193 1.044 4288915631
-0.0172201 0.34160301 1.043 4289113010
-0.0143889 0.34127599 1.0420001 4289573046
-0.0115743 0.341277 1.0420001 4288191393
-0.0087595899 0.341277 1.0420001 4288717221
-0.0059392001 0.34095001 1.041 4288782755
-0.0031242 0.34062299 1.04 4287862165
-0.000314595 0.340296 1.039 4288256925
0.0024896101 0.339968 1.038 4287994781
0.0052884002 0.33963999 1.0369999 4287534231
0.0080973897 0.339968 1.038 4288322977
0.0109013 0.33996701 1.038 4286875017
0.0137051 0.339966 1.038 4286150519
0.016493101 0.33963799 1.0369999 4286018931
0.0192942 0.33963701 1.0369999 4285756012
0.0221166 0.339964 1.038 4285821807
0.0249444 0.34029001 1.039 4285821552
0.027750799 0.340289 1.039 4285558380
0.0305572 0.340287 1.039 4285821807
0.033363599 0.34028599 1.039 4285361256
0.036239602 0.34093899 1.041 4284835165
0.039088801 0.34126499 1.0420001 4284769370
0.041903101 0.341263 1.0420001 4284571991
0.044846199 0.34224299 1.045 4284374614
0.047851 0.34355101 1.049 4284571738
0.050877299 0.34485799 1.053 4284637531
0.053874198 0.34583801 1.056 4284505945
0.056887198 0.346818 1.059 4284111187
0.059916399 0.34779799 1.062 4284505945
0.062961698 0.348777 1.0650001 4283913808
0.066023096 0.34975699 1.068 4285098082
0.0691652 0.35106301 1.072 4284110673
0.072194397 0.351715 1.074 4284768603
0.075304203 0.352694 1.077 4284044879
0.078357503 0.35334501 1.079 4284176465
0.081496798 0.35432401 1.082 4284308051
0.0844182 0.35431999 1.082 4284111442
0.087500997 0.35497099 1.084 4284242512
0.090511002 0.355295 1.085 4284703062
0.093526401 0.355618 1.086 4283979079
0.096635804 0.356269 1.0880001 4284176456
0.099847503 0.35724699 1.091 4284571214
0.102793 0.357243 1.091 4284637009
0.105932 0.35789299 1.0930001 4284308044
0.108782 0.35756099 1.092 4283847240
0.111934 0.35821101 1.094 4284044619
0.114782 0.35787901 1.0930001 4283979086
0.117948 0.358529 1.095 4284307537
0.121013 0.358852 1.096 4284110672
0.124198 0.359501 1.098 4284110673
0.127277 0.359824 1.099 4283913294
0.130243 0.35981899 1.099 4284110159
0.133329 0.36014101 1.1 4283912780
0.13617399 0.35980901 1.099 4284505431
0.13951901 0.36078599 1.102 4284900189
0.14249299 0.36078 1.102 4284571738
0.14573 0.36142999 1.104 4284637531
0.148305 0.36044201 1.101 4284177235
0.15141299 0.360764 1.102 4284439891
0.154526 0.36108699 1.103 4284308305
0.157787 0.361736 1.105 4284768341
0.160914 0.36205801 1.1059999 4283781700
0.16389801 0.36205301 1.1059999 4284702548
0.167032 0.36237499 1.107 4284899927
0.170018 0.362369 1.107 4284702549
0.173004 0.36236399 1.107 4284241998
0.175831 0.36203101 1.1059999 4284175952
0.178976 0.36235401 1.107 4284965468
0.181798 0.362021 1.1059999 4284439638
0.184948 0.36234301 1.107 4284965984
0.187594 0.36168301 1.105 4285360226
0.19074699 0.36200601 1.1059999 4285031261
0.19373 0.362001 1.1059999 4285294947
0.197069 0.36265001 1.108 4284439637
0.200238 0.362973 1.109 4284571223
0.203045 0.36264101 1.108 4285098337
0.20584799 0.36230901 1.107 4284769372
0.208645 0.36197701 1.1059999 4284177494
0.21162701 0.36197299 1.1059999 4284901217
0.21480399 0.36229599 1.107 4285559402
0.217593 0.36196399 1.1059999 4285230182
0.220576 0.36195999 1.1059999 4284901219
0.22335599 0.36162901 1.105 4286546042
0.226337 0.36162499 1.105 4286349433
0.229109 0.361294 1.104 4285362284
0.232087 0.36129099 1.104 4285953907
0.235064 0.361287 1.104 4285756528
0.237826 0.360957 1.103 4285822319
0.240583 0.36062601 1.102 4286019184
0.24355599 0.36062399 1.102 4286018670
0.246528 0.36062101 1.102 4285689704
0.249274 0.36029199 1.101 4286545014
0.252244 0.36028901 1.101 4286677114
0.254751 0.359633 1.099 4287007109
0.25748101 0.35930401 1.098 4287599247
0.25973201 0.35832101 1.095 4287600277
0.26268601 0.35831901 1.095 4287863449
0.265641 0.358318 1.095 4288126368
0.26835001 0.35799101 1.094 4286613386
0.271054 0.35766301 1.0930001 4287797660
0.27375299 0.357335 1.092 4288718761
0.27669999 0.35733601 1.092 4287600280
0.279392 0.35700899 1.091 4287731609
0.28181899 0.35635501 1.089 4288981676
0.28449801 0.356029 1.0880001 4288126624
0.287435 0.35602999 1.0880001 4288718761
0.290106 0.35570401 1.087 4289442999
0.292772 0.35537899 1.086 4288850864
0.29488799 0.35440001 1.0829999 4290232517
0.297813 0.35440299 1.0829999 4289048243
0.300183 0.353751 1.081 4289245622
0.30254301 0.3531 1.079 4290165954
0.304892 0.352449 1.077 4289639611
0.30723101 0.35179901 1.075 4289902783
0.30956 0.35114899 1.073 4289376439
0.31158701 0.35017201 1.0700001 4289376439
0.31448001 0.350178 1.0700001 4290758092
0.317076 0.34985599 1.069 4290034883
0.31966799 0.34953499 1.068 4289838018
0.321953 0.34888801 1.066 4289706432
0.32422799 0.34823999 1.064 4290824913
0.32649201 0.34759301 1.062 4291219671
0.32874599 0.34694701 1.0599999 4290429641
0.33067799 0.34597301 1.057 4290560713
0.33290899 0.345328 1.0549999 4290626505
0.33449301 0.344028 1.051 4290955470
0.336698 0.34338301 1.049 4290561227
0.33792201 0.341757 1.044 4290759120
0.33944601 0.34045899 1.04 4291549666
0.34062001 0.338833 1.035 4290497492
0.34243199 0.337863 1.0319999 4290694871
0.34422699 0.33689299 1.029 4290562771
0.346008 0.335924 1.026 4290364878
0.34743199 0.33462799 1.022 4291153364
0.348836 0.333332 1.018 4291087056
0.35056499 0.33236501 1.015 4288915884
0.352626 0.331725 1.013 4288192161
0.355028 0.331413 1.012 4289047723
0.357779 0.33142999 1.012 4288389791
0.36017501 0.331119 1.011 4287797654
0.36364299 0.331792 1.013 4286744966
0.36712301 0.33246601 1.015 4285626742
0.37170899 0.33412299 1.02 4285758073
0.37595499 0.335453 1.024 4285100143
0.382074 0.338422 1.033 4284705385
0.394205 0.346634 1.058 4284639592
0.41172701 0.35943601 1.097 4284507490
0.424171 0.367652 1.122 4284178010
0.43028 0.37029901 1.13 4283585357
0.43451601 0.37130901 1.133 4282137905
0.43799701 0.371665 1.1339999 4282664247
0.44148499 0.372022 1.135 4282532915
0.44498101 0.372379 1.136 4282664247
0.44848299 0.37273699 1.137 4282270003
0.45199299 0.373097 1.138 4282138417
0.455109 0.37312901 1.138 4282335543
0.45822799 0.37316301 1.138 4282203957
0.461348 0.37319699 1.138 4282466615
0.46406201 0.372904 1.137 4282532922
0.46718299 0.37294099 1.137 4281940526
0.46947899 0.37232199 1.135 4282072110
0.47259799 0.37235999 1.135 4282532663
0.47530001 0.372071 1.1339999 4282533177
0.477577 0.37145501 1.132 4282401075
0.480694 0.37149701 1.132 4282466868
0.48338601 0.37121099 1.131 4282400561
0.48693401 0.37158301 1.132 4282203435
0.48962501 0.371299 1.131 4282532400
0.49231201 0.37101701 1.13 4282006571
0.495435 0.37106299 1.13 4282598970
0.49811801 0.370783 1.1289999 4283191107
-0.196927 0.352846 1.087 4286479998
-0.19453099 0.35382399 1.09 4286282621
-0.19159199 0.353829 1.09 4286874503
-0.18865199 0.35383499 1.09 4287006089
-0.185542 0.353515 1.089 4287203982
-0.182604 0.35352001 1.089 4287467154
-0.179832 0.35385001 1.09 4287269775
-0.176892 0.353856 1.09 4288059291
-0.17411201 0.354186 1.091 4287533202
-0.170698 0.35321701 1.0880001 4287203468
-0.167455 0.35257301 1.086 4288190363
-0.16437399 0.352254 1.085 4287861398
-0.161447 0.35225901 1.085 4288256156
-0.158666 0.35258901 1.086 4288190877
-0.155736 0.352595 1.086 4288717221
-0.152807 0.35260001 1.086 4288256925
-0.149877 0.352606 1.086 4287598993
-0.146946 0.35261101 1.086 4287927958
-0.143751 0.35196701 1.084 4287796372
-0.140826 0.35197201 1.084 4287928212
-0.138028 0.35230201 1.085 4287730579
-0.135225 0.35263199 1.086 4287598993
-0.132173 0.35231301 1.085 4287730579
-0.129007 0.35166901 1.0829999 4287598995
-0.12596799 0.351349 1.082 4287994267
-0.122934 0.35102901 1.081 4287467668
-0.120127 0.35135901 1.082 4287796633
-0.117315 0.35168901 1.0829999 4287928219
-0.114392 0.35169399 1.0829999 4288322977
-0.111469 0.35169899 1.0829999 4288322977
-0.108546 0.35170299 1.0829999 4287862428
-0.105525 0.351383 1.082 4288849323
-0.102509 0.35106301 1.081 4289178288
-0.099406697 0.350418 1.079 4288586152
-0.096493803 0.35042301 1.079 4288980910
-0.093493998 0.35010201 1.0779999 4289178289
-0.090499602 0.34978101 1.077 4289704633
-0.087429099 0.34913599 1.075 4289836733
-0.084526703 0.34913999 1.075 4290231491
-0.081699997 0.34946901 1.076 4289968319
-0.078721397 0.34914801 1.075 4290494663
-0.075748101 0.34882599 1.074 4290692042
-0.072644502 0.34785599 1.071 4290165698
-0.069687203 0.347534 1.0700001 4289770940
-0.066797704 0.34753799 1.0700001 4290231491
-0.063788697 0.34689099 1.068 4289968319
-0.060790401 0.34624499 1.066 4290494409
-0.0578028 0.34559801 1.064 4290626249
-0.054877602 0.345276 1.063 4290428873
-0.051908799 0.34462899 1.061 4291086803
-0.048904501 0.34365699 1.058 4290889424
-0.046003401 0.34333399 1.057 4290954960
-0.043148499 0.343337 1.057 4290625995
-0.0402935 0.343339 1.057 4290757581
-0.037367601 0.342691 1.0549999 4290428616
-0.034485199 0.34236801 1.054 4290560202
-0.031578202 0.34172001 1.052 4290560456
-0.0286819 0.34107199 1.05 4289836733
-0.0257718 0.34009901 1.0470001 4289507254
-0.022921599 0.339775 1.046 4289902526
-0.020057701 0.339127 1.044 4288652459
-0.017221 0.33880299 1.043 4289639354
-0.0143759 0.33815399 1.041 4288849838
-0.0115638 0.338155 1.041 4288257700
-0.0087432303 0.33783001 1.04 4288717221
-0.0059337998 0.33783099 1.04 4288716962
-0.00312736 0.33815601 1.041 4287993751
-0.00031461101 0.337506 1.039 4288191132
0.00248973 0.337181 1.038 4288125853
0.0052886698 0.33685601 1.0369999 4287533716
0.0081056003 0.337506 1.039 4288454304
0.0109018 0.33717999 1.038 4286875272
0.013719 0.33750501 1.039 4286150519
0.016509799 0.33717901 1.038 4286018931
0.019313799 0.33717799 1.038 4285887598
0.0221177 0.33717701 1.038 4285756014
0.0249456 0.33750099 1.039 4285426280
0.0277522 0.33749899 1.039 4285426794
0.0305294 0.33717301 1.038 4286150003
0.033365302 0.33749601 1.039 4285492842
0.036241401 0.338144 1.041 4284835165
0.039053202 0.33814201 1.041 4284637784
0.041905198 0.33846501 1.0420001 4284835163
0.044848401 0.33943701 1.045 4284308821
0.0478989 0.341059 1.05 4284571738
0.050928101 0.342356 1.054 4284374359
0.053876799 0.343003 1.056 4284440152
0.05689 0.34397399 1.059 4284176980
0.059919301 0.344946 1.062 4284308568
0.063023902 0.34624201 1.066 4283913808
0.066088103 0.347213 1.069 4284966496
0.069233 0.34850901 1.073 4284176465
0.072264999 0.34915599 1.075 4284966751
0.075307697 0.34980199 1.077 4284308305
0.078361101 0.35044801 1.079 4284044879
0.081425302 0.35109299 1.081 4283914063
0.084500097 0.35173899 1.0829999 4284242773
0.087585703 0.35238501 1.085 4284176465
0.090515099 0.35238099 1.085 4283913547
0.093530603 0.35270101 1.086 4283978825
0.096640103 0.35334599 1.0880001 4284308042
0.099852003 0.354316 1.091 4284110665
0.102797 0.354312 1.091 4284505169
0.105839 0.35463199 1.092 4284241997
0.108887 0.35495201 1.0930001 4283781193
0.111837 0.354947 1.0930001 4284044365
0.114787 0.35494199 1.0930001 4284241744
0.117953 0.35558701 1.095 4284504916
0.121239 0.356556 1.098 4284439377
0.124316 0.35687599 1.099 4284241744
0.127398 0.35719499 1.1 4284636502
0.130248 0.35686499 1.099 4284175951
0.13333499 0.35718501 1.1 4284439123
0.136427 0.35750401 1.101 4284373845
0.139651 0.35814801 1.103 4284900189
0.142498 0.35781801 1.102 4284571738
0.14547101 0.357813 1.102 4284374359
0.14831001 0.357483 1.101 4284177235
0.151556 0.358127 1.103 4284374612
0.154671 0.358446 1.104 4284637270
0.157793 0.35876501 1.105 4284636755
0.160919 0.35908401 1.1059999 4284505169
0.163903 0.359079 1.1059999 4284439376
0.167188 0.35972199 1.108 4284834134
0.170177 0.35971701 1.108 4285031513
0.17332201 0.36003599 1.109 4284176205
0.175837 0.35905701 1.1059999 4284373331
0.17882 0.35905099 1.1059999 4284702296
0.181639 0.35872099 1.105 4284439385
0.18478601 0.35903999 1.1059999 4284636764
0.18742999 0.35838601 1.104 4284768603
0.19058 0.35870501 1.105 4284965982
0.19356 0.35870001 1.105 4284965982
0.196896 0.35934401 1.107 4284308052
0.20006201 0.35966399 1.108 4284373844
0.20305 0.35965899 1.108 4285163875
0.205852 0.35932899 1.107 4284835424
0.208461 0.358675 1.105 4284374873
0.211632 0.35899499 1.1059999 4284967010
0.214809 0.35931501 1.107 4285362023
0.217794 0.35931 1.107 4285428330
0.22058 0.35898101 1.1059999 4284836194
0.223563 0.35897699 1.1059999 4286415226
0.22675 0.35929799 1.107 4286415226
0.229736 0.359294 1.107 4285428077
0.232721 0.35929 1.107 4285756528
0.23528101 0.35863701 1.105 4285953905
0.23783 0.35798499 1.103 4286150772
0.240586 0.35765699 1.102 4285953393
0.243558 0.35765401 1.102 4285821291
0.24675401 0.35797501 1.103 4286084463
0.249503 0.35764799 1.102 4286808700
0.25224599 0.35732099 1.101 4286875009
0.25452101 0.356345 1.098 4287073417
0.25724801 0.35601801 1.097 4287337105
0.25997001 0.355692 1.096 4287928988
0.262927 0.35569099 1.096 4287402644
0.26588401 0.35568899 1.096 4288126624
0.26835099 0.355039 1.094 4286810764
0.271303 0.35503799 1.094 4288060831
0.27375299 0.35438901 1.092 4288258210
0.27669999 0.354388 1.092 4287600280
0.27939099 0.35406399 1.091 4287665816
0.28207701 0.35374001 1.09 4289113262
0.28501999 0.35374001 1.09 4288192417
0.287698 0.35341701 1.089 4288587176
0.290104 0.35276899 1.087 4289377208
0.29277 0.35244599 1.086 4288785071
0.295158 0.35179901 1.084 4289706173
0.29780999 0.351477 1.0829999 4289311415
0.30017999 0.35082999 1.081 4289311415
0.30282 0.35050899 1.08 4290034368
0.305455 0.350187 1.079 4289705403
0.307513 0.34921801 1.076 4290034368
0.30955499 0.348248 1.073 4289705403
0.31187299 0.34760299 1.071 4289377208
0.31417999 0.34695899 1.069 4290758861
0.31677401 0.34663999 1.068 4289903552
0.319363 0.34632099 1.067 4290035652
0.321946 0.346003 1.066 4289312190
0.32422099 0.34536001 1.064 4290956501
0.32648501 0.34471801 1.062 4291219673
0.32904899 0.344401 1.061 4290430157
0.330356 0.34278601 1.056 4290495434
0.33226901 0.34182101 1.053 4290758092
0.33416501 0.34085599 1.05 4290955985
0.33636701 0.34021601 1.048 4290495948
0.33823499 0.33925301 1.045 4290496464
0.339762 0.337964 1.041 4291681252
0.340938 0.33635199 1.036 4290497493
0.34208801 0.33474001 1.031 4290694872
0.34388 0.33377799 1.028 4290694357
0.34565699 0.332816 1.025 4290496464
0.34673899 0.33120599 1.02 4291087057
0.34813699 0.32991999 1.016 4291021263
0.350205 0.329285 1.0140001 4288652458
0.35261101 0.32897499 1.013 4288257954
0.35536301 0.32899001 1.013 4288915883
0.358116 0.32900599 1.013 4288521379
0.36051399 0.32869801 1.012 4287534484
0.36362499 0.32903999 1.013 4286284415
0.36710501 0.329707 1.015 4285626742
0.37132499 0.331025 1.0190001 4285758328
0.37593499 0.33266801 1.024 4285034348
0.38205299 0.335612 1.033 4284442211
0.39381 0.343431 1.057 4284442211
0.41132799 0.35612601 1.096 4283981146
0.42376801 0.36427301 1.1210001 4283849559
0.43025401 0.36722299 1.13 4283454541
0.43448901 0.36822399 1.133 4282071857
0.437583 0.368251 1.133 4282532663
0.441457 0.368929 1.135 4282598454
0.444168 0.368633 1.1339999 4282401077
0.44766399 0.36898801 1.135 4282401589
0.45116699 0.36934301 1.136 4282270003
0.45507699 0.37002501 1.138 4282730556
0.45819399 0.370058 1.138 4282401591
0.46131399 0.37009099 1.138 4282204212
0.464026 0.36980101 1.137 4282598970
0.46714601 0.369836 1.137 4281677866
0.469441 0.36922199 1.135 4282072110
0.47255999 0.369259 1.135 4282664247
0.475261 0.368972 1.1339999 4282598968
0.47837999 0.369012 1.1339999 4282532661
0.480652 0.36840099 1.132 4282466868
0.483771 0.36844301 1.132 4282598454
0.48646101 0.36816001 1.131 4282466354
0.48958001 0.36820301 1.131 4282203182
0.49226701 0.36792201 1.13 4282137903
0.495388 0.36796799 1.13 4282335284
0.49762899 0.36736399 1.128 4283190593
-0.197295 0.350564 1.089 4286282619
-0.194893 0.35153499 1.092 4286874758
-0.191948 0.35154 1.092 4286940549
-0.18917599 0.351868 1.0930001 4286874758
-0.186058 0.351551 1.092 4287137930
-0.18311299 0.35155699 1.092 4287532433
-0.180003 0.35124001 1.091 4287203982
-0.176898 0.35092399 1.09 4287927191
-0.173958 0.35092899 1.09 4287993239
-0.17101701 0.35093501 1.09 4287335309
-0.167769 0.350297 1.0880001 4287927446
-0.16483399 0.35030201 1.0880001 4287992984
-0.16160101 0.349664 1.086 4288124570
-0.15881801 0.34999099 1.087 4288125084
-0.156029 0.350319 1.0880001 4288849062
-0.153234 0.350647 1.089 4287928472
-0.150158 0.35033 1.0880001 4287599761
-0.146817 0.34937 1.085 4287664786
-0.14362399 0.34873101 1.0829999 4287401614
-0.14070199 0.348737 1.0829999 4287796374
-0.138034 0.34938601 1.085 4287598995
-0.135231 0.34971401 1.086 4287533461
-0.13217799 0.349397 1.085 4287336082
-0.129131 0.34908 1.084 4287534230
-0.12608901 0.348764 1.0829999 4287534230
-0.123053 0.348447 1.082 4287731609
-0.120243 0.34877399 1.0829999 4287863195
-0.117429 0.34910101 1.084 4287797403
-0.114291 0.34846199 1.082 4288322979
-0.111268 0.34814501 1.081 4287994014
-0.10835 0.34815001 1.081 4287730328
-0.105529 0.34847701 1.082 4288848809
-0.102609 0.348481 1.082 4289112495
-0.099503301 0.34784201 1.08 4288848809
-0.096587598 0.347846 1.08 4289111981
-0.093585096 0.34752899 1.079 4289440946
-0.090587802 0.347211 1.0779999 4289309874
-0.087595902 0.34689301 1.077 4289967804
-0.084530599 0.34625301 1.075 4290231490
-0.081703901 0.34657899 1.076 4289902525
-0.078725196 0.34626099 1.075 4290494662
-0.075751796 0.34594199 1.074 4290560455
-0.072580203 0.344657 1.0700001 4289573560
-0.0696906 0.344661 1.0700001 4289376181
-0.066800997 0.34466401 1.0700001 4290165697
-0.063851602 0.344345 1.069 4289968318
-0.0608504 0.34370399 1.067 4290560455
-0.057859998 0.343063 1.0650001 4290494662
-0.054983601 0.34306601 1.0650001 4290626249
-0.051960301 0.34210199 1.062 4291284436
-0.048999399 0.34145999 1.0599999 4291086800
-0.046049301 0.340819 1.058 4290625995
-0.0431915 0.340821 1.058 4290362823
-0.040295601 0.34050101 1.057 4290757581
-0.037404999 0.34018099 1.056 4290560202
-0.034487002 0.33953801 1.054 4290625995
-0.0315798 0.33889601 1.052 4290626249
-0.0286834 0.33825299 1.05 4289573561
-0.0258223 0.33793199 1.049 4289639353
-0.022966599 0.33761099 1.048 4289573560
-0.020077899 0.33664599 1.045 4288257958
-0.017238401 0.33632499 1.044 4289047217
-0.0144042 0.33600399 1.043 4289178803
-0.0115644 0.33535999 1.041 4288191907
-0.0087352702 0.33471599 1.039 4288059807
-0.0059284 0.33471701 1.039 4288717221
-0.0031245199 0.33503899 1.04 4287796119
-0.00031492999 0.33503899 1.04 4288190877
0.00249226 0.33471701 1.039 4288257439
0.00529915 0.33471701 1.039 4287665047
0.0081060203 0.33471599 1.039 4288322463
0.0109129 0.33471599 1.039 4286677638
0.0137329 0.33503699 1.04 4286150265
0.0165425 0.33503699 1.04 4286281851
0.019352 0.33503601 1.04 4286018417
0.022161501 0.335035 1.04 4285689454
0.0249709 0.335033 1.04 4285294696
0.0278071 0.335354 1.041 4285557868
0.0306192 0.33535299 1.041 4285886831
0.033463299 0.335673 1.0420001 4285558380
0.0363129 0.33599299 1.043 4285426535
0.039092701 0.33566901 1.0420001 4285097567
0.041907299 0.33566701 1.0420001 4284439637
0.0448936 0.336954 1.046 4284571477
0.047901399 0.33824 1.05 4284834395
0.050930701 0.339526 1.054 4284966496
0.053930599 0.340489 1.057 4284637531
0.057000302 0.341775 1.061 4283979601
0.059978701 0.34241599 1.063 4284637533
0.063027002 0.34338 1.066 4283782222
0.066153198 0.34466499 1.0700001 4285031774
0.069300897 0.34595001 1.074 4283847754
0.072335698 0.346591 1.076 4284505684
0.0753114 0.34690899 1.077 4284176204
0.078364901 0.34755 1.079 4284044879
0.081504501 0.34851199 1.082 4283979087
0.084504098 0.34883001 1.0829999 4284111187
0.0875898 0.349471 1.085 4283979601
0.090519302 0.349466 1.085 4284045649
0.093621001 0.350106 1.087 4283913547
0.096644603 0.35042399 1.0880001 4284044618
0.099764898 0.351064 1.09 4284241997
0.102802 0.351381 1.091 4284439123
0.105747 0.351376 1.091 4284241744
0.108891 0.352016 1.0930001 4283781194
0.111944 0.35233301 1.094 4283846987
0.114897 0.352328 1.094 4284044366
0.117958 0.35264501 1.095 4284504917
0.121244 0.35360599 1.098 4284504917
0.124321 0.35392299 1.099 4284176465
0.127519 0.354561 1.101 4284439891
0.130371 0.35423401 1.1 4284110925
0.133461 0.35455099 1.101 4284374097
0.13643201 0.354545 1.101 4284834649
0.13965701 0.35518399 1.103 4284834649
0.14250401 0.35485601 1.102 4284834396
0.145477 0.35485101 1.102 4284308566
0.148316 0.354523 1.101 4284111187
0.15156101 0.35516101 1.103 4284571993
0.15453701 0.355156 1.103 4284506198
0.157656 0.355472 1.104 4284505683
0.160925 0.35611001 1.1059999 4284045132
0.163909 0.356105 1.1059999 4284373837
0.167043 0.35642099 1.107 4284965974
0.16987599 0.35609299 1.1059999 4284636755
0.173015 0.35640901 1.107 4283913033
0.175842 0.35608199 1.1059999 4284373077
0.178826 0.356076 1.1059999 4284767835
0.18164399 0.35574901 1.105 4284373592
0.184792 0.35606501 1.1059999 4284834143
0.187775 0.35605901 1.1059999 4284834398
0.190585 0.35573199 1.105 4284768603
0.19374 0.356049 1.1059999 4285097568
0.196723 0.35604301 1.1059999 4284176466
0.200248 0.35700399 1.109 4284374614
0.20305499 0.35667601 1.108 4285295716
0.20585699 0.35634899 1.107 4284901472
0.208465 0.355701 1.105 4284046163
0.21163701 0.35601699 1.1059999 4284770400
0.21481299 0.35633501 1.107 4285165158
0.217995 0.35665199 1.108 4285230951
0.22058401 0.35600299 1.1059999 4284770915
0.22336499 0.35567701 1.105 4286283640
0.22655 0.35599399 1.1059999 4286217847
0.22973999 0.35631201 1.107 4285164905
0.23251501 0.355986 1.1059999 4285822319
0.235072 0.35533801 1.104 4286413942
0.237618 0.354691 1.102 4286019186
0.24059001 0.35468701 1.102 4286084465
0.243562 0.354684 1.102 4285623914
0.246757 0.355003 1.103 4285689707
0.24927901 0.35435599 1.101 4286809216
0.251562 0.353387 1.098 4287072133
0.25406 0.352741 1.096 4287270542
0.257016 0.35273901 1.096 4287665816
0.25997201 0.35273701 1.096 4287797660
0.26292899 0.35273501 1.096 4287534488
0.265643 0.352411 1.095 4287995039
0.26859701 0.35240999 1.095 4287139730
0.271056 0.35176501 1.0930001 4288784554
0.273754 0.35144201 1.092 4288324003
0.276701 0.35144201 1.092 4287468695
0.27939099 0.35111901 1.091 4287534487
0.28259501 0.351441 1.092 4288916140
0.28501901 0.35079801 1.09 4287995553
0.28769699 0.350476 1.089 4288850862
0.28983599 0.34951201 1.086 4289311415
0.29249901 0.34919101 1.085 4288456365
0.294884 0.34854901 1.0829999 4290035138
0.29780799 0.34855101 1.0829999 4288916657
0.2999 0.347588 1.08 4289442999
0.30281699 0.34759 1.08 4290034622
0.304885 0.34662801 1.077 4289245622
0.30722299 0.34598699 1.075 4289969345
0.309551 0.34534699 1.073 4289639610
0.31186801 0.344708 1.071 4289508794
0.31446901 0.34439 1.0700001 4290495689
0.317065 0.344073 1.069 4290035138
0.31935701 0.34343499 1.067 4290100931
0.32163799 0.34279701 1.0650001 4289509053
0.32421401 0.34248099 1.064 4291153878
0.326478 0.34184399 1.062 4291088087
0.329041 0.34152901 1.061 4290627536
0.33097401 0.34057099 1.058 4290627022
0.33289099 0.339614 1.0549999 4290824399
0.33415601 0.33801299 1.05 4290955985
0.33635801 0.337378 1.048 4290364362
0.33790201 0.336099 1.044 4290628050
0.33975101 0.335143 1.041 4291747045
0.340927 0.33354399 1.036 4290694871
0.342076 0.331945 1.031 4290760150
0.34386799 0.330991 1.028 4290694357
0.34564501 0.330037 1.025 4290364362
0.34706599 0.32876101 1.021 4291350228
0.34812301 0.32716399 1.016 4291152592
0.34984499 0.32621199 1.013 4288586665
0.35224801 0.32590401 1.012 4288257954
0.354646 0.325596 1.011 4288192160
0.35774699 0.32593301 1.012 4287534230
0.36014101 0.325627 1.011 4286810761
0.363249 0.325966 1.012 4285560692
0.36708701 0.326949 1.015 4284968555
0.370942 0.32793301 1.018 4285626485
0.37554899 0.32956299 1.023 4285100141
0.38166299 0.33248201 1.0319999 4284573796
0.39416099 0.34087899 1.058 4284442210
0.412056 0.353789 1.098 4284178524
0.42374399 0.36122301 1.1210001 4284376157
0.43022799 0.36414799 1.13 4283322955
0.43407899 0.36481801 1.132 4281874480
0.437556 0.36516601 1.133 4282466615
0.440651 0.36519301 1.133 4282597687
0.44374701 0.36522099 1.133 4282466615
0.44724 0.36557201 1.1339999 4282138417
0.450342 0.36560199 1.1339999 4282335796
0.45424601 0.36627799 1.136 4282664761
0.45735699 0.36630899 1.136 4282401843
0.46046901 0.36634201 1.136 4282665015
0.46317601 0.36605299 1.135 4282928187
0.46628901 0.366088 1.135 4281875499
0.46899101 0.36579999 1.1339999 4281677352
0.47210601 0.36583701 1.1339999 4282532661
0.47522199 0.36587399 1.1339999 4282466868
0.47791901 0.36559001 1.133 4282072112
0.48103699 0.36562899 1.133 4281940526
0.483302 0.365024 1.131 4282334768
0.48598799 0.36474299 1.13 4282137389
0.48780501 0.36381701 1.127 4282072364
0.490915 0.36386099 1.127 4281874985
0.49358901 0.363583 1.126 4282072110
0.497141 0.363951 1.127 4282664247
0.49937001 0.363352 1.125 4282532661
-0.197662 0.348272 1.091 4286413437
-0.195077 0.34891599 1.0930001 4286480000
-0.192305 0.34924099 1.094 4286808965
-0.189182 0.34892699 1.0930001 4286677379
-0.186064 0.34861299 1.092 4286874758
-0.182951 0.34830001 1.091 4287335054
-0.18000799 0.348306 1.091 4287203982
-0.17690299 0.347992 1.09 4288190363
-0.173804 0.34767899 1.089 4287927191
-0.171023 0.34800401 1.09 4287203723
-0.16792899 0.34768999 1.089 4288059032
-0.16484 0.347377 1.0880001 4288124570
-0.161309 0.34610501 1.084 4288256925
-0.158531 0.34643 1.085 4287993753
-0.15574799 0.346755 1.086 4288520611
-0.15324 0.34771901 1.089 4287928472
-0.15016399 0.34740499 1.0880001 4287599761
-0.14695799 0.346773 1.086 4287270542
-0.143629 0.34582001 1.0829999 4287796374
-0.140837 0.346145 1.084 4287401616
-0.13816699 0.34678999 1.086 4287269775
-0.13548499 0.34743401 1.0880001 4287665047
-0.13242701 0.34711999 1.087 4287599254
-0.129256 0.34648699 1.085 4287271058
-0.126211 0.34617299 1.084 4287402644
-0.123285 0.346178 1.084 4287534230
-0.120249 0.345864 1.0829999 4287994782
-0.117434 0.34618899 1.084 4288257954
-0.114297 0.34555501 1.082 4288388772
-0.111376 0.34556001 1.082 4288191393
-0.108455 0.34556499 1.082 4287664535
-0.105437 0.34525099 1.081 4288585637
-0.102613 0.345575 1.082 4289177774
-0.099600002 0.34525999 1.081 4289111981
-0.096771002 0.34558401 1.082 4289111981
-0.0935895 0.34463 1.079 4289440946
-0.090508103 0.34399599 1.077 4289112495
-0.087437399 0.34336099 1.075 4289967804
-0.084456101 0.34304601 1.074 4290099904
-0.081556 0.34305 1.074 4289573560
-0.078509301 0.342415 1.072 4290692041
-0.0756144 0.342419 1.072 4290428869
-0.072515897 0.341465 1.069 4289770939
-0.069628999 0.34146801 1.069 4289507767
-0.066741899 0.341472 1.069 4289836732
-0.063854799 0.34147501 1.069 4290034111
-0.060910501 0.34115899 1.068 4290494662
-0.057917301 0.340523 1.066 4290823627
-0.054986399 0.340206 1.0650001 4290757834
-0.051963001 0.33925101 1.062 4291021007
-0.049001899 0.33861399 1.0599999 4290626249
-0.0460952 0.33829701 1.059 4290955214
-0.043193702 0.33798 1.058 4290363077
-0.0403358 0.33798301 1.058 4290823628
-0.037477799 0.33798501 1.058 4290297030
-0.034554299 0.33734801 1.056 4290691788
-0.031641498 0.33671001 1.054 4290494663
-0.028739501 0.33607301 1.052 4289836733
-0.025848299 0.33543599 1.05 4289639353
-0.0229898 0.33511701 1.049 4289573560
-0.0200982 0.33416 1.046 4288389544
-0.017239301 0.33352199 1.044 4289441975
-0.014405 0.333204 1.043 4289113009
-0.0115761 0.332885 1.0420001 4288060322
-0.00875255 0.33256599 1.041 4288388772
-0.00594013 0.33256599 1.041 4288519844
-0.0031276899 0.33256701 1.041 4287861914
-0.00031525001 0.33256701 1.041 4287927705
0.0024923901 0.33192801 1.039 4288388511
0.0052994299 0.33192801 1.039 4287664533
0.0081064496 0.331927 1.039 4287730326
0.0109135 0.331927 1.039 4286611845
0.0137337 0.33224499 1.04 4285887094
0.0165434 0.33224499 1.04 4286281852
0.019353 0.33224401 1.04 4286215798
0.0221627 0.332243 1.04 4285689454
0.024996299 0.33256099 1.041 4285623407
0.0278353 0.33287901 1.0420001 4285689454
0.0306208 0.33255801 1.041 4285886831
0.033465099 0.332876 1.0420001 4285163622
0.0363148 0.333193 1.043 4285492328
0.0391698 0.33351099 1.044 4284965467
0.0419899 0.333509 1.044 4284702295
0.044938799 0.334465 1.0470001 4284768342
0.047858201 0.33510101 1.049 4284702549
0.050836701 0.33605701 1.052 4284506200
0.053882301 0.33733201 1.056 4284505945
0.0569495 0.33860701 1.0599999 4284045908
0.0599817 0.339562 1.063 4284242775
0.063030101 0.34051701 1.066 4284045394
0.066218302 0.34211099 1.071 4284571224
0.0692399 0.342747 1.073 4283978826
0.072339296 0.343701 1.076 4284965721
0.075384997 0.34433699 1.0779999 4284307790
0.078514002 0.34529099 1.081 4284110672
0.081659101 0.34624499 1.084 4284044880
0.084586203 0.346241 1.084 4284242773
0.0876747 0.346876 1.086 4284045394
0.090607099 0.346872 1.086 4284045394
0.0937116 0.34750599 1.0880001 4283979087
0.096737899 0.347821 1.089 4284242512
0.0997696 0.34813601 1.09 4284241998
0.102712 0.348131 1.09 4284570709
0.105752 0.34844601 1.091 4284175951
0.108896 0.34907901 1.0930001 4283518536
0.111949 0.34939399 1.094 4283518022
0.115112 0.35002699 1.096 4283912780
0.118286 0.35066101 1.098 4284768089
0.121471 0.35129401 1.1 4284636503
0.124326 0.35097 1.099 4284308305
0.127408 0.351284 1.1 4284242512
0.13025799 0.350959 1.099 4284176718
0.133467 0.351592 1.101 4284176718
0.136438 0.35158601 1.101 4284703063
0.13953599 0.35190001 1.102 4284966235
0.14238 0.35157499 1.101 4284965981
0.145219 0.35124999 1.1 4284308566
0.148321 0.35156301 1.101 4284440407
0.151567 0.35219601 1.103 4284506200
0.15468299 0.35251001 1.104 4284506200
0.15766101 0.35250399 1.104 4284308304
0.16107599 0.35345599 1.107 4284308304
0.163914 0.353131 1.1059999 4284308044
0.16704901 0.35344401 1.107 4284900179
0.169728 0.35280001 1.105 4284637515
0.173021 0.353432 1.107 4284110663
0.17584801 0.35310701 1.1059999 4284373078
0.178993 0.353421 1.107 4284767835
0.181814 0.35309601 1.1059999 4284900191
0.184964 0.35340899 1.107 4284768605
0.18777999 0.353084 1.1059999 4285031775
0.19059099 0.352759 1.105 4284834396
0.193746 0.353073 1.1059999 4284769117
0.196907 0.35338601 1.107 4284242773
0.200073 0.35370001 1.108 4284440152
0.202877 0.35337499 1.107 4285164389
0.205677 0.35305101 1.1059999 4284835424
0.208471 0.35272601 1.105 4284177494
0.211642 0.35304001 1.1059999 4284573022
0.214624 0.353035 1.1059999 4285296745
0.217803 0.353349 1.107 4285494124
0.22039001 0.35270599 1.105 4284770915
0.223167 0.352382 1.104 4286086775
0.226144 0.35237801 1.104 4286481019
0.229744 0.353331 1.107 4285296745
0.232729 0.35332599 1.107 4285888114
0.23528799 0.35268399 1.105 4285887598
0.23762099 0.351722 1.102 4286150256
0.240375 0.351399 1.101 4286281842
0.24356499 0.351715 1.102 4285690219
0.246537 0.351711 1.102 4285492840
0.249056 0.351069 1.1 4287336074
0.251335 0.35010901 1.097 4287007624
0.254062 0.349787 1.096 4287139472
0.257018 0.34978399 1.096 4287336852
0.260212 0.35010099 1.097 4287797406
0.26317099 0.35009801 1.097 4287534234
0.26588699 0.34977701 1.096 4288192418
0.26884401 0.349776 1.096 4287403416
0.27130499 0.34913599 1.094 4287732381
0.27400601 0.34881499 1.0930001 4287929760
0.276701 0.34849501 1.092 4287535002
0.279392 0.34817499 1.091 4287731866
0.282336 0.34817499 1.091 4288785068
0.28475699 0.34753701 1.089 4288061346
0.28743199 0.34721801 1.0880001 4288785069
0.28983501 0.34658 1.086 4289246136
0.29276699 0.34658101 1.086 4288456365
0.29515401 0.34594399 1.084 4289706173
0.29753101 0.34530699 1.082 4289114036
0.299898 0.34467 1.08 4289443001
0.30253401 0.34435299 1.079 4289969345
0.30488199 0.34371799 1.077 4289508794
0.30722001 0.34308201 1.075 4290100931
0.30954701 0.34244701 1.073 4289376438
0.31215501 0.342132 1.072 4289573817
0.31417099 0.341178 1.069 4290692298
0.316764 0.340864 1.068 4290232001
0.31905201 0.34022999 1.066 4290231747
0.321632 0.33991599 1.0650001 4289706173
0.32390299 0.339284 1.063 4291219412
0.32616401 0.33865201 1.061 4291548122
0.329034 0.338658 1.061 4290495434
0.330966 0.337708 1.058 4290363848
0.332883 0.33675799 1.0549999 4290824399
0.33414799 0.33517 1.05 4291021264
0.33570701 0.33390099 1.046 4290561741
0.337569 0.33295199 1.043 4290495950
0.33941501 0.33200401 1.04 4291681252
0.34091699 0.33073699 1.036 4290694872
0.342397 0.32947001 1.0319999 4290760151
0.34352201 0.327885 1.027 4290562771
0.345296 0.32693899 1.024 4289772225
0.34671399 0.32567301 1.02 4289771196
0.348111 0.32440901 1.016 4289968572
0.34948701 0.32314399 1.012 4287600024
0.351538 0.322519 1.01 4287797403
0.35393 0.32221401 1.0089999 4289376435
0.35737801 0.32286701 1.011 4287929245
0.36048201 0.32320201 1.012 4287863449
0.363592 0.32353699 1.013 4286218624
0.36670801 0.32387301 1.0140001 4284310625
0.37055999 0.324848 1.017 4284310624
0.37516299 0.32646301 1.022 4283915866
0.38164401 0.32967699 1.0319999 4284047706
0.39451301 0.33832201 1.059 4284047706
0.41203299 0.35080299 1.098 4283981399
0.42372 0.358174 1.1210001 4284047192
0.42982301 0.36075401 1.1289999 4283520334
0.43443701 0.362057 1.133 4281611567
0.43791601 0.36240199 1.1339999 4282005811
0.44101301 0.36242801 1.1339999 4282269238
0.44411099 0.36245501 1.1339999 4282071859
0.44760501 0.36280301 1.135 4281677868
0.44991499 0.36219299 1.133 4281612073
0.45341501 0.362542 1.1339999 4281743659
0.45692199 0.36289299 1.135 4281546534
0.460437 0.363244 1.136 4281678119
0.46314201 0.362957 1.135 4282138156
0.46625501 0.36299101 1.135 4281546020
0.46895599 0.36270499 1.1339999 4281611813
0.472069 0.36274099 1.1339999 4282137387
0.47476599 0.36245701 1.133 4282071594
0.47788 0.36249501 1.133 4281808424
0.480997 0.36253399 1.133 4281940010
0.48368901 0.36225301 1.132 4282137389
0.485946 0.36165401 1.13 4282137389
0.48819599 0.36105499 1.128 4282005803
0.49087101 0.360778 1.127 4281874217
0.49354401 0.36050099 1.126 4282861628
0.49709499 0.36086601 1.127 4282730042
0.49976701 0.36059201 1.126 4283256638
-0.19784901 0.345653 1.092 4286348412
-0.19508301 0.34597501 1.0930001 4286808963
-0.19213501 0.345981 1.0930001 4286743170
-0.189014 0.34567001 1.092 4286480000
-0.185899 0.345359 1.091 4286677379
-0.182789 0.34504899 1.09 4287072651
-0.179849 0.34505501 1.09 4287467409
-0.17674699 0.344744 1.089 4287993239
-0.173969 0.34506601 1.09 4288256409
-0.171029 0.345072 1.09 4287137926
-0.167935 0.344762 1.089 4288124821
-0.164694 0.34413499 1.087 4288322204
-0.16131499 0.343191 1.084 4288256925
-0.158537 0.34351301 1.085 4288388511
-0.15589701 0.344152 1.087 4288323232
-0.153246 0.34479201 1.089 4287665300
-0.150308 0.34479699 1.089 4287665554
-0.146963 0.34385401 1.086 4287204749
-0.143768 0.34322599 1.084 4287467921
-0.141103 0.34386501 1.086 4287599507
-0.138299 0.344188 1.087 4287073165
-0.13536599 0.34419301 1.087 4287599254
-0.132433 0.344199 1.087 4287665047
-0.12938 0.34388801 1.086 4287205266
-0.12621599 0.34325999 1.084 4287731610
-0.123404 0.343582 1.085 4287797403
-0.120365 0.34327099 1.084 4288060575
-0.117439 0.34327599 1.084 4288389540
-0.114407 0.34296501 1.0829999 4288126114
-0.111484 0.34297001 1.0829999 4287862942
-0.10856 0.34297499 1.0829999 4287598742
-0.105539 0.342664 1.082 4288651430
-0.102618 0.342668 1.082 4288980395
-0.099604703 0.34235701 1.081 4289111981
-0.096775599 0.34267801 1.082 4289046186
-0.093680702 0.342049 1.08 4289770425
-0.090764597 0.34205401 1.08 4289112495
-0.087685697 0.341425 1.0779999 4289902011
-0.084617503 0.34079501 1.076 4289836733
-0.081560001 0.340166 1.074 4289836733
-0.0785864 0.33985299 1.073 4290626248
-0.0756182 0.33954099 1.072 4290560455
-0.072587401 0.338911 1.0700001 4289968318
-0.069762804 0.33923101 1.071 4289573560
-0.066870198 0.33923501 1.071 4290165697
-0.063977502 0.33923799 1.071 4289968572
-0.060970701 0.338608 1.069 4290692295
-0.057974599 0.33797699 1.067 4290823627
-0.055092499 0.33798 1.067 4290494662
-0.0520146 0.336716 1.063 4291086799
-0.0490507 0.33608499 1.061 4290692041
-0.0461847 0.336088 1.061 4290823628
-0.0432368 0.335457 1.059 4290231491
-0.040376 0.33545899 1.059 4290955214
-0.037444301 0.33482701 1.057 4290428616
-0.034556098 0.33451301 1.056 4290626249
-0.031643201 0.33388099 1.054 4290297284
-0.0287684 0.33356601 1.053 4289573561
-0.0258743 0.33293399 1.051 4289573560
-0.022991 0.33230099 1.049 4289244595
-0.020118499 0.331669 1.0470001 4288850094
-0.0172567 0.331036 1.045 4289310645
-0.0144334 0.33103701 1.045 4288652458
-0.0115989 0.33072099 1.044 4288060321
-0.00876984 0.330405 1.043 4288322979
-0.0059404499 0.329772 1.041 4288717223
-0.0031278599 0.329772 1.041 4288059293
-0.00031526701 0.329772 1.041 4287927707
0.0024973301 0.329772 1.041 4288388770
0.0053048199 0.32945499 1.04 4287796119
0.0081147002 0.32945499 1.04 4287598995
0.0109246 0.329454 1.04 4286151549
0.0137476 0.32977 1.041 4285822070
0.016544299 0.32945299 1.04 4286282621
0.019354099 0.32945201 1.04 4285953654
0.0222065 0.330084 1.0420001 4285755761
0.0250216 0.33008301 1.0420001 4285426796
0.0278368 0.33008099 1.0420001 4285689966
0.0306224 0.329763 1.041 4286084463
0.033498999 0.33039501 1.043 4285558121
0.0363167 0.33039299 1.043 4285229156
0.039209399 0.331025 1.045 4284702295
0.042072602 0.331339 1.046 4284570963
0.044941202 0.33165401 1.0470001 4284636755
0.047860701 0.33228499 1.049 4284571476
0.050839301 0.33323199 1.052 4284506198
0.053885099 0.334497 1.056 4284506200
0.056898698 0.335444 1.059 4284045908
0.059928399 0.336391 1.062 4284111701
0.063033402 0.33765501 1.066 4284242773
0.066221699 0.33923501 1.071 4284768603
0.069243401 0.339865 1.073 4284175951
0.072410204 0.341129 1.077 4284702549
0.075458698 0.34175801 1.079 4284044619
0.078590497 0.34270501 1.082 4283847500
0.081587799 0.343018 1.0829999 4283848015
0.084512398 0.34301299 1.0829999 4284308566
0.087678999 0.343959 1.086 4284308566
0.090694897 0.34427199 1.087 4284111187
0.093802199 0.344901 1.089 4284439638
0.096831404 0.345213 1.09 4284176465
0.099957399 0.34584099 1.092 4283913293
0.102906 0.345837 1.092 4284834395
0.105951 0.34614801 1.0930001 4284110672
0.108901 0.34614301 1.0930001 4283715915
0.111954 0.34645501 1.094 4283847501
0.115012 0.346766 1.095 4284044880
0.118184 0.34739399 1.097 4284768603
0.121476 0.34833899 1.1 4284637017
0.124332 0.34801701 1.099 4284176465
0.127298 0.34801099 1.099 4284308051
0.130382 0.348322 1.1 4283781961
0.133715 0.34926701 1.103 4284176719
0.13656799 0.34894401 1.102 4284768856
0.139541 0.34893799 1.102 4284637016
0.142386 0.348616 1.101 4284768602
0.14548901 0.34892699 1.102 4284440152
0.148597 0.34923699 1.103 4284506200
0.151573 0.34923199 1.103 4284637016
0.154689 0.34954199 1.104 4284308305
0.15781 0.34985301 1.105 4284439890
0.161082 0.35047999 1.107 4284045132
0.16392 0.35015699 1.1059999 4284439630
0.167055 0.35046801 1.107 4284439628
0.169734 0.34982899 1.105 4284834134
0.17287099 0.35013899 1.1059999 4284110411
0.175854 0.350133 1.1059999 4284439123
0.179161 0.35076001 1.108 4284636503
0.18198501 0.350438 1.107 4284505433
0.18497001 0.35043201 1.107 4284637019
0.188126 0.35074201 1.108 4285163363
0.19094101 0.35042 1.107 4284834396
0.193927 0.35041401 1.107 4285163361
0.19691201 0.35040799 1.107 4284373845
0.200078 0.350719 1.108 4284374359
0.20306601 0.35071301 1.108 4285361254
0.206054 0.35070699 1.108 4284967010
0.209042 0.35070199 1.108 4284374873
0.21183801 0.35038 1.107 4285098596
0.21462899 0.35005799 1.1059999 4285296745
0.21780799 0.35036901 1.107 4285428331
0.220395 0.349731 1.105 4284639329
0.22317199 0.34941 1.104 4286284154
0.22614899 0.34940499 1.104 4286415226
0.229333 0.34971699 1.105 4285230952
0.23231301 0.34971201 1.105 4285888112
0.23486701 0.34907499 1.103 4286019184
0.237625 0.34875399 1.102 4286216563
