# .PCD v0.7 - Point Cloud Data file format
VERSION 0.7
FIELDS x y z rgb
SIZE 4 4 4 4
TYPE F F F U
COUNT 1 1 1 1
WIDTH 1081
HEIGHT 1
VIEWPOINT 0 0 0 1 0 0 0
POINTS 1081
DATA ascii
0.445178 0.087282099 0.69 4288321670
0.44593501 0.087061398 0.68800002 4288255624
0.44929001 0.0873475 0.69 4288255622
0.45069799 0.087254502 0.68900001 4288453515
0.453419 0.087415501 0.69 4288058757
0.454831 0.087323703 0.68900001 4287992705
0.45690501 0.087359197 0.68900001 4287597945
0.458318 0.087268598 0.68800002 4287729531
0.461068 0.087432303 0.68900001 4287532154
0.46382999 0.087596796 0.69 4287597947
0.46660301 0.087762102 0.69099998 4287729533
0.46938699 0.087928198 0.69199997 4287400568
0.47082001 0.0878409 0.69099998 4287663740
0.47362199 0.088008501 0.69199997 4287992705
0.47505999 0.087922499 0.69099998 4287137143
0.47787899 0.088091798 0.69199997 4287861126
0.48001701 0.088134497 0.69199997 4288059022
-0.198827 0.083992302 0.68699998 4290691001
-0.196981 0.083996601 0.68699998 4290625210
-0.195418 0.084123299 0.68800002 4290362038
-0.19385099 0.084250003 0.68900001 4290098866
-0.191999 0.084254503 0.68900001 4289704106
-0.189871 0.084136702 0.68800002 4289440934
-0.18747599 0.083896697 0.68599999 4289572520
-0.185902 0.084023699 0.68699998 4289638313
-0.184324 0.084150597 0.68800002 4289637799
-0.182739 0.084277697 0.68900001 4289835178
-0.18062399 0.084160097 0.68800002 4289967019
-0.178775 0.084164903 0.68800002 4290032812
-0.176925 0.084169701 0.68800002 4289967019
-0.175329 0.084296897 0.68900001 4289901740
-0.173476 0.0843018 0.68900001 4289770154
-0.17162301 0.084306702 0.68900001 4289901740
-0.169523 0.084189199 0.68800002 4289112224
-0.167429 0.0840718 0.68699998 4289375396
-0.166063 0.084321499 0.68900001 4289178017
-0.16444699 0.084448896 0.69 4289046431
-0.16259 0.084453903 0.69 4289309603
-0.16026799 0.084214099 0.68800002 4289374882
-0.158416 0.084219098 0.68800002 4289440675
-0.156564 0.084224097 0.68800002 4289505952
-0.15516099 0.084473997 0.69 4289242780
-0.153082 0.084356599 0.68900001 4289439645
-0.151226 0.084361598 0.68900001 4289440159
-0.14915401 0.084244199 0.68800002 4289308319
-0.147301 0.084249198 0.68800002 4289440675
-0.145659 0.0843767 0.68900001 4289243041
-0.143594 0.084259197 0.68800002 4289308319
-0.141946 0.084386699 0.68900001 4289571745
-0.14009 0.084391698 0.68900001 4289637023
-0.138634 0.084641702 0.69099998 4289374105
-0.136574 0.084524103 0.69 4289571482
-0.134518 0.084406599 0.68900001 4289571482
-0.132468 0.084288999 0.68800002 4289505437
-0.130613 0.084293902 0.68800002 4289308059
-0.12857001 0.084176198 0.68699998 4289373852
-0.126717 0.0841811 0.68699998 4289308059
-0.125227 0.084431 0.68900001 4289044886
-0.123368 0.084435798 0.68900001 4289110679
-0.121686 0.084563099 0.69 4289176726
-0.11965 0.084445298 0.68900001 4288979093
-0.117961 0.084572598 0.69 4289110680
-0.11593 0.0844547 0.68900001 4288847508
-0.11407 0.084459297 0.68900001 4288781715
-0.112209 0.084463902 0.68900001 4288781715
-0.110509 0.084591001 0.69 4288847507
-0.10896 0.084840797 0.69199997 4288453003
-0.107555 0.085213102 0.69499999 4288452749
-0.106134 0.0855854 0.69800001 4288387470
-0.104248 0.085589796 0.69800001 4288584850
-0.102508 0.085716799 0.699 4288781975
-0.100043 0.085230596 0.69499999 4288979354
-0.094350502 0.081923597 0.66799998 4289242012
-0.067148797 0.067351699 0.54900002 4289111710
-0.063151501 0.064778201 0.528 4288980636
0.130274 0.067070402 0.54799998 4286286489
0.15002 0.076367602 0.62400001 4286418073
0.15899201 0.080034502 0.65399998 4286483866
0.162963 0.081131101 0.66299999 4286483866
0.165741 0.081615798 0.667 4286483868
0.16828801 0.081978098 0.67000002 4286681247
0.17085201 0.082340397 0.67299998 4286352282
0.17291801 0.082457997 0.67400002 4286352282
0.17550801 0.082820296 0.67699999 4286680731
0.17759 0.082937904 0.67799997 4286023055
0.179942 0.083177797 0.68000001 4286219919
0.18177 0.0831732 0.68000001 4286219144
0.18386801 0.083290897 0.68099999 4285757823
0.185426 0.083163999 0.68000001 4286020475
0.187254 0.083159402 0.68000001 4288191383
0.189082 0.083154902 0.68000001 4287994257
0.19119 0.0832728 0.68099999 4288125582
0.19358701 0.083512902 0.68300003 4288125580
0.19570801 0.0836308 0.68400002 4287861896
0.197835 0.083748803 0.685 4287796103
0.19967601 0.083744504 0.685 4287861641
0.201811 0.083862498 0.68599999 4287795334
0.203951 0.083980598 0.68699998 4287795333
0.205198 0.083732001 0.685 4287729540
0.206736 0.083605804 0.68400002 4287992966
0.208269 0.083479598 0.68300003 4288189831
0.210412 0.083598003 0.68400002 4287860866
0.21256 0.0837164 0.685 4287795071
0.21471401 0.083834901 0.68599999 4287926666
0.217188 0.084075697 0.68800002 4287598208
0.21871901 0.083949901 0.68699998 4287729794
0.22088601 0.084068596 0.68800002 4287663999
0.22241101 0.083943099 0.68699998 4287927171
0.224584 0.084062003 0.68800002 4288124291
0.226762 0.084180899 0.68900001 4287729533
0.22795101 0.083933502 0.68699998 4287663740
0.229798 0.0839305 0.68699998 4287926912
0.231644 0.083927602 0.68699998 4287860864
0.233831 0.0840469 0.68800002 4287860864
0.235339 0.083922103 0.68699998 4287992450
0.23684099 0.083797298 0.68599999 4287926657
0.239034 0.083916999 0.68699998 4287597692
0.24123199 0.084036797 0.68800002 4287334775
0.24379 0.084278896 0.69 4287268980
0.245646 0.084276803 0.69 4287269235
0.246785 0.084030502 0.68800002 4287466355
0.248275 0.083906502 0.68699998 4287795066
0.249761 0.083782703 0.68599999 4287729273
0.25197399 0.083903201 0.68699998 4287466359
0.25419399 0.0840239 0.68800002 4287663740
0.256419 0.084144697 0.68900001 4287729280
0.2579 0.084021397 0.68800002 4287597954
0.25975299 0.084020302 0.68800002 4287532161
0.26236799 0.084263697 0.69 4287466369
0.263845 0.0841408 0.68900001 4287729792
0.26493201 0.083896004 0.68699998 4287597945
0.26639599 0.083773501 0.68599999 4287598198
0.26824701 0.083773203 0.68599999 4287729786
0.270491 0.083895199 0.68699998 4287729786
0.27234599 0.083895303 0.68699998 4287531895
0.27420101 0.083895601 0.68699998 4287532152
0.27565399 0.083773799 0.68599999 4287663227
0.27710301 0.083652303 0.685 4287663740
0.278954 0.0836531 0.685 4287071603
0.281216 0.083776101 0.68599999 4287466361
0.28307199 0.083777301 0.68599999 4287466361
0.28451201 0.083656497 0.685 4287861119
0.28678399 0.083780102 0.68599999 4287795324
0.288221 0.083659701 0.685 4287729531
0.29049999 0.083783701 0.68599999 4288058498
0.291933 0.083663702 0.685 4287663740
0.29464701 0.083910301 0.68699998 4287334775
0.29651099 0.083912797 0.68699998 4286611052
0.29837501 0.083915502 0.68699998 4287729533
0.299366 0.0836742 0.685 4287795071
0.30166599 0.083799496 0.68599999 4287663740
0.304416 0.084047198 0.68800002 4287861119
0.30628601 0.084050797 0.68800002 4287531641
0.30815801 0.084054597 0.68800002 4287926399
0.309129 0.083814397 0.68599999 4287860606
0.31099799 0.083818696 0.68599999 4287992193
0.31286699 0.083823197 0.68599999 4287729278
0.31473699 0.083828002 0.68599999 4287795071
0.31614801 0.083710797 0.685 4287795326
0.31801799 0.083716102 0.685 4287729533
0.32035601 0.083843797 0.68599999 4288058498
0.32223099 0.083849601 0.68599999 4287795326
0.32458001 0.0839779 0.68699998 4288058498
0.32646 0.083984204 0.68699998 4287992192
0.32834199 0.083990797 0.68699998 4287992703
0.32974499 0.083875403 0.68599999 4287992703
0.33210999 0.084004901 0.68699998 4288058496
0.33351001 0.083889998 0.68599999 4287861117
0.33539501 0.083897702 0.68599999 4287992703
0.337773 0.084027998 0.68699998 4288124291
0.339663 0.084036298 0.68699998 4288190084
0.34105799 0.083922498 0.68599999 4287992705
0.34244901 0.0838091 0.685 4287861633
0.34433901 0.083818197 0.685 4287861378
0.347747 0.084194802 0.68800002 4287795587
0.35015699 0.084327102 0.68900001 4288189578
0.352063 0.084337197 0.68900001 4288057991
0.353457 0.084225297 0.68800002 4288058245
0.35433099 0.0839912 0.68599999 4287860864
0.35623401 0.084002301 0.68599999 4287795326
0.35761699 0.083891302 0.685 4287729533
0.35952201 0.083903 0.685 4287729533
0.36142799 0.0839151 0.685 4287663993
0.36386701 0.084050097 0.68599999 4287400821
0.36524701 0.083940402 0.685 4287400819
0.366624 0.083830997 0.68400002 4287466614
0.36907399 0.083967 0.685 4287532152
0.37207499 0.084226102 0.68699998 4287532152
0.37454399 0.084362999 0.68800002 4287466622
0.37647399 0.084377699 0.68800002 4286545781
0.37730601 0.084147498 0.68599999 4283717459
0.379235 0.084162898 0.68599999 4285693027
0.380611 0.084055997 0.685 4288588170
0.38310099 0.084194899 0.68599999 4288718484
0.38503799 0.084211498 0.68599999 4288586645
0.38697699 0.084228501 0.68599999 4288652441
0.388919 0.084245898 0.68599999 4288520855
0.391433 0.084386602 0.68699998 4288257683
0.39395601 0.084527798 0.68800002 4289046429
0.39533699 0.084423698 0.68699998 4288191373
0.397293 0.084442802 0.68699998 4288256905
0.39925101 0.084462397 0.68699998 4288322951
0.40121299 0.084482498 0.68699998 4288454021
0.40376499 0.084625997 0.68800002 4288322437
0.405146 0.084523901 0.68699998 4288322699
0.40770999 0.084668398 0.68800002 4288191113
0.40909201 0.084567197 0.68699998 4288191373
0.411668 0.084712699 0.68800002 4288125580
0.414253 0.084858797 0.68900001 4288783512
0.41624299 0.0848822 0.68900001 4288454547
0.418237 0.084906101 0.68900001 4288257168
0.419624 0.084807202 0.68800002 4288388752
0.421009 0.084708802 0.68699998 4288651924
0.423623 0.084857501 0.68800002 4288191627
0.42562899 0.084883399 0.68800002 4288389006
0.42825899 0.085033201 0.68900001 4287993734
0.42965099 0.084936798 0.68800002 4287663999
0.43229499 0.085087799 0.68900001 4287400313
0.433689 0.084992401 0.68800002 4287597947
0.43634701 0.085144602 0.68900001 4287729531
0.43774301 0.085050203 0.68800002 4287861117
0.44041601 0.085203603 0.68900001 4287664252
0.44181401 0.085110299 0.68800002 4288059012
0.443856 0.085141197 0.68800002 4288059012
0.44525501 0.085049003 0.68699998 4288124550
0.448605 0.085328802 0.68900001 4288124550
0.45001 0.085237697 0.68800002 4288190343
0.45207101 0.085271001 0.68800002 4288256136
0.45281601 0.085056998 0.68599999 4288321670
0.45620701 0.085339598 0.68800002 4288255877
0.45894799 0.085499004 0.68900001 4287664242
0.461032 0.085534997 0.68900001 4287992705
0.46312001 0.085571602 0.68900001 4287729533
0.46521401 0.0856089 0.68900001 4287532154
0.46799201 0.085771203 0.69 4287729533
0.47009999 0.085809901 0.69 4287597947
0.472213 0.085849397 0.69 4287663740
0.474332 0.085889503 0.69 4287202936
0.475766 0.0858059 0.68900001 4287005303
0.478587 0.085972004 0.69 4287268736
-0.199801 0.081774898 0.68400002 4289704106
-0.19825201 0.081898697 0.685 4289375141
-0.196698 0.082022503 0.68599999 4289638315
-0.19513901 0.082146399 0.68699998 4289835694
-0.193011 0.082031198 0.68599999 4290164404
-0.191168 0.082035601 0.68599999 4290230452
-0.18904801 0.081920497 0.685 4290427831
-0.18693399 0.081805401 0.68400002 4290427831
-0.185366 0.081929497 0.685 4290230966
-0.183524 0.081934102 0.685 4290296243
-0.18194801 0.0820584 0.68599999 4289901485
-0.180104 0.082062997 0.68599999 4289637799
-0.178 0.081948102 0.685 4289374882
-0.176415 0.082072496 0.68599999 4289243294
-0.17456999 0.082077198 0.68599999 4289374880
-0.172977 0.082201697 0.68699998 4289309601
-0.170881 0.082086802 0.68599999 4289178015
-0.169035 0.082091697 0.68599999 4289375394
-0.16694599 0.081976801 0.685 4289441187
-0.165344 0.082101397 0.68599999 4289901226
-0.163975 0.082345597 0.68800002 4289967019
-0.161888 0.082230903 0.68699998 4289835433
-0.159807 0.082116097 0.68599999 4289900710
-0.15796 0.082121 0.68599999 4289966503
-0.156114 0.082125902 0.68599999 4289834402
-0.154267 0.082130797 0.68599999 4289702816
-0.15242 0.082135797 0.68599999 4289308059
-0.150573 0.082140699 0.68599999 4289768610
-0.14894199 0.082265399 0.68699998 4289374113
-0.147092 0.082270302 0.68699998 4289111455
-0.14524101 0.082275197 0.68699998 4289045662
-0.14297301 0.0820406 0.685 4289308319
-0.14112701 0.082045503 0.685 4289374365
-0.139281 0.082050398 0.685 4289177240
-0.13783599 0.082294799 0.68699998 4289243033
-0.135985 0.082299702 0.68699998 4289374105
-0.134133 0.082304597 0.68699998 4289243033
-0.13208801 0.082189597 0.68599999 4289440159
-0.13004801 0.082074597 0.685 4289440159
-0.128014 0.081959501 0.68400002 4289637024
-0.125984 0.081844397 0.68300003 4289373852
-0.124505 0.082088798 0.685 4289505438
-0.122657 0.0820935 0.685 4289571230
-0.120985 0.082218103 0.68599999 4289571230
-0.119134 0.0822227 0.68599999 4289176987
-0.117282 0.082227297 0.68599999 4289571745
-0.11543 0.082231902 0.68599999 4289308573
-0.113578 0.082236402 0.68599999 4289571230
-0.111888 0.082360797 0.68699998 4289308058
-0.110193 0.082485102 0.68800002 4289176726
-0.108492 0.082609497 0.68900001 4289374105
-0.106941 0.082853697 0.69099998 4289176986
-0.10553 0.083217703 0.69400001 4289309342
-0.103804 0.083342001 0.69499999 4289243294
-0.102219 0.083586097 0.69700003 4288716950
-0.099471197 0.082870796 0.69099998 4289045147
-0.067029402 0.065746099 0.54799998 4288979608
-0.061958201 0.0621497 0.51800001 4288980377
0.12647399 0.063675098 0.53200001 4286680478
0.14617801 0.072767198 0.60799998 4286483613
0.157295 0.077430204 0.64700001 4286746785
0.161985 0.078861699 0.65899998 4286615199
0.16475201 0.079335697 0.66299999 4286417820
0.167539 0.079809703 0.667 4286746785
0.170095 0.080163904 0.67000002 4286483613
0.17241 0.080398597 0.67199999 4286351513
0.17473499 0.080633201 0.67400002 4286483354
0.17707101 0.080867797 0.676 4286680731
0.179418 0.081102498 0.67799997 4286548885
0.18124001 0.081097901 0.67799997 4286153610
0.18333299 0.081212901 0.67900002 4285890179
0.184885 0.081088804 0.67799997 4285626487
0.186708 0.0810844 0.67799997 4288258204
0.18797401 0.080840804 0.676 4288586909
0.190633 0.081195101 0.67900002 4288652441
0.19274101 0.081310399 0.68000001 4288389268
0.195427 0.081664801 0.68300003 4288454292
0.197262 0.081660502 0.68300003 4288454292
0.19968 0.081895404 0.685 4288454294
0.20152099 0.081891298 0.685 4288520087
0.203658 0.0820067 0.68599999 4288519571
0.204603 0.081644103 0.68300003 4288124813
0.206438 0.081640102 0.68300003 4288257168
0.20827299 0.081636198 0.68300003 4288256913
0.210416 0.081751898 0.68400002 4287862155
0.211943 0.081628703 0.68300003 4287993741
0.214091 0.0817445 0.68400002 4287993741
0.216245 0.081860498 0.685 4288059534
0.218086 0.081856899 0.685 4287862155
0.220247 0.081973001 0.68599999 4287928715
0.22176699 0.081850201 0.685 4288388752
0.224261 0.0820859 0.68699998 4288059526
0.226107 0.082082704 0.68699998 4288191112
0.227622 0.081960097 0.68599999 4288453770
0.229131 0.081837699 0.685 4288256391
0.230636 0.081715398 0.68400002 4288387722
0.232814 0.081832103 0.685 4288256138
0.23431399 0.081709899 0.68400002 4288190091
0.236498 0.081826799 0.685 4287861126
0.23834001 0.0818244 0.685 4288058759
0.240183 0.081822 0.685 4287861378
0.242732 0.082058698 0.68699998 4287729792
0.24458 0.082056597 0.68699998 4287992705
0.245711 0.081815697 0.685 4287729531
0.24719299 0.081694402 0.68400002 4287663993
0.249034 0.081692703 0.68400002 4287795579
0.25124201 0.081810497 0.685 4287861117
0.25308701 0.081809103 0.685 4287663740
0.255303 0.081927203 0.68599999 4287598208
0.25715101 0.081926003 0.68599999 4287992712
0.25862199 0.081805497 0.685 4287795333
0.26084799 0.081923999 0.68599999 4287597954
0.26269701 0.081923299 0.68599999 4287861380
0.26416099 0.081803203 0.685 4287663999
0.26600799 0.0818028 0.685 4287926912
0.267465 0.081683002 0.68400002 4287729533
0.26931 0.081682898 0.68400002 4287466361
0.27076 0.081563503 0.68300003 4287861119
0.27260399 0.081563704 0.68300003 4287861119
0.27444801 0.081564002 0.68300003 4287861119
0.27588901 0.081445098 0.68199998 4287466361
0.277325 0.081326403 0.68099999 4287729278
0.27957499 0.0814467 0.68199998 4287466106
0.28141999 0.081447698 0.68199998 4287795071
0.28367999 0.081568398 0.68300003 4287926912
0.285528 0.081569798 0.68300003 4287795326
0.28737801 0.0815714 0.68300003 4287597947
0.28922701 0.081573203 0.68300003 4287795326
0.29065201 0.081455797 0.68199998 4287861119
0.293358 0.081696801 0.68400002 4287663740
0.29521301 0.081699297 0.68400002 4287203189
0.29706901 0.081701897 0.68400002 4286676590
0.298489 0.081585199 0.68300003 4287137141
0.29990399 0.081468798 0.68199998 4287597947
0.30264199 0.081710897 0.68400002 4287532154
0.30450201 0.081714399 0.68400002 4287465848
0.306362 0.081718102 0.68400002 4287202676
0.30732301 0.081483103 0.68199998 4287663227
0.30917999 0.081487201 0.68199998 4287860864
0.31149399 0.081611 0.68300003 4287597692
0.31335601 0.081615597 0.68300003 4287663485
0.31521901 0.081620499 0.68300003 4287466361
0.31754801 0.081745103 0.68400002 4287466361
0.31988299 0.0818699 0.685 4287663740
0.32128599 0.081756003 0.68400002 4287663740
0.32362899 0.081881396 0.685 4287926399
0.325504 0.081887498 0.685 4287729020
0.32738 0.081893899 0.685 4287795324
0.32925701 0.0819005 0.685 4287795324
0.33065301 0.081787802 0.68400002 4287729786
0.33204401 0.081675403 0.68300003 4287598200
0.33392 0.081682898 0.68300003 4287597945
0.33629 0.081810199 0.68400002 4287663738
0.33817199 0.081818201 0.68400002 4287729533
0.34005499 0.081826501 0.68400002 4287795326
0.34144101 0.081715502 0.68300003 4287466875
0.34382701 0.081844002 0.68400002 4287401082
0.34672701 0.082092501 0.68599999 4287598206
0.349639 0.082341403 0.68800002 4287729792
0.35103101 0.082231604 0.68699998 4287992450
0.35241899 0.082121998 0.68599999 4287992452
0.35328701 0.081892997 0.68400002 4288124036
0.355185 0.0819038 0.68400002 4287795071
0.35708401 0.081914902 0.68400002 4287926657
0.35951 0.082046099 0.685 4287795326
0.360888 0.081937999 0.68400002 4287795324
0.36332399 0.082069904 0.685 4288124289
0.364701 0.0819626 0.68400002 4287729784
0.36607501 0.081855498 0.68300003 4287795579
0.36852199 0.081988499 0.68400002 4287729786
0.370978 0.082121901 0.685 4287992705
0.37344101 0.082255602 0.68599999 4287532668
0.37536499 0.0822699 0.68599999 4287138173
0.37619099 0.082044601 0.68400002 4284967516
0.378667 0.082179599 0.685 4283915859
0.38003999 0.082074903 0.68400002 4288061322
0.38252699 0.082210697 0.685 4288850070
0.383899 0.082106799 0.68400002 4288850071
0.38583201 0.082123302 0.68400002 4288520340
0.38720101 0.082020096 0.68300003 4288717980
0.39027601 0.0822777 0.685 4288717980
0.39221999 0.082295403 0.685 4288455061
0.394743 0.082433797 0.68599999 4287928717
0.39669499 0.082452402 0.68599999 4288586385
0.399232 0.082591698 0.68699998 4288388491
0.40060899 0.082491003 0.68599999 4288322698
0.40257099 0.082510903 0.68599999 4288651149
0.40394601 0.082410999 0.685 4288585101
0.407096 0.082672499 0.68699998 4288585101
0.40787899 0.082453102 0.685 4288190861
0.410449 0.082595199 0.68599999 4288322447
0.41242599 0.082617499 0.68599999 4288717719
0.41440701 0.082640201 0.68599999 4288322961
0.416392 0.082663402 0.68599999 4288388754
0.41777 0.0825665 0.685 4287993996
0.420371 0.082711197 0.68599999 4288257166
0.42236701 0.082735904 0.68599999 4288389006
0.424366 0.082761101 0.68599999 4288322698
0.426368 0.082786798 0.68599999 4288322698
0.42774999 0.082692303 0.685 4287466875
0.42975801 0.082718998 0.685 4287400568
0.43177 0.082746297 0.685 4287400568
0.43441901 0.082894899 0.68599999 4287597945
0.436441 0.082923301 0.68599999 4287795324
0.43910801 0.083073199 0.68699998 4287597945
0.44049999 0.082981698 0.68599999 4287795838
0.44318101 0.083132803 0.68699998 4287861119
0.44392699 0.082921401 0.685 4288124036
0.44661999 0.083073698 0.68599999 4288321415
0.44736099 0.082863197 0.68400002 4288190343
0.45072401 0.083137996 0.68599999 4288058757
0.45278201 0.083171003 0.68599999 4288387463
0.45617199 0.0834473 0.68800002 4288255877
0.45758101 0.083360299 0.68699998 4288124036
0.45898899 0.083273903 0.68599999 4287465855
0.461739 0.083430998 0.68699998 4287794819
0.46382701 0.083467297 0.68699998 4287861380
0.46659699 0.083625697 0.68800002 4287860864
0.46937999 0.083784997 0.68900001 4287663740
0.470121 0.083580099 0.68699998 4287334262
0.47291699 0.083740801 0.68800002 4287663227
0.474345 0.0836588 0.68699998 4287663485
0.47646499 0.083699197 0.68699998 4287926405
-0.199221 0.0796948 0.68199998 4290296498
-0.197678 0.079815798 0.68300003 4290098864
-0.195842 0.07982 0.68300003 4290230450
-0.19400699 0.079824202 0.68300003 4290296245
-0.19189 0.079711601 0.68199998 4290099127
-0.190336 0.0798328 0.68300003 4290296760
-0.187949 0.079603396 0.68099999 4290362553
-0.18611801 0.079607897 0.68099999 4290165174
-0.184288 0.0796123 0.68099999 4290231220
-0.182725 0.0797337 0.68199998 4290427829
-0.181422 0.079972103 0.68400002 4290427829
-0.179584 0.0799767 0.68400002 4290493108
-0.177745 0.079981297 0.68400002 4290230191
-0.175648 0.079869002 0.68300003 4290163882
-0.173812 0.079873703 0.68300003 4289440158
-0.171975 0.0798783 0.68300003 4289505951
-0.170387 0.079999998 0.68400002 4289440673
-0.168547 0.080004796 0.68400002 4289111708
-0.166464 0.079892598 0.68300003 4288980122
-0.164626 0.079897299 0.68300003 4289571745
-0.163027 0.080019102 0.68400002 4289176986
-0.16118599 0.0800239 0.68400002 4289571230
-0.159113 0.079911701 0.68300003 4289242265
-0.15727399 0.0799165 0.68300003 4289308312
-0.155663 0.080038399 0.68400002 4289505691
-0.153822 0.080043197 0.68400002 4289242519
-0.15198 0.080048002 0.68400002 4289571230
-0.15035801 0.080169901 0.685 4289242265
-0.148513 0.080174796 0.685 4289636770
-0.146883 0.080296703 0.68599999 4289374113
-0.145035 0.080301501 0.68599999 4289570977
-0.143187 0.080306299 0.68599999 4289505438
-0.141132 0.080194101 0.685 4289571482
-0.13888 0.079964697 0.68300003 4289374358
-0.13744 0.080203697 0.685 4289834909
-0.135594 0.080208398 0.685 4289637530
-0.13394199 0.080330297 0.68599999 4289571482
-0.131707 0.080100797 0.68400002 4289506205
-0.129673 0.079988398 0.68300003 4289637023
-0.127831 0.079993099 0.68300003 4289703330
-0.125989 0.0799978 0.68300003 4289505952
-0.124328 0.080119498 0.68400002 4289571491
-0.122483 0.080124103 0.68400002 4289439905
-0.120637 0.0801287 0.68400002 4289703077
-0.118617 0.080016099 0.68300003 4289571492
-0.116774 0.080020599 0.68300003 4289308319
-0.114761 0.079907902 0.68199998 4289440159
-0.113086 0.080029503 0.68300003 4289571745
-0.111404 0.080151103 0.68400002 4289374366
-0.109877 0.080389902 0.68599999 4289374365
-0.108339 0.080628604 0.68800002 4289308573
-0.106945 0.080984503 0.69099998 4289243296
-0.105382 0.081223197 0.69300002 4289441189
-0.103659 0.081344597 0.69400001 4289506466
-0.102076 0.081583299 0.69599998 4289243296
-0.099763297 0.081235804 0.69300002 4289243294
-0.065809198 0.063090399 0.53799999 4288584850
0.122436 0.060249101 0.51499999 4286220434
0.14137299 0.068785101 0.588 4286680992
0.15486801 0.074512802 0.63700002 4286746785
0.16125201 0.076730698 0.65600002 4286680992
0.164011 0.077193998 0.66000003 4286615199
0.167042 0.077774197 0.66500002 4286680992
0.16959199 0.0781205 0.66799998 4286483613
0.171901 0.078349799 0.67000002 4286483099
0.173703 0.078345202 0.67000002 4286220182
0.176028 0.078574598 0.67199999 4286352020
0.17809901 0.078686997 0.67299998 4286285198
0.180176 0.078799397 0.67400002 4286087817
0.181987 0.078795001 0.67400002 4286284421
0.18352599 0.078673601 0.67299998 4285889659
0.185886 0.078903101 0.67500001 4287337356
0.18742201 0.078781798 0.67400002 4287928979
0.189795 0.079011299 0.676 4288586648
0.192178 0.079240799 0.67799997 4288389269
0.194572 0.079470299 0.68000001 4288651671
0.1964 0.079466097 0.68000001 4288585880
0.19851799 0.079578899 0.68099999 4288717466
0.200054 0.079457901 0.68000001 4288454294
0.20188101 0.0794539 0.68000001 4288519573
0.203109 0.079216301 0.67799997 4288388501
0.20523299 0.079329297 0.67900002 4288454292
0.207362 0.0794423 0.68000001 4288322706
0.209804 0.079672202 0.68199998 4287928718
0.211326 0.079551697 0.68099999 4288060304
0.212843 0.079431199 0.68000001 4288257683
0.214986 0.0795445 0.68099999 4288718234
0.217134 0.079657897 0.68199998 4288915612
0.21896701 0.0796545 0.68199998 4288455061
0.220475 0.079534397 0.68099999 4288322959
0.22263201 0.079648003 0.68199998 4288652178
0.224465 0.079644904 0.68199998 4288717203
0.22663 0.079758599 0.68300003 4288520078
0.228131 0.079638898 0.68199998 4288585871
0.229627 0.079519302 0.68099999 4288650896
0.23145799 0.0795165 0.68099999 4288387724
0.233631 0.079630703 0.68199998 4288125068
0.23581 0.079744898 0.68300003 4288190861
0.237647 0.079742499 0.68300003 4288519824
0.239133 0.079623401 0.68199998 4288322445
0.24167401 0.079854697 0.68400002 4288453517
0.243158 0.079735801 0.68300003 4288387722
0.244637 0.079617098 0.68199998 4288453770
0.246472 0.079615302 0.68199998 4288190598
0.248308 0.079613499 0.68199998 4288256389
0.249777 0.079495199 0.68099999 4288190596
0.25161001 0.079493701 0.68099999 4288322699
0.25381601 0.079609104 0.68199998 4288453517
0.256028 0.079724602 0.68300003 4288388240
0.25749001 0.079606801 0.68199998 4288125068
0.25970799 0.079722703 0.68300003 4288190861
0.26193199 0.079838596 0.68400002 4288058505
0.263776 0.079837903 0.68400002 4288190345
0.26561999 0.079837397 0.68400002 4287927173
0.26668301 0.079603702 0.68199998 4288124552
0.26852301 0.079603501 0.68199998 4287861378
0.26957101 0.079369999 0.68000001 4288189829
0.27140599 0.079370096 0.68000001 4287927171
0.273644 0.079487197 0.68099999 4287663999
0.275484 0.079487599 0.68099999 4287795840
0.27732399 0.079488203 0.68099999 4287795585
0.279165 0.079489 0.68099999 4287729792
0.28059301 0.0793733 0.68000001 4287926657
0.282433 0.079374403 0.68000001 4287861119
0.284273 0.079375803 0.68000001 4287926912
0.28653401 0.079493999 0.68099999 4287926912
0.28795499 0.079379 0.68000001 4287795326
0.28979799 0.0793809 0.68000001 4287795326
0.29249799 0.079616398 0.68199998 4287597947
0.294348 0.0796187 0.68199998 4287861119
0.29619801 0.079621203 0.68199998 4287663487
0.298049 0.0796239 0.68199998 4287466106
0.29990101 0.079626799 0.68199998 4286940017
0.30219701 0.079746701 0.68300003 4287137396
0.303608 0.079633199 0.68199998 4286940017
0.30546299 0.079636797 0.68199998 4287597947
0.30641699 0.079406999 0.68000001 4287664001
0.30872199 0.079527803 0.68099999 4287335036
0.31057799 0.079531997 0.68099999 4287795073
0.31243399 0.079536401 0.68099999 4287795073
0.31382999 0.079424202 0.68000001 4287663485
0.316614 0.0796628 0.68199998 4287400568
0.318477 0.079667903 0.68199998 4287268980
0.32080999 0.0797901 0.68300003 4287597945
0.32220599 0.079678901 0.68199998 4287860606
0.324072 0.079684801 0.68199998 4287926653
0.32594001 0.079691 0.68199998 4287795066
0.32780901 0.0796974 0.68199998 4287729273
0.32919601 0.079587199 0.68099999 4287663991
0.33057901 0.079477198 0.68000001 4287664246
0.33244601 0.079484403 0.68000001 4287795577
0.334315 0.079491898 0.68000001 4287663991
0.33668101 0.079616502 0.68099999 4287663993
0.33805799 0.079507597 0.68000001 4287663738
0.338433 0.079165101 0.67699999 4287795324
0.34130499 0.079407498 0.67900002 4287466361
0.34419 0.079650298 0.68099999 4287137910
0.34759599 0.080010399 0.68400002 4287203701
0.348977 0.079902999 0.68300003 4287269749
0.35035399 0.0797958 0.68199998 4287269241
0.350694 0.079454802 0.67900002 4287400568
0.35309699 0.079582199 0.68000001 4287137396
0.35550699 0.079709999 0.68099999 4287334775
0.35739899 0.079721101 0.68099999 4287729533
0.359294 0.079732403 0.68099999 4287597945
0.36118999 0.079744101 0.68099999 4287663738
0.363089 0.0797562 0.68099999 4287400566
0.364454 0.0796514 0.68000001 4287729533
0.36689299 0.079781197 0.68099999 4287729533
0.36933899 0.0799115 0.68199998 4287729533
0.37179399 0.080042101 0.68300003 4287400568
0.37370899 0.0800559 0.68300003 4287138425
0.37562701 0.080070101 0.68300003 4286612081
0.377547 0.0800846 0.68300003 4283652172
0.37835801 0.079865001 0.68099999 4288521106
0.38027701 0.079880297 0.68099999 4288915864
0.38163799 0.0797785 0.68000001 4288849817
0.384123 0.079911903 0.68099999 4288388752
0.385483 0.079810902 0.68000001 4288718234
0.38855001 0.080062501 0.68199998 4288455062
0.39048499 0.080079697 0.68199998 4287665545
0.39299801 0.080214798 0.68300003 4286481271
0.394364 0.0801154 0.68199998 4288783510
0.39630699 0.080133803 0.68199998 4288717971
0.39767 0.080035202 0.68099999 4288388491
0.40079099 0.080289602 0.68300003 4288585617
0.40274599 0.080309302 0.68300003 4288651410
0.40470499 0.080329597 0.68300003 4288519826
0.40607101 0.080232598 0.68199998 4287927689
0.408034 0.080253698 0.68199998 4287993482
0.40999901 0.0802752 0.68199998 4288388492
0.41196799 0.080297202 0.68199998 4288914582
0.413941 0.080319598 0.68199998 4288257166
0.41530699 0.080224797 0.68099999 4288191375
0.41850901 0.080483802 0.68300003 4288322959
0.42111099 0.080625698 0.68400002 4288520338
0.423103 0.080650099 0.68400002 4288585617
0.42447799 0.080557197 0.68300003 4288651149
0.42647499 0.080582596 0.68300003 4288387977
0.42847699 0.080608599 0.68300003 4287334775
0.430482 0.080634996 0.68300003 4287597947
0.432491 0.080661997 0.68300003 4287400568
0.43450499 0.080689602 0.68300003 4287466361
0.437161 0.080835797 0.68400002 4287663740
0.43918601 0.080864497 0.68400002 4287795326
0.44121501 0.080893703 0.68400002 4288124036
0.442601 0.080805197 0.68300003 4287531899
0.44463599 0.080835499 0.68300003 4288387208
0.44667599 0.080866396 0.68300003 4288124036
0.449377 0.081016399 0.68400002 4288255622
0.45209 0.081166998 0.685 4288189829
0.45414999 0.081199802 0.685 4288124038
0.45621499 0.081233203 0.685 4288189831
0.457616 0.081148498 0.68400002 4288386450
0.46035999 0.081301801 0.685 4287334015
0.46244001 0.081337102 0.685 4287926405
0.46384799 0.081254199 0.68400002 4287861119
0.46661699 0.081409603 0.685 4287400568
0.468714 0.081446797 0.685 4287663227
0.47219101 0.081722602 0.68699998 4287992192
0.47292399 0.081523299 0.685 4287663740
0.47503799 0.081562601 0.685 4287400313
-0.198348 0.077511199 0.67900002 4289770668
-0.19710299 0.077743597 0.68099999 4289968048
-0.195273 0.077747703 0.68099999 4289902255
-0.193727 0.077866003 0.68199998 4290033587
-0.191332 0.077641897 0.68000001 4289770416
-0.189504 0.077646099 0.68000001 4289836209
-0.187401 0.077536203 0.67900002 4289770416
-0.185849 0.077654801 0.68000001 4289836209
-0.18402199 0.077659197 0.68000001 4289573290
-0.18246201 0.077777803 0.68099999 4289639083
-0.180896 0.077896498 0.68199998 4289440934
-0.17906301 0.077900998 0.68199998 4289572261
-0.17697001 0.077791303 0.68099999 4289440673
-0.175139 0.077795804 0.68099999 4289374880
-0.173307 0.077800401 0.68099999 4289571744
-0.17147601 0.077804998 0.68099999 4289505952
-0.169644 0.077809602 0.68099999 4289243294
-0.16805901 0.077928498 0.68199998 4289440673
-0.16598099 0.0778189 0.68099999 4289505698
-0.163908 0.077709302 0.68000001 4289373852
-0.16207799 0.077714004 0.68000001 4289308058
-0.160484 0.077832997 0.68099999 4289308058
-0.158418 0.077723399 0.68000001 4289373851
-0.156588 0.0777281 0.68000001 4289505691
-0.15475801 0.077732898 0.68000001 4289374105
-0.153152 0.077851899 0.68099999 4289242519
-0.151096 0.077742301 0.68000001 4289374105
-0.14948501 0.077861398 0.68099999 4289242265
-0.14786801 0.077980399 0.68199998 4289111194
-0.146245 0.078099497 0.68300003 4289242526
-0.14440501 0.078104302 0.68300003 4289439644
-0.14235599 0.0779946 0.68199998 4289242519
-0.14051899 0.077999301 0.68199998 4289176979
-0.138274 0.0777753 0.68000001 4288913807
-0.13664199 0.077894397 0.68099999 4289308565
-0.135004 0.078013398 0.68199998 4289176979
-0.133361 0.078132503 0.68300003 4289242517
-0.131134 0.0779083 0.68099999 4289308312
-0.12891801 0.077684097 0.67900002 4289374105
-0.127087 0.077688597 0.67900002 4289505437
-0.125624 0.077922001 0.68099999 4289111194
-0.123969 0.078041002 0.68199998 4289111194
-0.122129 0.078045502 0.68199998 4289176987
-0.120112 0.077935599 0.68099999 4289242780
-0.118274 0.077940002 0.68099999 4289242526
-0.116265 0.077830002 0.68000001 4289243294
-0.114261 0.077719897 0.67900002 4289637538
-0.112593 0.077838697 0.68000001 4289637538
-0.11092 0.077957503 0.68099999 4289308573
-0.109561 0.0783052 0.68400002 4289834917
-0.108186 0.078652903 0.68699998 4289637538
-0.106485 0.078771599 0.68800002 4289243296
-0.104778 0.078890301 0.68900001 4289440934
-0.102916 0.078894399 0.68900001 4289046431
-0.101641 0.079356603 0.69300002 4289112224
-0.098903596 0.078673601 0.68699998 4288914845
-0.094503596 0.076616101 0.66900003 4289045915
-0.064710997 0.060603201 0.52899998 4288980124
0.119587 0.057486299 0.50300002 4286220687
0.13536599 0.064339601 0.56300002 4286220696
0.152198 0.071534999 0.62599999 4286878624
0.160028 0.074387297 0.65100002 4286483866
0.16327 0.075068399 0.65700001 4286812831
0.166041 0.075521 0.66100001 4286615454
0.168327 0.075745001 0.66299999 4286220696
0.17087901 0.076083302 0.66600001 4286352282
0.17267001 0.076078802 0.66600001 4286549659
0.175247 0.076416999 0.66900003 4286483859
0.17731 0.076526798 0.67000002 4286351503
0.179645 0.076750897 0.67199999 4285759107
0.18145201 0.076746501 0.67199999 4286284420
0.183258 0.076742202 0.67199999 4286087036
0.18589 0.077080399 0.67500001 4286350207
0.187704 0.077076197 0.67500001 4288126358
0.189799 0.0771861 0.676 4288520601
0.191616 0.077181898 0.676 4288651926
0.19429 0.077520303 0.67900002 4288322959
0.196404 0.077630296 0.68000001 4288454799
0.198231 0.077626303 0.68000001 4288717971
0.199469 0.077393897 0.67799997 4288520338
0.20129099 0.07739 0.67799997 4288520085
0.20251399 0.077157803 0.676 4288717464
0.204934 0.077382296 0.67799997 4288520085
0.20706099 0.077492699 0.67900002 4288388499
0.20919301 0.077603102 0.68000001 4288520855
0.21070901 0.077485301 0.67900002 4288060304
0.212534 0.077481799 0.67900002 4288191890
0.21404199 0.077364199 0.67799997 4287928718
0.215864 0.077360801 0.67799997 4287928718
0.218007 0.077471599 0.67900002 4288060304
0.219831 0.077468298 0.67900002 4288060303
0.221982 0.077579297 0.68000001 4288389268
0.22381 0.077576198 0.68000001 4288125582
0.225969 0.077687301 0.68099999 4288257166
0.227799 0.077684402 0.68099999 4288519824
0.228955 0.077453397 0.67900002 4288717203
0.23112001 0.077564798 0.68000001 4288717203
0.233291 0.077676199 0.68099999 4288388238
0.235467 0.077787802 0.68199998 4288454547
0.23695301 0.077671297 0.68099999 4288322708
0.238434 0.077554896 0.68000001 4288454294
0.23990899 0.077438697 0.67900002 4288651673
0.242092 0.077550702 0.68000001 4288520087
0.24428 0.077662803 0.68099999 4288322447
0.246474 0.077775002 0.68199998 4288256652
0.24758101 0.077545099 0.68000001 4288454798
0.248678 0.077315502 0.67799997 4287994247
0.25013399 0.077200003 0.67699999 4287862661
0.25270101 0.077426702 0.67900002 4288257420
0.254529 0.077425502 0.67900002 4288125580
0.25635901 0.0774244 0.67900002 4287862408
0.25818801 0.077423401 0.67900002 4288387985
0.260784 0.077650703 0.68099999 4288716950
0.262234 0.077536002 0.68000001 4288651157
0.26406699 0.077535503 0.68000001 4288387985
0.265901 0.0775351 0.68000001 4288124813
0.26773599 0.077534899 0.68000001 4288453517
0.268778 0.077306703 0.67799997 4288387724
0.271007 0.077420801 0.67900002 4288256906
0.273242 0.0775351 0.68000001 4288059527
0.27507901 0.077535503 0.68000001 4288454284
0.27650899 0.077422 0.67900002 4288256906
0.27793401 0.077308796 0.67799997 4288191113
0.27976701 0.077309698 0.67799997 4288322699
0.28160101 0.077310704 0.67799997 4288256136
0.28301701 0.077197999 0.67699999 4288387722
0.28527099 0.077313401 0.67799997 4288782221
0.28710699 0.077315003 0.67799997 4288321670
0.28936899 0.077430896 0.67900002 4288189829
0.29121 0.077432796 0.67900002 4287795071
0.29261899 0.077321 0.67799997 4287992452
0.294458 0.077323303 0.67799997 4288189577
0.296298 0.077325903 0.67799997 4287861119
0.29857901 0.077442698 0.67900002 4287926912
0.30086601 0.077559799 0.68000001 4287531899
0.30271399 0.077563003 0.68000001 4286611052
0.30456299 0.0775664 0.68000001 4287071862
0.30551299 0.077341802 0.67799997 4287598722
0.30781201 0.0774597 0.67900002 4287532161
0.309205 0.0773497 0.67799997 4287466368
0.31105301 0.077353902 0.67799997 4287334522
0.312902 0.077358402 0.67799997 4287597692
0.31475201 0.077363104 0.67799997 4287663740
0.31707099 0.077482201 0.67900002 4287532154
0.31939599 0.0776015 0.68000001 4287663738
0.32078299 0.077492803 0.67900002 4287992705
0.323116 0.077612601 0.68000001 4287795324
0.32497799 0.077618599 0.68000001 4287927165
0.326841 0.077624798 0.68000001 4287927165
0.32822201 0.077517003 0.67900002 4287335281
0.32959899 0.077409603 0.67799997 4287598198
0.33146101 0.077416502 0.67799997 4287598198
0.33381599 0.077537902 0.67900002 4287861372
0.335684 0.077545397 0.67900002 4287400821
0.33705601 0.077438898 0.67799997 4287466614
0.338424 0.077332698 0.67699999 4287861631
0.340794 0.077455297 0.67799997 4287730047
0.34266499 0.077463903 0.67799997 4287861633
0.34555501 0.0777013 0.68000001 4287730300
0.34794599 0.077824697 0.68099999 4287927165
0.34931701 0.077719897 0.68000001 4287795324
0.35068399 0.077615403 0.67900002 4287597945
0.35256699 0.077625498 0.67900002 4287926912
0.35445201 0.077635899 0.67900002 4287794813
0.35686299 0.077761002 0.68000001 4287926399
0.35875499 0.077771999 0.68000001 4287794813
0.36064801 0.077783301 0.68000001 4287729533
0.362544 0.077794999 0.68000001 4287597947
0.36444199 0.077807002 0.68000001 4287663740
0.36634099 0.0778194 0.68000001 4287268982
0.36824301 0.077832103 0.68000001 4287597947
0.37014699 0.077845097 0.68000001 4287400568
0.37205401 0.0778585 0.68000001 4287729533
0.374513 0.077986702 0.68099999 4287334775
0.37697899 0.078115404 0.68199998 4285757529
0.37778801 0.0779007 0.68000001 4284572758
0.379704 0.077915497 0.68000001 4288455061
0.38106099 0.077816099 0.67900002 4288784026
0.38354301 0.077946298 0.68000001 4288520852
0.38546699 0.077962197 0.68000001 4288586647
0.387393 0.077978499 0.68000001 4288520854
0.38874999 0.077880502 0.67900002 4288455061
0.39183 0.078127101 0.68099999 4288520855
0.39318901 0.078029901 0.68000001 4288914843
0.39570799 0.078162603 0.68099999 4288520592
0.39706701 0.078066103 0.68000001 4288388752
0.399598 0.0781997 0.68099999 4288454545
0.40095699 0.078103997 0.68000001 4289112477
0.40349999 0.078238502 0.68099999 4288717464
0.40545601 0.0782585 0.68099999 4288388499
0.407415 0.078279004 0.68099999 4288454033
0.40937701 0.078299999 0.68099999 4288125320
0.41073799 0.078206301 0.68000001 4288388492
0.41209799 0.078113101 0.67900002 4288782998
0.41406399 0.078135297 0.67900002 4288190606
0.41664699 0.078273199 0.68000001 4288191122
0.41924 0.078411497 0.68099999 4288388501
0.42184201 0.078550398 0.68199998 4288651412
0.42445299 0.078689903 0.68300003 4288849043
0.425201 0.0784842 0.68099999 4288519308
0.427196 0.078509398 0.68099999 4288321670
0.42919499 0.078535102 0.68099999 4287663740
0.431831 0.078676701 0.68199998 4287334775
0.43384099 0.0787035 0.68199998 4287137394
0.435855 0.078730799 0.68199998 4287795324
0.43787301 0.078758597 0.68199998 4288058498
0.43925101 0.0786715 0.68099999 4287663740
0.441275 0.078700401 0.68099999 4288189829
0.443304 0.078729898 0.68099999 4287795073
0.44468299 0.078644201 0.68000001 4288321415
0.447375 0.078790501 0.68099999 4288321415
0.44941801 0.078821599 0.68099999 4288453001
0.45146501 0.078853399 0.68099999 4288124038
0.45285201 0.0787699 0.68000001 4287926659
0.45490599 0.078802802 0.68000001 4288058759
0.45763701 0.078952201 0.68099999 4287664001
0.45903 0.078870401 0.68000001 4287466106
0.46110001 0.078905202 0.68000001 4287729533
0.463175 0.078940503 0.68000001 4287597947
0.46594 0.079092696 0.68099999 4287597947
0.46940401 0.079361796 0.68300003 4287466359
0.470815 0.079283103 0.68199998 4287861119
0.47222501 0.079204902 0.68099999 4287532154
-0.199587 0.075451203 0.67699999 4289704106
-0.19806001 0.075566597 0.67799997 4289770669
-0.196528 0.075681999 0.67900002 4290297013
-0.194704 0.075686097 0.67900002 4290297013
-0.19259501 0.075578697 0.67799997 4290494392
-0.190492 0.075471401 0.67699999 4290559931
-0.188394 0.075364001 0.676 4290362552
-0.18657701 0.075368203 0.676 4290230966
-0.18476 0.075372502 0.676 4289901485
-0.183485 0.075599797 0.67799997 4289967019
-0.18166199 0.075604104 0.67799997 4289901224
-0.180105 0.075719997 0.67900002 4290032295
-0.177755 0.075501397 0.67699999 4290032549
-0.176194 0.075617298 0.67799997 4289966756
-0.174372 0.075621799 0.67799997 4289769123
-0.172803 0.075737797 0.67900002 4289901224
-0.170977 0.075742297 0.67900002 4289638054
-0.16915099 0.075746797 0.67900002 4289769640
-0.167325 0.075751401 0.67900002 4289506468
-0.165254 0.075644404 0.67799997 4289900710
-0.16343001 0.075649001 0.67799997 4290163881
-0.161606 0.075653598 0.67799997 4289900963
-0.160017 0.075769797 0.67900002 4289637537
-0.157957 0.075662799 0.67799997 4289768609
-0.156132 0.075667404 0.67799997 4289702816
-0.15430699 0.075672001 0.67799997 4289440158
-0.152932 0.075899899 0.68000001 4289243033
-0.150879 0.075792901 0.67900002 4289243031
-0.149051 0.075797603 0.67900002 4289243033
-0.147222 0.0758022 0.67900002 4289308826
-0.14560699 0.075918503 0.68000001 4289177240
-0.143776 0.0759231 0.68000001 4289110931
-0.14194401 0.075927697 0.68000001 4289308310
-0.140111 0.075932302 0.68000001 4289242772
-0.13807601 0.075825296 0.67900002 4289242772
-0.136245 0.075829796 0.67900002 4289111184
-0.13461301 0.0759461 0.68000001 4289505944
-0.132585 0.075838998 0.67900002 4289045393
-0.13036899 0.0756201 0.67699999 4289308310
-0.128353 0.075512901 0.676 4289242519
-0.126717 0.0756291 0.67699999 4289308312
-0.125076 0.075745203 0.67799997 4289242265
-0.12361 0.075973101 0.68000001 4289571230
-0.121954 0.0760893 0.68099999 4289637537
-0.120117 0.076093704 0.68099999 4289966503
-0.118105 0.075986303 0.68000001 4289045915
-0.116269 0.075990602 0.68000001 4289243296
-0.114097 0.075771399 0.67799997 4289439905
-0.112266 0.075775601 0.67799997 4289242526
-0.110435 0.0757799 0.67799997 4289242526
-0.109085 0.076119401 0.68099999 4289505698
-0.107718 0.076458797 0.68400002 4289045662
-0.106179 0.076686598 0.68599999 4288979869
-0.104326 0.076690704 0.68599999 4289111455
-0.10292 0.0770301 0.68900001 4289440675
-0.101791 0.077593103 0.69400001 4289309089
-0.100923 0.078379802 0.70099998 4289374882
-0.073452704 0.064310603 0.57499999 4289505951
-0.0698964 0.062523998 0.55900002 4289374882
-0.0648361 0.0592831 0.52999997 4289243296
0.130321 0.060475402 0.542 4286418327
0.149285 0.0685049 0.61400002 4286023568
0.159049 0.072182298 0.64700001 4286352019
0.16252901 0.072958902 0.65399998 4286023568
0.165544 0.073512301 0.65899998 4286023568
0.16756999 0.0736195 0.66000003 4286286741
0.170114 0.073949702 0.66299999 4286352280
0.17189699 0.073945299 0.66299999 4286418327
0.174465 0.074275598 0.66600001 4286549398
0.17652 0.074382797 0.667 4286219917
0.178848 0.074601501 0.66900003 4286219658
0.180916 0.0747087 0.67000002 4286153349
0.18299 0.074816003 0.671 4286153088
0.185344 0.0750347 0.67299998 4285758070
0.186874 0.074919 0.67199999 4287928979
0.18867999 0.074914902 0.67199999 4288323223
0.190769 0.075022303 0.67299998 4288191375
0.192864 0.075129703 0.67400002 4288323213
0.19496401 0.075237103 0.67500001 4288323212
0.196777 0.075233102 0.67500001 4288717456
0.19859099 0.075229198 0.67500001 4288585871
0.200404 0.075225301 0.67500001 4288717205
0.20191801 0.0751101 0.67400002 4288717205
0.20403101 0.075217798 0.67500001 4288520340
0.20645501 0.075436898 0.67699999 4288586133
0.207966 0.075321898 0.676 4288388499
0.209782 0.075318299 0.676 4288520085
0.211285 0.075203396 0.67500001 4288389269
0.213414 0.0753114 0.676 4288652441
0.214912 0.075196698 0.67500001 4288389015
0.21704701 0.075304799 0.676 4288257683
0.218539 0.075190201 0.67500001 4288323476
0.22068 0.075298503 0.676 4288257683
0.22282501 0.075406902 0.67699999 4288256913
0.224976 0.0755153 0.67799997 4288322961
0.22713301 0.075623803 0.67900002 4288388238
0.22862101 0.075509697 0.67799997 4288388238
0.230443 0.075507 0.67799997 4288389006
0.23260801 0.075615801 0.67900002 4288454799
0.234779 0.075724602 0.68000001 4288388752
0.23626 0.075610898 0.67900002 4288454292
0.237735 0.075497299 0.67799997 4288585878
0.239205 0.0753837 0.67699999 4288322708
0.241026 0.075381704 0.67699999 4288651673
0.24320599 0.075491101 0.67799997 4288322706
0.24503 0.075489201 0.67799997 4288191375
0.24649 0.075376198 0.67699999 4288388752
0.24794599 0.075263299 0.676 4288520338
0.24976601 0.075261801 0.676 4288520591
0.25195801 0.075371802 0.67699999 4288586385
0.25340599 0.075259201 0.676 4288651924
0.255604 0.075369403 0.67699999 4288520338
0.25742799 0.075368501 0.67699999 4288585878
0.25963601 0.075479001 0.67799997 4288322708
0.26146299 0.0754783 0.67799997 4288256660
0.263291 0.075477697 0.67799997 4288190867
0.26472801 0.075365998 0.67699999 4288256913
0.26655501 0.0753657 0.67699999 4288191120
0.268381 0.075365603 0.67699999 4288191120
0.270208 0.075365603 0.67699999 4288520340
0.27243799 0.075477198 0.67799997 4288520338
0.27426901 0.075477503 0.67799997 4288191373
0.27610099 0.075478002 0.67799997 4288586645
0.277933 0.075478703 0.67799997 4288651924
0.27935401 0.075368203 0.67699999 4288717717
0.28076899 0.075257897 0.676 4288586133
0.28218001 0.075147703 0.67500001 4288125582
0.284428 0.075260401 0.676 4288060041
0.28625801 0.075261898 0.676 4288257166
0.288515 0.075374901 0.67699999 4288322959
0.28992099 0.075265497 0.676 4287862148
0.29175401 0.075267598 0.676 4288059273
0.293587 0.075269803 0.676 4288322447
0.29542199 0.075272299 0.676 4288585103
0.29725701 0.0752749 0.676 4288453517
0.29997799 0.075500503 0.67799997 4288454031
0.30182099 0.075503498 0.67799997 4288125066
0.30411199 0.0756182 0.67900002 4287599238
0.305058 0.0753989 0.67699999 4287270273
0.30644801 0.075291201 0.676 4287993741
0.30783299 0.075183697 0.67500001 4288388499
0.30967301 0.075187802 0.67500001 4288519826
0.311975 0.075303502 0.676 4288453517
0.31381899 0.075308003 0.676 4288453001
0.31566501 0.075312801 0.676 4288255622
0.31751201 0.0753178 0.676 4288190084
0.31935999 0.075323001 0.676 4288255877
0.32168499 0.0754399 0.67699999 4288124805
0.32306001 0.075334199 0.676 4287993219
0.32539299 0.075451598 0.67699999 4287006838
0.32724899 0.075457796 0.67699999 4287401594
0.328134 0.075241402 0.67500001 4287532666
0.330477 0.075359501 0.676 4287467128
0.33233401 0.075366497 0.676 4287532921
0.33468801 0.0754852 0.67699999 4287203701
0.336054 0.075381197 0.676 4287203703
0.33691701 0.075165898 0.67400002 4287598461
0.33877501 0.0751739 0.67400002 4287203964
0.34114 0.075293802 0.67500001 4287598976
0.34351301 0.075413898 0.676 4287533182
0.345382 0.075422801 0.676 4287664252
0.34725299 0.075431898 0.676 4287532666
0.348609 0.075329803 0.67500001 4287335289
0.35151899 0.075562797 0.67699999 4287729533
0.353398 0.075572804 0.67699999 4287729531
0.35580301 0.075694799 0.67799997 4287926912
0.35768899 0.075705498 0.67799997 4287597947
0.35957599 0.075716503 0.67799997 4287597947
0.36146599 0.075727798 0.67799997 4287729280
0.36389399 0.075851202 0.67900002 4287597694
0.36525199 0.075751401 0.67799997 4287597692
0.366606 0.075652003 0.67699999 4287400568
0.367957 0.075552799 0.676 4287532154
