# .PCD v0.7 - Point Cloud Data file format
VERSION 0.7
FIELDS x y z rgb
SIZE 4 4 4 4
TYPE F F F U
COUNT 1 1 1 1
WIDTH 1114
HEIGHT 1
VIEWPOINT 0 0 0 1 0 0 0
POINTS 1114
DATA ascii
0.140356 -0.122757 0.79900002 4286085210
0.14269 -0.122904 0.80000001 4286151007
0.144667 -0.122744 0.79900002 4286545510
0.14700601 -0.122891 0.80000001 4287137649
0.14916401 -0.122885 0.80000001 4287269235
0.15151 -0.123032 0.801 4287071601
0.153478 -0.122872 0.80000001 4286150499
0.155829 -0.123019 0.801 4286216294
0.157988 -0.123012 0.801 4287005555
0.160547 -0.123313 0.80299997 4286677104
0.16311701 -0.123613 0.80500001 4287137910
0.164875 -0.123299 0.80299997 4286743152
0.16703901 -0.123293 0.80299997 4286808429
0.168991 -0.123132 0.80199999 4286874218
0.171151 -0.123126 0.80199999 4285821530
0.173095 -0.122965 0.801 4286018395
0.17547099 -0.123112 0.80199999 4286412383
0.177853 -0.123259 0.80299997 4286215006
0.180015 -0.123252 0.80299997 4286675305
0.181723 -0.122939 0.801 4286543719
0.184338 -0.123239 0.80299997 4286807144
0.1865 -0.123232 0.80299997 4286807141
0.188896 -0.123379 0.80400002 4285753939
0.190584 -0.123065 0.80199999 4287004520
0.192983 -0.123212 0.80299997 4286543969
0.195144 -0.123206 0.80299997 4286543971
0.197304 -0.123199 0.80299997 4287136108
0.19946399 -0.123193 0.80299997 4287267694
0.201373 -0.123033 0.80199999 4286478178
0.203531 -0.123026 0.80199999 4287004520
0.205431 -0.122867 0.801 4286479199
0.20732599 -0.122707 0.80000001 4286544992
0.20947801 -0.122701 0.80000001 4286544222
0.21189401 -0.122848 0.801 4286610269
0.214315 -0.122995 0.80199999 4286939234
0.215932 -0.122682 0.80000001 4286675808
0.21808299 -0.122676 0.80000001 4286544224
0.22023401 -0.12267 0.80000001 4286149981
0.222385 -0.122664 0.80000001 4286873451
0.224255 -0.122505 0.79900002 4286281828
0.22583599 -0.122193 0.79699999 4286347621
0.227979 -0.122187 0.79699999 4286544485
0.230121 -0.122182 0.79699999 4286544992
0.23284701 -0.122483 0.79900002 4286676576
0.23558301 -0.122784 0.801 4286873441
0.237736 -0.122779 0.801 4287333478
0.23959 -0.12262 0.80000001 4287136099
0.241438 -0.122462 0.79900002 4286675548
0.24328201 -0.122304 0.79799998 4286807134
0.245427 -0.122299 0.79799998 4286807648
0.247572 -0.122294 0.79799998 4286610269
0.249405 -0.122136 0.79699999 4286347613
0.25154799 -0.122132 0.79699999 4286413406
0.25305399 -0.121821 0.79500002 4286346590
0.25519201 -0.121817 0.79500002 4286149718
0.25700599 -0.12166 0.79400003 4285426247
0.25914201 -0.121656 0.79400003 4285688906
0.26160601 -0.121805 0.79500002 4286017617
0.26341301 -0.121648 0.79400003 4286280789
0.265549 -0.121645 0.79400003 4286873180
0.26734799 -0.121488 0.79299998 4287070559
0.26982099 -0.121638 0.79400003 4287136612
0.27195799 -0.121635 0.79400003 4287268198
0.27443999 -0.121785 0.79500002 4287334506
0.27657899 -0.121783 0.79500002 4287334508
0.27871999 -0.12178 0.79500002 4287268715
0.28086001 -0.121778 0.79500002 4287202922
0.28335699 -0.121929 0.796 4286939750
0.28585899 -0.12208 0.79699999 4286676324
0.287283 -0.121772 0.79500002 4287202668
0.28942499 -0.12177 0.79500002 4286940010
0.291935 -0.121922 0.796 4286874217
0.294819 -0.122227 0.79799998 4286742369
0.29622599 -0.12192 0.796 4286742369
0.297997 -0.121766 0.79500002 4286479450
0.30051899 -0.121919 0.796 4286874724
0.30266699 -0.121918 0.796 4286742883
0.30481499 -0.121918 0.796 4287071344
0.30619201 -0.121612 0.79400003 4287005803
0.30833599 -0.121612 0.79400003 4286742631
0.31087101 -0.121766 0.79500002 4287005543
0.31301901 -0.121767 0.79500002 4287334508
0.31516701 -0.121768 0.79500002 4287267945
0.317316 -0.121769 0.79500002 4287465324
0.31946599 -0.121771 0.79500002 4287202922
0.32202101 -0.121926 0.796 4287137643
0.324175 -0.121928 0.796 4287203436
0.32674 -0.122084 0.79699999 4287072107
0.32889801 -0.122086 0.79699999 4286611556
0.33147299 -0.122242 0.79799998 4286940521
0.33405399 -0.122399 0.79900002 4286545252
0.33664101 -0.122555 0.80000001 4286479460
0.33881101 -0.122559 0.80000001 4286545252
0.34140801 -0.122717 0.801 4286677345
0.34358299 -0.122721 0.801 4287203689
0.34619001 -0.122879 0.80199999 4287138402
0.34836999 -0.122884 0.80199999 4287072607
0.35098699 -0.123043 0.80299997 4287006816
0.353172 -0.123048 0.80299997 4286611303
0.355358 -0.123054 0.80299997 4286874475
0.35799 -0.123214 0.80400002 4286808937
0.36017999 -0.123221 0.80400002 4286874475
0.361922 -0.123074 0.80299997 4287137900
0.36411199 -0.123082 0.80299997 4287006312
0.36630401 -0.12309 0.80299997 4287336038
0.36849701 -0.123098 0.80299997 4286677347
0.36976901 -0.1228 0.801 4286743140
0.371959 -0.122808 0.801 4286808935
0.37368399 -0.122664 0.80000001 4286019419
0.375875 -0.122674 0.80000001 4286019160
0.37712201 -0.122377 0.79799998 4285163851
0.37978601 -0.122541 0.79900002 4283979836
0.38197899 -0.122552 0.79900002 4283519283
0.383692 -0.122409 0.79799998 4282861355
0.384918 -0.122114 0.796 4282400047
0.38662201 -0.121973 0.79500002 4282663717
0.38881001 -0.121985 0.79500002 4283057961
0.390017 -0.121691 0.79299998 4282992423
0.391709 -0.121551 0.792 4282006042
0.39339799 -0.121411 0.79100001 4282400547
0.395583 -0.121425 0.79100001 4282861353
0.397769 -0.121439 0.79100001 4283584827
0.39945301 -0.1213 0.79000002 4285821281
0.40164101 -0.121316 0.79000002 4286545004
0.40332001 -0.121178 0.78899997 4286742885
0.40551001 -0.121194 0.78899997 4287334262
0.406151 -0.12075 0.78600001 4286940262
0.407298 -0.12046 0.78399998 4287598445
0.40948001 -0.120478 0.78399998 4286150999
0.41218999 -0.120649 0.78500003 4286611552
0.41385201 -0.120514 0.78399998 4287269229
0.416042 -0.120533 0.78399998 4286940270
0.41769999 -0.120399 0.78299999 4286677098
0.41935599 -0.120266 0.78200001 4281808424
0.421547 -0.120286 0.78200001 4285230680
0.42374101 -0.120307 0.78200001 4287466863
0.42648199 -0.120483 0.78299999 4286874726
0.428137 -0.120351 0.78200001 4286677090
0.43088901 -0.120528 0.78299999 4286479711
0.43254399 -0.120397 0.78200001 4286611036
0.43475199 -0.120421 0.78200001 4286676314
0.43696201 -0.120446 0.78200001 4286677325
0.43917599 -0.120471 0.78200001 4286545749
0.441957 -0.12065 0.78299999 4286479703
0.44418001 -0.120677 0.78299999 4286939487
0.44583601 -0.12055 0.78200001 4287071072
0.448062 -0.120577 0.78200001 4286610260
0.45029101 -0.120605 0.78200001 4286872918
0.45368201 -0.120942 0.78399998 4286872916
0.45534199 -0.120817 0.78299999 4286807377
0.45816901 -0.121002 0.78399998 4287201881
0.46041799 -0.121033 0.78399998 4286741846
0.46267101 -0.121064 0.78399998 4286675548
0.46551999 -0.121251 0.78500003 4286873693
0.46837899 -0.121438 0.78600001 4287070819
0.471248 -0.121626 0.787 4287268451
0.47352499 -0.12166 0.787 4287136351
0.47580501 -0.121695 0.787 4287070558
0.47808999 -0.121731 0.787 4286808154
0.48037899 -0.121767 0.787 4287005279
0.48328501 -0.121959 0.78799999 4287005794
0.485585 -0.121997 0.78799999 4286742622
0.48727101 -0.121881 0.787 4286545243
0.48833299 -0.121611 0.78500003 4287070819
0.491263 -0.121806 0.78600001 4286676061
0.49294701 -0.121692 0.78500003 4287070306
0.49589199 -0.121889 0.78600001 4286938213
0.49694601 -0.121621 0.78399998 4287136098
0.49926701 -0.121665 0.78399998 4286873179
-0.199175 -0.122223 0.78299999 4288057985
-0.197069 -0.122229 0.78299999 4288321417
-0.19546001 -0.122548 0.78500003 4287268989
-0.194087 -0.123023 0.78799999 4284374867
-0.192211 -0.123185 0.78899997 4289967272
-0.190088 -0.123192 0.78899997 4289243547
-0.18796501 -0.123198 0.78899997 4289374617
-0.186077 -0.123361 0.79000002 4289571737
-0.183718 -0.123211 0.78899997 4289374098
-0.181364 -0.123062 0.78799999 4289374611
-0.17969701 -0.123381 0.79000002 4289506197
-0.17734601 -0.123231 0.78899997 4289900955
-0.175888 -0.123706 0.792 4289505938
-0.17375501 -0.123713 0.792 4288913801
-0.171839 -0.123876 0.79299998 4289308045
-0.16970301 -0.123883 0.79299998 4289110666
-0.167778 -0.124046 0.79400003 4289373070
-0.165848 -0.124209 0.79500002 4289241999
-0.163294 -0.123903 0.79299998 4288913548
-0.161157 -0.123909 0.79299998 4289440149
-0.15902001 -0.123916 0.79299998 4289835162
-0.156883 -0.123923 0.79299998 4288979598
-0.154746 -0.123929 0.79299998 4289242772
-0.15279999 -0.124092 0.79400003 4289440151
-0.15065999 -0.124099 0.79400003 4289505944
-0.14851899 -0.124105 0.79400003 4289571737
-0.146193 -0.123956 0.79299998 4289374358
-0.144236 -0.124118 0.79400003 4289241998
-0.14227299 -0.124281 0.79500002 4288188794
-0.139952 -0.124131 0.79400003 4288846212
-0.13763601 -0.123981 0.79299998 4288648833
-0.135667 -0.124144 0.79400003 4288845698
-0.133524 -0.12415 0.79400003 4288911489
-0.131547 -0.124313 0.79500002 4289240454
-0.1294 -0.124319 0.79500002 4289240709
-0.12725399 -0.124325 0.79500002 4289438602
-0.125108 -0.124331 0.79500002 4289767565
-0.122961 -0.124338 0.79500002 4289635981
-0.120965 -0.1245 0.796 4289504140
-0.118815 -0.124506 0.796 4289701519
-0.116665 -0.124512 0.796 4289569933
-0.114658 -0.124674 0.79699999 4289503881
-0.11321 -0.125462 0.80199999 4288977535
-0.112704 -0.127345 0.81400001 4288056433
-0.113898 -0.131262 0.83899999 4288648572
-0.149216 -0.182914 1.169 4289635726
-0.143556 -0.179793 1.149 4289635467
-0.078293003 -0.102501 0.65499997 4289571230
-0.075469702 -0.101097 0.64600003 4288453010
-0.072923303 -0.100005 0.639 4285822835
-0.070971601 -0.099696301 0.63700002 4285559147
-0.069139197 -0.099543497 0.63599998 4285098596
-0.067418098 -0.099547297 0.63599998 4284703577
-0.065593503 -0.099394403 0.63499999 4284704346
-0.063874699 -0.099397898 0.63499999 4283520070
-0.062253602 -0.099558003 0.63599998 4284243793
-0.060341399 -0.099248298 0.634 4284309588
-0.058347501 -0.098782003 0.63099998 4284177747
-0.0564593 -0.098472103 0.62900001 4283520333
-0.055017099 -0.098944902 0.63200003 4283059013
-0.053558499 -0.099417597 0.63499999 4281018158
-0.051838599 -0.0994206 0.63499999 4282663741
-0.049802799 -0.098797202 0.63099998 4283124537
-0.047712401 -0.098017097 0.62599999 4283584581
-0.045869399 -0.097706601 0.62400001 4284506198
-0.044107899 -0.097552598 0.62300003 4283979856
-0.042487901 -0.097711697 0.62400001 4283256133
-0.0406009 -0.0972443 0.62099999 4284571993
-0.038855299 -0.097089998 0.62 4282598717
-0.036995102 -0.0966224 0.61699998 4283782989
-0.0353228 -0.096624598 0.61699998 4284111954
-0.0335958 -0.096469998 0.616 4284571991
-0.031874198 -0.096315302 0.61500001 4284572246
-0.0301088 -0.096003897 0.61299998 4284440660
-0.028307701 -0.095535703 0.61000001 4284638039
-0.026653901 -0.095537297 0.61000001 4284177488
-0.0249591 -0.095382199 0.60900003 4283782730
-0.0232313 -0.095070399 0.60699999 4283848005
-0.0215498 -0.094915099 0.60600001 4283190075
-0.019906599 -0.094916403 0.60600001 4282729265
-0.018353701 -0.095387399 0.60900003 4281939490
-0.016839299 -0.096171603 0.61400002 4281544732
-0.0153225 -0.097112298 0.62 4281742110
-0.013839 -0.098522902 0.62900001 4281873696
-0.0122682 -0.099620096 0.63599998 4282005022
-0.0107256 -0.101344 0.64700001 4282005021
-0.00906792 -0.102441 0.65399998 4282202400
-0.0073833601 -0.103694 0.662 4282202400
-0.00562162 -0.104321 0.66600001 4281676056
-0.00384389 -0.105105 0.671 4282005021
-0.0020330001 -0.105575 0.67400002 4282136093
-0.00020582401 -0.106045 0.67699999 4282136093
0.00163762 -0.106515 0.68000001 4281873436
0.0035127001 -0.107455 0.68599999 4282004768
0.0054281498 -0.108551 0.69300002 4282136354
0.0073815598 -0.109647 0.69999999 4281938975
0.0093331402 -0.110273 0.704 4281807903
0.0113064 -0.110899 0.708 4281742111
0.0132826 -0.111368 0.71100003 4281281560
0.0152965 -0.111994 0.71499997 4281609757
0.0173079 -0.112463 0.71799999 4281544478
0.0192819 -0.112618 0.71899998 4281676065
0.0212317 -0.112617 0.71899998 4281742370
0.0232781 -0.113085 0.722 4281347612
0.025410701 -0.113867 0.727 4281544991
0.027608 -0.114805 0.73299998 4281347612
0.029797399 -0.115587 0.73799998 4281413405
0.032013699 -0.116368 0.74299997 4281479198
0.034119699 -0.116679 0.745 4281413405
0.036333501 -0.117304 0.74900001 4281347612
0.038568899 -0.117928 0.75300002 4281347612
0.0408797 -0.118709 0.75800002 4281084440
0.043274201 -0.119646 0.764 4281150233
0.045701001 -0.120583 0.76999998 4281018647
0.0482844 -0.121833 0.778 4280623376
0.0507815 -0.12277 0.78399998 4281610525
0.053243399 -0.12355 0.78899997 4282136354
0.055662099 -0.124173 0.79299998 4282333733
0.057664901 -0.123856 0.79100001 4282991147
0.0598079 -0.123853 0.79100001 4283122733
0.062029101 -0.124006 0.792 4283517491
0.064255498 -0.124159 0.79299998 4284043574
0.066403396 -0.124155 0.79299998 4283846195
0.068464696 -0.123995 0.792 4283846195
0.070609502 -0.123991 0.792 4284044088
0.072846003 -0.124144 0.79299998 4284044604
0.075087599 -0.124296 0.79400003 4283715639
0.077334501 -0.124448 0.79500002 4284307776
0.079386704 -0.124288 0.79400003 4284307270
0.081638597 -0.12444 0.79500002 4284241730
0.083790198 -0.124435 0.79500002 4284241984
0.085941702 -0.12443 0.79500002 4284307777
0.087871298 -0.124113 0.79299998 4284505669
0.090130404 -0.124264 0.79400003 4284308290
0.092278503 -0.12426 0.79400003 4285032013
0.094545297 -0.124411 0.79500002 4284703048
0.096573897 -0.124249 0.79400003 4285032267
0.098845601 -0.124401 0.79500002 4285032013
0.101122 -0.124552 0.796 4285229392
0.103275 -0.124547 0.796 4285229392
0.105559 -0.124698 0.79699999 4285295185
0.107578 -0.124536 0.796 4285689430
0.109868 -0.124687 0.79699999 4285622869
0.112303 -0.124994 0.79900002 4285294419
0.114605 -0.125145 0.80000001 4284899921
0.116621 -0.124982 0.79900002 4283124023
0.118631 -0.12482 0.79799998 4281544991
0.120332 -0.124345 0.79500002 4285558364
0.122325 -0.124182 0.79400003 4285821789
0.12447 -0.124176 0.79400003 4285558609
0.12661301 -0.12417 0.79400003 4285887060
0.12908199 -0.124477 0.796 4286149980
0.13123 -0.124471 0.796 4286018908
0.13354699 -0.124621 0.79699999 4286084448
0.13535701 -0.124302 0.79500002 4286018655
0.137502 -0.124295 0.79500002 4286412646
0.13964701 -0.124289 0.79500002 4286807404
0.142149 -0.124595 0.79699999 4286084195
0.144118 -0.124433 0.796 4285953375
0.146081 -0.12427 0.79500002 4286348131
0.14822499 -0.124263 0.79500002 4287071854
0.15018 -0.1241 0.79400003 4287071856
0.15212899 -0.123937 0.79299998 4286282085
0.15465499 -0.124243 0.79500002 4285887329
0.156996 -0.124393 0.796 4286611052
0.159541 -0.124699 0.79799998 4286216294
0.16189399 -0.124848 0.79900002 4286676843
0.16384199 -0.124686 0.79799998 4286282085
0.16599201 -0.124679 0.79799998 4286808425
0.16793101 -0.124516 0.79699999 4286808164
0.17007799 -0.124509 0.79699999 4285821267
0.17200799 -0.124346 0.796 4286083925
0.174152 -0.124339 0.796 4285952087
0.17651699 -0.124489 0.79699999 4286215774
0.17888699 -0.124638 0.79799998 4286215520
0.180355 -0.124163 0.79500002 4286675557
0.182725 -0.124313 0.796 4286215774
0.18486699 -0.124306 0.796 4286807396
0.187245 -0.124455 0.79699999 4286215257
0.188914 -0.124137 0.79500002 4286938982
0.191054 -0.12413 0.79500002 4287070568
0.193679 -0.124436 0.79699999 4285951318
0.19557799 -0.124273 0.796 4287136106
0.19771899 -0.124267 0.796 4287004522
0.199358 -0.123948 0.79400003 4286939497
0.201748 -0.124098 0.79500002 4286413153
0.20363 -0.123935 0.79400003 4286413152
0.205506 -0.123773 0.79299998 4286807648
0.20816199 -0.124079 0.79500002 4286610015
0.2103 -0.124072 0.79500002 4286544476
0.212438 -0.124066 0.79500002 4286675808
0.21457601 -0.12406 0.79500002 4286281050
0.21644101 -0.123898 0.79400003 4286609762
0.218576 -0.123892 0.79400003 4285952348
0.22071099 -0.123886 0.79400003 4286478439
0.222846 -0.123881 0.79400003 4286478953
0.22441401 -0.123563 0.792 4286479206
0.22682901 -0.123713 0.79299998 4286807911
0.22896101 -0.123708 0.79299998 4286676576
0.230801 -0.123546 0.792 4286676062
0.233519 -0.123853 0.79400003 4286676062
0.23594999 -0.124004 0.79500002 4286741855
0.238087 -0.123998 0.79500002 4286676062
0.239923 -0.123837 0.79400003 4286873441
0.241448 -0.123521 0.792 4286807134
0.243884 -0.123672 0.79299998 4286741341
0.24601699 -0.123667 0.79299998 4286347096
0.24846201 -0.123818 0.79400003 4286281304
0.25028101 -0.123658 0.79299998 4286347097
0.25177699 -0.123342 0.79100001 4286543455
0.25358301 -0.123182 0.79000002 4287004513
0.255707 -0.123178 0.79000002 4286807133
0.25783199 -0.123174 0.79000002 4287004766
0.259628 -0.123014 0.78899997 4286807134
0.261419 -0.122855 0.78799999 4287136099
0.26353899 -0.122851 0.78799999 4287070819
0.265659 -0.122848 0.78799999 4286939233
0.26811901 -0.123001 0.78899997 4286742624
0.26989999 -0.122842 0.78799999 4286873955
0.272021 -0.122839 0.78799999 4287335020
0.27449 -0.122992 0.78899997 4287006057
0.276263 -0.122834 0.78799999 4286939750
0.278032 -0.122676 0.787 4287334508
0.28015101 -0.122674 0.787 4286807910
0.28298801 -0.122983 0.78899997 4287334254
0.28511399 -0.122982 0.78899997 4287400047
0.28687599 -0.122824 0.78799999 4287531634
0.28936601 -0.122979 0.78899997 4287335022
0.29186201 -0.123134 0.79000002 4287006055
0.29361999 -0.122977 0.78899997 4287269482
0.29537299 -0.12282 0.78799999 4287335275
0.297876 -0.122976 0.78899997 4287137896
0.300385 -0.123131 0.79000002 4287203691
0.302517 -0.123131 0.79000002 4287137900
0.30387801 -0.12282 0.78799999 4287532658
0.30600601 -0.12282 0.78799999 4287664246
0.30852601 -0.122977 0.78899997 4287597940
0.311445 -0.123289 0.79100001 4287466094
0.31358299 -0.123291 0.79100001 4287531887
0.31572101 -0.123292 0.79100001 4287663473
0.31786001 -0.123294 0.79100001 4287466094
0.32040501 -0.123452 0.792 4287335022
0.32214099 -0.123298 0.79100001 4287269227
0.324283 -0.1233 0.79100001 4287532401
0.32601199 -0.123147 0.79000002 4287269227
0.32773799 -0.122995 0.78899997 4287598192
0.32987601 -0.122998 0.78899997 4287400299
0.33243701 -0.123157 0.79000002 4287531887
0.33415601 -0.123005 0.78899997 4287729264
0.33672401 -0.123166 0.79000002 4287663471
0.33886901 -0.12317 0.79000002 4287334761
0.341447 -0.123331 0.79100001 4287334506
0.34403101 -0.123492 0.792 4287531885
0.346185 -0.123497 0.792 4287400047
0.34834 -0.123503 0.792 4287005803
0.35049599 -0.123509 0.792 4287005803
0.35309801 -0.123672 0.79299998 4287203182
0.355259 -0.123679 0.79299998 4287071850
0.356971 -0.12353 0.792 4287268713
0.35867801 -0.123381 0.79100001 4287269733
0.36175001 -0.123701 0.79299998 4287072607
0.36391699 -0.12371 0.79299998 4287269482
0.36608401 -0.123718 0.79299998 4287072103
0.36825299 -0.123727 0.79299998 4286940521
0.370424 -0.123737 0.79299998 4286940262
0.372596 -0.123746 0.79299998 4287137127
0.373824 -0.123444 0.79100001 4287071848
0.37742001 -0.123923 0.79400003 4286808933
0.379599 -0.123934 0.79400003 4286874726
0.3813 -0.12379 0.79299998 4287203691
0.382029 -0.123333 0.79000002 4286546267
0.38323 -0.123033 0.78799999 4286480217
0.38637799 -0.123358 0.79000002 4286545759
0.38855499 -0.123371 0.79000002 4286084953
0.390239 -0.123228 0.78899997 4286348380
0.391422 -0.12293 0.787 4286874724
0.393096 -0.122788 0.78600001 4285953624
0.39577299 -0.122959 0.787 4285888592
0.39744499 -0.122818 0.78600001 4286018403
0.399115 -0.122677 0.78500003 4285163853
0.40129101 -0.122693 0.78500003 4285492565
0.40347001 -0.12271 0.78500003 4284308542
0.404618 -0.122414 0.78299999 4284506429
0.40523699 -0.121962 0.77999997 4283650604
0.407931 -0.122137 0.78100002 4282730016
0.409583 -0.121999 0.77999997 4282466338
0.41176 -0.122018 0.77999997 4283650614
0.41340801 -0.121881 0.77899998 4282926638
0.41611999 -0.122057 0.77999997 4282728752
0.41830301 -0.122078 0.77999997 4282136615
0.42049 -0.122099 0.77999997 4280295177
0.42213699 -0.121964 0.77899998 4281545505
0.42487001 -0.122142 0.77999997 4283716674
0.427064 -0.122165 0.77999997 4283848511
0.42926201 -0.122188 0.77999997 4284309064
0.43146101 -0.122212 0.77999997 4285689950
0.433108 -0.12208 0.77899998 4286216294
0.43586999 -0.122262 0.77999997 4286808682
0.43751699 -0.12213 0.77899998 4287268980
0.439161 -0.122 0.778 4287268727
0.44137001 -0.122026 0.778 4287466612
0.44415301 -0.122211 0.77899998 4286940519
0.446944 -0.122395 0.77999997 4286874726
0.449168 -0.122424 0.77999997 4286677596
0.45197499 -0.12261 0.78100002 4286874469
0.45362699 -0.122483 0.77999997 4286611036
0.45586199 -0.122514 0.77999997 4286413657
0.457513 -0.122388 0.77899998 4286086218
0.46034199 -0.122577 0.77999997 4286612062
0.46258801 -0.12261 0.77999997 4286019417
0.465433 -0.1228 0.78100002 4286808935
0.46768901 -0.122834 0.78100002 4286545504
0.46934801 -0.122712 0.77999997 4286348633
0.47100401 -0.12259 0.77899998 4286611552
0.47265899 -0.122469 0.778 4286940517
0.476143 -0.12282 0.77999997 4286940519
0.47964299 -0.123173 0.78200001 4286940519
0.48254299 -0.123369 0.78299999 4286743138
0.484833 -0.123409 0.78299999 4286677081
0.486507 -0.123291 0.78200001 4286939234
0.48817801 -0.123174 0.78100002 4286676062
0.490477 -0.123216 0.78100002 4286676062
0.493411 -0.123416 0.78200001 4286939234
0.494454 -0.123144 0.77999997 4286873441
0.496764 -0.123188 0.77999997 4287333991
0.49907899 -0.123232 0.77999997 4287202659
-0.19998901 -0.123535 0.778 4287860606
-0.198405 -0.123859 0.77999997 4288058496
-0.197062 -0.124342 0.78299999 4287663740
-0.195703 -0.124825 0.78600001 4285032281
-0.193342 -0.124672 0.78500003 4287861641
-0.19098599 -0.12452 0.78399998 4289112215
-0.188877 -0.124526 0.78399998 4289571482
-0.187005 -0.124692 0.78500003 4289505944
-0.184892 -0.124698 0.78500003 4289637530
-0.18278 -0.124705 0.78500003 4289374358
-0.180897 -0.12487 0.78600001 4289440149
-0.17900801 -0.125036 0.787 4289900955
-0.17711399 -0.125201 0.78799999 4289703574
-0.17521501 -0.125367 0.78899997 4289243017
-0.17287099 -0.12521499 0.78799999 4289308810
-0.170965 -0.12537999 0.78899997 4289242505
-0.16884001 -0.125387 0.78899997 4289373837
-0.167349 -0.125871 0.792 4289373838
-0.165215 -0.12587699 0.792 4289176720
-0.16267 -0.12556601 0.79000002 4288979340
-0.160338 -0.125414 0.78899997 4289966489
-0.15841199 -0.12558 0.79000002 4288979853
-0.156481 -0.125745 0.79100001 4289308818
-0.154349 -0.125752 0.79100001 4289440404
-0.152024 -0.1256 0.79000002 4289505942
-0.149894 -0.125606 0.79000002 4289637528
-0.147764 -0.125613 0.79000002 4289702810
-0.145449 -0.12546 0.78899997 4289373845
-0.143503 -0.125626 0.79000002 4288386176
-0.141551 -0.125791 0.79100001 4288845957
-0.13941699 -0.125798 0.79100001 4288583040
-0.137109 -0.125645 0.79000002 4288846212
-0.13480601 -0.125493 0.78899997 4288779905
-0.132677 -0.125499 0.78899997 4288912005
-0.130548 -0.125505 0.78899997 4289372556
-0.12874299 -0.125829 0.79100001 4288648831
-0.126608 -0.125836 0.79100001 4289701519
-0.124472 -0.12584201 0.79100001 4289767567
-0.122181 -0.125689 0.79000002 4289701519
-0.1202 -0.125854 0.79100001 4289504140
-0.118063 -0.12586001 0.79100001 4289635726
-0.115926 -0.125866 0.79100001 4289307530
-0.113645 -0.12571201 0.79000002 4289175430
-0.111934 -0.126196 0.79299998 4288451959
-0.110899 -0.127474 0.801 4288517498
-0.11172 -0.130981 0.82300001 4289241221
-0.148826 -0.18559401 1.166 4289570188
-0.14317399 -0.182419 1.146 4289175430
-0.078766897 -0.104907 0.65899998 4288255367
-0.075816199 -0.10332 0.64899999 4289637284
-0.073261701 -0.102209 0.64200002 4286678144
-0.071190499 -0.101735 0.639 4285757042
-0.069352798 -0.10158 0.63800001 4285033058
-0.067626402 -0.101584 0.63800001 4284835677
-0.0658997 -0.101588 0.63800001 4284770139
-0.064072303 -0.101432 0.63700002 4283651658
-0.062250201 -0.101276 0.63599998 4283256900
-0.060623601 -0.101439 0.63700002 4282993473
-0.058713999 -0.101124 0.63499999 4282730817
-0.0568152 -0.100809 0.63300002 4284178264
-0.055013999 -0.100652 0.63200003 4283059013
-0.0533025 -0.100656 0.63200003 4283980107
-0.051672399 -0.100818 0.63300002 4284243530
-0.049878899 -0.100661 0.63200003 4283387972
-0.047862101 -0.100027 0.62800002 4283519305
-0.046160799 -0.10003 0.62800002 4284242773
-0.0443886 -0.0998732 0.62699997 4284703577
-0.042757802 -0.100035 0.62800002 4284374867
-0.040860001 -0.099559598 0.625 4284111440
-0.039103702 -0.099402599 0.62400001 4282993222
-0.0372927 -0.0990863 0.62199998 4284703840
-0.035492402 -0.098769799 0.62 4284045908
-0.033702899 -0.098453298 0.61799997 4284309588
-0.031975999 -0.098295897 0.61699998 4284638291
-0.0301561 -0.097819798 0.61400002 4284834648
-0.028398899 -0.097502902 0.61199999 4284900695
-0.026696 -0.097345203 0.611 4284374351
-0.0250395 -0.097346701 0.611 4284110663
-0.023383001 -0.097348198 0.611 4284045125
-0.0216552 -0.0970309 0.60900003 4283847746
-0.0200039 -0.0970321 0.60900003 4282466093
-0.018412801 -0.097351901 0.611 4281676317
-0.0169206 -0.098309003 0.61699998 4281742110
-0.015371 -0.099106602 0.62199998 4281873697
-0.0138602 -0.100382 0.63 4282202147
-0.0123253 -0.101817 0.639 4282268194
-0.0107747 -0.10357 0.64999998 4282202401
-0.0091089699 -0.104686 0.65700001 4282070814
-0.0074052201 -0.105802 0.66399997 4282202400
-0.0056297202 -0.106281 0.667 4281939482
-0.00384366 -0.106918 0.671 4281807642
-0.00203589 -0.107556 0.67500001 4282136093
-0.00020641999 -0.108193 0.67900002 4282136093
0.00164716 -0.10899 0.68400002 4281872666
0.00353809 -0.110105 0.69099998 4281938462
0.0054513202 -0.110902 0.69599998 4281806875
0.0074127498 -0.112017 0.70300001 4281675804
0.0093590897 -0.112494 0.70599997 4281741597
0.0113217 -0.112972 0.70899999 4281741597
0.0132818 -0.11329 0.71100003 4281478939
0.0152742 -0.113767 0.71399999 4281215767
0.017258599 -0.114084 0.71600002 4281281306
0.0192539 -0.114402 0.71799999 4281544991
0.0212599 -0.114719 0.72000003 4281610784
0.023309 -0.115196 0.72299999 4281544991
0.025479101 -0.116151 0.72899997 4281479198
0.027681701 -0.117105 0.73500001 4281413405
0.029876299 -0.1179 0.74000001 4281412892
0.032054901 -0.118535 0.74400002 4281676064
0.0342093 -0.119011 0.74699998 4281347099
0.036476899 -0.119806 0.75199997 4281150233
0.038720202 -0.120441 0.75599998 4281413405
0.040931199 -0.120916 0.759 4281216026
0.043158401 -0.121392 0.76200002 4281084440
0.045401599 -0.121867 0.76499999 4280755475
0.0477851 -0.122661 0.76999998 4281018647
0.050260399 -0.123614 0.77600002 4281741596
0.052700501 -0.124407 0.78100002 4282070561
0.055167601 -0.125201 0.78600001 4282399526
0.057224199 -0.125038 0.78500003 4282596389
0.0593508 -0.125035 0.78500003 4282859561
0.0614773 -0.12503099 0.78500003 4282859816
0.063684598 -0.12518699 0.78600001 4283122474
0.065897197 -0.125342 0.787 4283319851
0.068115003 -0.125498 0.78799999 4283583277
0.070427202 -0.12581301 0.79000002 4283517484
0.072658099 -0.12596799 0.79100001 4283978295
0.074894302 -0.126123 0.792 4283979065
0.0770384 -0.126119 0.792 4283781432
0.078982398 -0.12579601 0.79000002 4284044604
0.081120603 -0.125791 0.79000002 4284241469
0.083258703 -0.125787 0.79000002 4284373055
0.085396498 -0.125782 0.79000002 4284307262
0.087423302 -0.125618 0.78899997 4284439362
0.0896715 -0.125772 0.79000002 4284768841
0.091808699 -0.12576801 0.79000002 4284505670
0.0939456 -0.125763 0.79000002 4284505670
0.095960602 -0.125598 0.78899997 4284440389
0.098094396 -0.12559301 0.78899997 4284834634
0.100482 -0.12590601 0.79100001 4285032013
0.10288 -0.126219 0.79299998 4284505669
0.105156 -0.12637299 0.79400003 4284768841
0.107167 -0.12620801 0.79299998 4284966221
0.109311 -0.126203 0.79299998 4285228879
0.111454 -0.126197 0.79299998 4284834382
0.11417 -0.126828 0.79699999 4284965714
0.116031 -0.126504 0.79500002 4283387195
0.11803 -0.12633801 0.79400003 4281873956
0.119721 -0.125855 0.79100001 4285032532
0.121703 -0.12569 0.79000002 4285690454
0.123836 -0.12568399 0.79000002 4285427023
0.12597001 -0.125678 0.79000002 4285624402
0.12826499 -0.12583099 0.79100001 4285755736
0.130565 -0.125984 0.792 4285360978
0.13287 -0.126136 0.79299998 4285952863
0.13467 -0.12581199 0.79100001 4285558105
0.136977 -0.125965 0.792 4286083934
0.13893799 -0.125799 0.79100001 4286610532
0.14142901 -0.126111 0.79299998 4285952862
0.143387 -0.125945 0.792 4285229650
0.145339 -0.12578 0.79100001 4285821787
0.147286 -0.125614 0.79000002 4286677096
0.149416 -0.125608 0.79000002 4286676843
0.151163 -0.125283 0.78799999 4285953120
0.153676 -0.125594 0.79000002 4285887329
0.15580601 -0.125588 0.79000002 4286479466
0.158535 -0.126058 0.79299998 4286216294
0.16067199 -0.12605099 0.79299998 4286150501
0.162808 -0.126045 0.79299998 4286216292
0.16494501 -0.126038 0.79299998 4286479460
0.166871 -0.125872 0.792 4286545252
0.16900399 -0.125865 0.792 4285558095
0.171353 -0.126018 0.79299998 4285426509
0.173489 -0.126011 0.79299998 4286017878
0.175624 -0.126004 0.79299998 4285689683
0.177535 -0.125838 0.792 4286149211
0.179214 -0.125514 0.79000002 4286610017
0.18179999 -0.125825 0.792 4286610015
0.18393201 -0.125818 0.792 4285886292
0.186298 -0.125971 0.79299998 4285952339
0.18819501 -0.12580501 0.792 4286807134
0.19032601 -0.125798 0.792 4286938466
0.1927 -0.12595101 0.79299998 4286543708
0.19483399 -0.125944 0.79299998 4286675296
0.19671901 -0.125779 0.792 4286741348
0.198599 -0.125614 0.79100001 4287070313
0.20097999 -0.12576599 0.792 4286281567
0.20310999 -0.12576 0.792 4286544738
0.204982 -0.125595 0.79100001 4286807648
0.207109 -0.125588 0.79100001 4286544476
0.209236 -0.12558199 0.79100001 4286675808
0.211363 -0.125576 0.79100001 4286741603
0.21348999 -0.12557 0.79100001 4286478176
0.215617 -0.12556399 0.79100001 4286872937
0.21746901 -0.12539899 0.79000002 4286281060
0.219593 -0.125393 0.79000002 4287004783
0.22143701 -0.125229 0.78899997 4286939243
0.22327501 -0.125064 0.78799999 4286610532
0.225393 -0.12505899 0.78799999 4286610269
0.22722299 -0.124895 0.787 4286938719
0.229339 -0.124889 0.787 4286873180
0.231749 -0.125043 0.78799999 4287201891
0.234164 -0.12519599 0.78899997 4287201892
0.236285 -0.125191 0.78899997 4286938727
0.238105 -0.125027 0.78799999 4286741601
0.23961399 -0.124705 0.78600001 4286938466
0.24172699 -0.1247 0.78600001 4286807134
0.24383999 -0.124696 0.78600001 4286807134
0.24626701 -0.12485 0.787 4286346583
0.248383 -0.124845 0.787 4285754960
0.25018099 -0.124682 0.78600001 4286412376
0.25197399 -0.12452 0.78500003 4286543961
0.254085 -0.124516 0.78500003 4286741340
0.25619701 -0.124512 0.78500003 4287004512
0.25797901 -0.124349 0.78399998 4286938720
0.259756 -0.124187 0.78299999 4286610269
0.26186299 -0.124184 0.78299999 4286479197
0.26396999 -0.124181 0.78299999 4286610783
0.266417 -0.124336 0.78399998 4286544990
0.26886901 -0.124492 0.78500003 4286479199
0.27063701 -0.12433 0.78399998 4286478945
0.27274799 -0.124328 0.78399998 4286347359
0.27520901 -0.124484 0.78500003 4286807648
0.27767599 -0.12464 0.78600001 4286741855
0.27979299 -0.124638 0.78600001 4286281820
0.282269 -0.124795 0.787 4286347359
0.28438899 -0.124793 0.787 4286676585
0.28578201 -0.124475 0.78500003 4286742379
0.287898 -0.124474 0.78500003 4287005550
0.29038301 -0.124631 0.78600001 4287202669
0.292503 -0.12463 0.78600001 4287005543
0.29424801 -0.124471 0.78500003 4286544990
0.29636601 -0.124471 0.78500003 4286940262
0.29886401 -0.124629 0.78600001 4287204195
0.30098599 -0.124629 0.78600001 4287532658
0.30272201 -0.124471 0.78500003 4287532660
0.304842 -0.124472 0.78500003 4287071596
0.30735299 -0.124631 0.78600001 4287597940
0.309477 -0.124632 0.78600001 4287795573
0.311205 -0.124475 0.78500003 4287729266
0.313328 -0.124476 0.78500003 4287597680
0.315853 -0.124637 0.78600001 4287729526
0.31838399 -0.124797 0.787 4287532401
0.32010701 -0.124641 0.78600001 4286808676
0.32182601 -0.124485 0.78500003 4286611297
0.32353899 -0.124329 0.78399998 4285953622
0.32566401 -0.124333 0.78399998 4286019415
0.32778901 -0.124336 0.78399998 4286281818
0.329916 -0.12434 0.78399998 4286413406
0.33204299 -0.124344 0.78399998 4286807910
0.334171 -0.124348 0.78399998 4286939496
0.33672899 -0.124512 0.78500003 4286742118
0.33929399 -0.124675 0.78600001 4287202669
0.34229901 -0.124998 0.78799999 4287005289
0.34444201 -0.125003 0.78799999 4286807910
0.346147 -0.124851 0.787 4286742371
0.34784701 -0.124698 0.78600001 4286742369
0.35043299 -0.124864 0.787 4286611045
0.35257801 -0.124871 0.787 4286545252
0.355176 -0.125037 0.78799999 4286807404
0.35687199 -0.124886 0.787 4286676578
0.359478 -0.125053 0.78799999 4286677333
0.36117199 -0.124902 0.787 4286677082
0.3624 -0.124594 0.78500003 4286874207
0.36408299 -0.124444 0.78399998 4286479450
0.36669701 -0.124613 0.78500003 4286938980
0.36884701 -0.124623 0.78500003 4286873187
0.37052599 -0.124474 0.78399998 4286676314
0.373153 -0.124644 0.78500003 4286742107
0.37530801 -0.124655 0.78500003 4286939740
0.376984 -0.124508 0.78399998 4286479197
0.377689 -0.124043 0.78100002 4286545245
0.378865 -0.123738 0.77899998 4286874210
0.38101 -0.123751 0.77899998 4286874210
0.383158 -0.123764 0.77899998 4286808162
0.384812 -0.123618 0.778 4286939487
0.38646299 -0.123474 0.77700001 4287136613
0.38911 -0.123647 0.778 4286545235
0.39126199 -0.123662 0.778 4287137108
0.39341599 -0.123677 0.778 4286874200
0.39557201 -0.123693 0.778 4286874208
0.398752 -0.124028 0.77999997 4286282071
0.40040401 -0.123885 0.77899998 4286414424
0.40205199 -0.123744 0.778 4286414928
0.40317699 -0.123443 0.77600002 4285823297
0.40533799 -0.123462 0.77600002 4286020173
0.407502 -0.12348 0.77600002 4286282332
0.40966699 -0.1235 0.77600002 4286348127
0.411836 -0.12352 0.77600002 4286413404
0.41400599 -0.12354 0.77600002 4286544992
0.416179 -0.123561 0.77600002 4286084945
0.41889399 -0.123742 0.77700001 4285888335
0.42107499 -0.123764 0.77700001 4280492556
0.42325899 -0.123786 0.77700001 4286217828
0.42489699 -0.12365 0.77600002 4287599481
0.42653301 -0.123514 0.77499998 4286941043
0.42872 -0.123538 0.77499998 4286479725
0.431465 -0.123723 0.77600002 4285360993
0.434219 -0.123907 0.77700001 4284703569
0.43473399 -0.123455 0.77399999 4282926903
0.43693 -0.123482 0.77399999 4281413159
0.43912801 -0.123509 0.77399999 4282005542
0.44361001 -0.124175 0.778 4282136873
0.44582701 -0.124204 0.778 4282662966
0.44919801 -0.124552 0.77999997 4282202666
0.451426 -0.124582 0.77999997 4282268714
0.45249501 -0.124293 0.778 4282532392
0.45414001 -0.124165 0.77700001 4282268967
0.45578301 -0.124037 0.77600002 4283124527
0.45978501 -0.124549 0.77899998 4283519791
0.462028 -0.124582 0.77899998 4283585078
0.464275 -0.124616 0.77899998 4285887833
0.466526 -0.124651 0.77899998 4286348384
0.46757799 -0.124366 0.77700001 4286677347
0.469226 -0.124242 0.77600002 4287006312
0.47148001 -0.124279 0.77600002 4287532656
0.47434899 -0.124476 0.77700001 4285888349
0.47722799 -0.124675 0.778 4286348898
0.48011699 -0.124874 0.77899998 4286479970
0.48301601 -0.125075 0.77999997 4287335022
0.48405901 -0.124795 0.778 4286874217
0.48634499 -0.124836 0.778 4287334769
0.48800701 -0.124718 0.77700001 4287268976
0.49092999 -0.124922 0.778 4286808684
0.49196199 -0.124645 0.77600002 4286545765
0.494261 -0.124689 0.77600002 4286677351
0.49592501 -0.124574 0.77499998 4286545504
0.49823099 -0.124621 0.77499998 4286808164
0.49989599 -0.124507 0.77399999 4286610783
-0.198698 -0.124827 0.773 4287730039
-0.19763599 -0.125479 0.77700001 4287992958
-0.196301 -0.12597001 0.77999997 4286545518
-0.19420201 -0.125976 0.77999997 4285361254
-0.191365 -0.125498 0.77700001 4289177754
-0.189031 -0.12534299 0.77600002 4289243033
-0.18718401 -0.12551101 0.77700001 4289242517
-0.185331 -0.125679 0.778 4289834909
-0.183237 -0.12568501 0.778 4289308565
-0.181143 -0.125692 0.778 4289308565
-0.179279 -0.12586001 0.77899998 4289900702
-0.17741001 -0.126028 0.77999997 4290229665
-0.175534 -0.126197 0.78100002 4289309071
-0.173654 -0.12636501 0.78200001 4289440653
-0.17132799 -0.12621 0.78100002 4289374603
-0.169442 -0.126378 0.78200001 4289045640
-0.167336 -0.126385 0.78200001 4289439630
-0.16565201 -0.126715 0.78399998 4289440145
-0.163957 -0.12704501 0.78600001 4289111439
-0.161633 -0.12689 0.78500003 4289637270
-0.159518 -0.12689701 0.78500003 4289769110
-0.15740301 -0.126903 0.78500003 4288848267
-0.155287 -0.12691 0.78500003 4289374611
-0.153171 -0.126917 0.78500003 4289440149
-0.15086301 -0.126762 0.78399998 4289637528
-0.14874899 -0.12676799 0.78399998 4289637528
-0.146635 -0.126775 0.78399998 4289571737
-0.144521 -0.126781 0.78399998 4288649608
-0.142406 -0.12678801 0.78399998 4288254590
-0.14064901 -0.12711801 0.78600001 4288582785
-0.138705 -0.127286 0.787 4288583040
-0.136582 -0.12729301 0.787 4288714626
-0.13411701 -0.126975 0.78500003 4288977798
-0.131998 -0.126982 0.78500003 4288780419
-0.130045 -0.12715 0.78600001 4289438349
-0.127923 -0.127156 0.78600001 4289438349
-0.12596101 -0.127324 0.787 4289570447
-0.123836 -0.12733001 0.787 4289570447
-0.121557 -0.127175 0.78600001 4289701519
-0.119282 -0.127019 0.78500003 4289438347
-0.117311 -0.127187 0.78600001 4289635981
-0.115188 -0.12719201 0.78600001 4289307530
-0.11292 -0.12703601 0.78500003 4289373061
-0.11094 -0.127204 0.78600001 4288320373
-0.109786 -0.128343 0.79299998 4289373061
-0.110086 -0.131262 0.81099999 4289109889
-0.113082 -0.13758001 0.85000002 4289109889
-0.148307 -0.188096 1.1619999 4289635981
-0.143041 -0.185352 1.145 4289241735
-0.078762598 -0.106687 0.65899998 4289044367
-0.0759288 -0.105234 0.64999998 4289044897
-0.0732577 -0.103943 0.64200002 4286481019
-0.071298003 -0.103623 0.63999999 4285691503
-0.069240302 -0.103141 0.63700002 4285362023
-0.067516603 -0.103145 0.63700002 4285098590
-0.065895997 -0.103311 0.63800001 4284901211
-0.064370498 -0.103638 0.63999999 4282795833
-0.0624424 -0.103318 0.63800001 4282730556
-0.0606202 -0.10316 0.63700002 4283059266
-0.058525801 -0.102515 0.63300002 4282270266
-0.056722201 -0.102357 0.63200003 4283915092
-0.054836798 -0.102036 0.63 4283257162
-0.053130701 -0.102039 0.63 4284046163
-0.051506199 -0.102204 0.63099998 4284375886
-0.0496393 -0.101883 0.62900001 4284572507
-0.0478593 -0.101724 0.62800002 4284703326
-0.046084601 -0.101565 0.62699997 4283519817
-0.044385999 -0.101567 0.62699997 4283585865
-0.042619102 -0.101408 0.62599999 4283058762
-0.0407269 -0.100924 0.62300003 4280624419
-0.038913399 -0.100603 0.62099999 4280427040
-0.0371706 -0.100443 0.62 4281611314
-0.0353758 -0.100121 0.61799997 4281940283
-0.033646401 -0.099960998 0.61699998 4284176980
-0.031870399 -0.099638999 0.61500001 4284703062
-0.0300561 -0.0991548 0.61199999 4284505684
-0.028397201 -0.099156499 0.61199999 4284374097
-0.0267381 -0.099158198 0.61199999 4284439890
-0.025079001 -0.0991598 0.61199999 4284373835
-0.0233816 -0.098999202 0.611 4284110918
-0.021689501 -0.098838501 0.61000001 4283979330
-0.0200356 -0.098839797 0.61000001 4282992435
-0.0184117 -0.099003002 0.611 4281544732
-0.016919499 -0.099976301 0.61699998 4281675804
-0.01537 -0.100787 0.62199998 4282004769
-0.0138374 -0.101923 0.62900001 4282267941
-0.012286 -0.10322 0.63700002 4282267940
-0.0107078 -0.104679 0.64600003 4282136608
-0.0090806903 -0.106138 0.65499997 4282005022
-0.0073824702 -0.107273 0.662 4282268194
-0.0056293798 -0.108083 0.667 4282070815
-0.00383197 -0.108408 0.66900003 4282005022
-0.00202974 -0.109056 0.67299998 4282005022
-0.000206104 -0.109866 0.67799997 4282070045
0.00164947 -0.111 0.685 4281675287
0.0035327601 -0.111811 0.69 4282266912
0.00544316 -0.11262 0.69499999 4281937947
0.0073912102 -0.113592 0.70099998 4281675289
0.0093452698 -0.11424 0.70499998 4281675289
0.0112891 -0.114563 0.70700002 4281741597
0.013225 -0.114725 0.708 4281675804
0.0151877 -0.115048 0.70999998 4281675804
0.0171612 -0.115371 0.71200001 4281478939
0.0191723 -0.115856 0.71499997 4281741857
0.021199601 -0.116341 0.71799999 4281544478
0.023275301 -0.116988 0.722 4281544478
0.0254077 -0.117796 0.727 4281281306
0.027566999 -0.118605 0.73199999 4281216026
0.0297131 -0.119251 0.736 4281478685
0.031880699 -0.119898 0.74000001 4281215514
0.034024101 -0.120382 0.74299997 4281347100
0.036329199 -0.121352 0.74900001 4281412893
0.038564298 -0.121998 0.75300002 4281347357
0.040766999 -0.122481 0.75599998 4280952341
0.0428726 -0.122641 0.75700003 4280689682
0.045042899 -0.122962 0.759 4281018645
0.047223799 -0.123283 0.76099998 4281610525
0.0496745 -0.124252 0.76700002 4281742110
0.052157599 -0.125221 0.773 4282071075
0.054673102 -0.12619001 0.77899998 4282267940
0.056783501 -0.126187 0.77899998 4282531112
0.058818199 -0.126022 0.778 4282793768
0.060925599 -0.126018 0.778 4283056681
0.063032798 -0.12601499 0.778 4282925093
0.065223597 -0.126173 0.77899998 4283319851
0.067419603 -0.126331 0.77999997 4283385644
0.069710001 -0.126651 0.78200001 4282925609
0.072011098 -0.12697101 0.78399998 4283451951
0.074228197 -0.127129 0.78500003 4283583537
0.076256 -0.12696201 0.78399998 4283650100
0.078178197 -0.126634 0.78200001 4283650100
0.080294698 -0.12662999 0.78200001 4284044088
0.082516402 -0.12678701 0.78299999 4283452467
0.084527098 -0.12662099 0.78200001 4283978812
0.086643003 -0.126616 0.78200001 4283978812
0.088872097 -0.126773 0.78299999 4284111169
0.091222703 -0.127092 0.78500003 4284440134
0.093346 -0.127087 0.78500003 4284243010
0.095225804 -0.12675799 0.78299999 4284439876
0.097343199 -0.126753 0.78299999 4284768581
0.099587403 -0.126909 0.78399998 4284636995
0.101967 -0.12722801 0.78600001 4284571202
0.104356 -0.127546 0.78799999 4284834888
0.106351 -0.127378 0.787 4284966474
0.108478 -0.127373 0.787 4285229646
0.110605 -0.127367 0.787 4284900428
0.113161 -0.127847 0.79000002 4284703561
0.115441 -0.128003 0.79100001 4282334760
0.11743 -0.12783501 0.79000002 4281479712
0.119109 -0.127344 0.787 4284572487
0.121081 -0.127176 0.78600001 4285427031
0.123047 -0.12700801 0.78500003 4285032526
0.12532599 -0.12716401 0.78600001 4285230154
0.12744799 -0.127157 0.78600001 4285755736
0.12956899 -0.127151 0.78600001 4285294932
0.13169099 -0.12714501 0.78600001 4285755483
0.133642 -0.126977 0.78500003 4285689430
0.13558701 -0.126809 0.78399998 4285755223
0.137878 -0.126964 0.78500003 4286149466
0.140352 -0.127281 0.787 4285623636
0.142656 -0.127436 0.78799999 4285689430
0.14459801 -0.127268 0.787 4285887069
0.146347 -0.126938 0.78500003 4285953375
0.14846399 -0.126931 0.78500003 4286676845
0.150581 -0.12692501 0.78500003 4285689950
0.15308601 -0.127242 0.787 4285558362
0.15520699 -0.127235 0.787 4285755743
0.157528 -0.12739 0.78799999 4286347621
0.159449 -0.127221 0.787 4286216292
0.16157 -0.127215 0.787 4286348133
0.163482 -0.127046 0.78600001 4286413667
0.1656 -0.12704 0.78600001 4286413918
0.16771699 -0.127033 0.78600001 4285952853
0.17005 -0.127188 0.787 4285426509
0.17217 -0.12718099 0.787 4285754960
0.17451 -0.127336 0.78799999 4285623120
0.17640799 -0.127168 0.787 4285887062
0.17829999 -0.12699901 0.78600001 4286478683
0.180645 -0.12715399 0.787 4286149718
0.18276399 -0.127147 0.787 4286215511
0.184882 -0.127141 0.787 4286346583
0.18676201 -0.126973 0.78600001 4286543962
0.188637 -0.12680399 0.78500003 4286807134
0.190993 -0.126959 0.78600001 4286543962
0.192862 -0.126791 0.78500003 4286412122
0.19497401 -0.126785 0.78500003 4286741089
0.196835 -0.126617 0.78399998 4286478176
0.198944 -0.12661099 0.78399998 4286807910
0.201309 -0.126766 0.78500003 4286610015
0.20342 -0.12675899 0.78500003 4286610015
0.205532 -0.126753 0.78500003 4286610015
0.207643 -0.126747 0.78500003 4286281304
0.20975401 -0.12674101 0.78500003 4286610015
0.21186499 -0.126735 0.78500003 4286807396
0.214249 -0.12689 0.78600001 4286872936
0.216087 -0.12672301 0.78500003 4286807144
0.21764199 -0.126394 0.78299999 4286281313
0.219466 -0.12622701 0.78200001 4286873703
0.221852 -0.12638301 0.78299999 4286478431
0.224244 -0.12653901 0.78399998 4286215511
0.22635099 -0.126533 0.78399998 4286609755
0.228459 -0.12652799 0.78399998 4286478682
0.23056699 -0.126522 0.78399998 4286412890
0.232675 -0.126517 0.78399998 4286281304
0.235083 -0.126673 0.78500003 4286543971
0.236891 -0.126507 0.78399998 4286806882
0.238389 -0.12617999 0.78200001 4286543962
0.240492 -0.126175 0.78200001 4287004513
0.242595 -0.12616999 0.78200001 4286938206
0.245011 -0.12632699 0.78299999 4286675548
0.247116 -0.126323 0.78299999 4287070306
0.249222 -0.12631799 0.78299999 4286609755
0.25068599 -0.125992 0.78100002 4286741340
0.25278601 -0.12598801 0.78100002 4286872926
0.25456101 -0.12582301 0.77999997 4286938205
0.256659 -0.125819 0.77999997 4287069791
0.25842601 -0.125654 0.77899998 4287005027
0.26018801 -0.125489 0.778 4286741855
0.261944 -0.12532499 0.77700001 4286610783
0.264375 -0.12548301 0.778 4286808162
0.26681101 -0.125642 0.77899998 4286742371
0.268563 -0.125478 0.778 4286939496
0.27065799 -0.125475 0.778 4286873441
0.273103 -0.125634 0.77899998 4286741855
0.27520099 -0.125632 0.77899998 4287070820
0.27729899 -0.12563001 0.77899998 4286347613
0.27939799 -0.12562799 0.77899998 4286873703
0.281497 -0.125627 0.77899998 4287005036
0.283232 -0.12546401 0.778 4286939243
0.28496301 -0.125302 0.77700001 4286873704
0.287058 -0.125301 0.77700001 4286741603
0.289525 -0.125461 0.778 4286478429
0.29124901 -0.12529901 0.77700001 4286413404
0.29372299 -0.12546 0.778 4286677090
0.296583 -0.125783 0.77999997 4286808676
0.29907101 -0.125944 0.78100002 4287072107
0.30118001 -0.125945 0.78100002 4287072109
0.302901 -0.12578399 0.77999997 4287137389
0.30500799 -0.12578499 0.77999997 4287005803
0.307116 -0.12578601 0.77999997 4287268461
0.30922499 -0.125788 0.77999997 4287334254
0.31173301 -0.12595101 0.78100002 4287531633
0.314248 -0.126114 0.78200001 4287334254
0.31636399 -0.12611599 0.78200001 4287006057
0.31766599 -0.12579601 0.77999997 4287006055
0.31977901 -0.125799 0.77999997 4287729264
0.32230401 -0.125963 0.78100002 4287334761
0.32400599 -0.12580501 0.77999997 4286873955
0.326121 -0.125809 0.77999997 4286610783
0.32823601 -0.12581199 0.77999997 4286544992
0.32992899 -0.125655 0.77899998 4286544738
0.33161801 -0.125499 0.778 4286807657
0.33416 -0.12566499 0.77899998 4286742378
0.33670899 -0.12583099 0.77999997 4287137137
0.33926401 -0.12599801 0.78100002 4287663220
0.34182599 -0.126165 0.78200001 4287466355
0.343954 -0.12617099 0.78200001 4287597940
0.34519801 -0.125855 0.77999997 4287795059
0.347323 -0.125862 0.77999997 4287663734
0.34944999 -0.12586901 0.77999997 4287335028
0.35202801 -0.126038 0.78100002 4287794816
0.35416001 -0.126046 0.78100002 4287663733
0.355836 -0.125893 0.77999997 4287401826
0.35750899 -0.12574001 0.77899998 4287269480
0.35963899 -0.12574901 0.77899998 4287466608
0.36177099 -0.12575901 0.77899998 4287335022
0.363904 -0.12576801 0.77899998 4287400554
0.36603799 -0.125778 0.77899998 4287400038
0.36817399 -0.125789 0.77899998 4287597670
0.37031201 -0.1258 0.77899998 4287334498
0.37197199 -0.12565 0.778 4287531876
0.37362999 -0.12549999 0.77700001 4287663471
0.375283 -0.125351 0.77600002 4287597678
0.37644601 -0.12503999 0.77399999 4287597678
0.37857801 -0.125053 0.77399999 4287334506
0.380712 -0.125067 0.77399999 4287137127
0.38235301 -0.124919 0.773 4287399784
0.38398999 -0.124772 0.77200001 4287399524
0.385124 -0.124463 0.76999998 4286938711
0.387254 -0.124478 0.76999998 4287201881
0.38989201 -0.124656 0.77100003 4286610258
0.39202899 -0.124672 0.77100003 4286413396
0.39416799 -0.124688 0.77100003 4286545242
0.39579499 -0.124544 0.76999998 4286742624
0.397935 -0.124561 0.76999998 4286742875
0.400078 -0.124579 0.76999998 4287071586
0.40222299 -0.124598 0.76999998 4286479449
0.40384501 -0.124455 0.76899999 4286808417
0.40652001 -0.124637 0.76999998 4286808162
0.40867099 -0.124657 0.76999998 4286676576
