# .PCD v0.7 - Point Cloud Data file format
VERSION 0.7
FIELDS x y z rgb
SIZE 4 4 4 4
TYPE F F F U
COUNT 1 1 1 1
WIDTH 1135
HEIGHT 1
VIEWPOINT 0 0 0 1 0 0 0
POINTS 1135
DATA ascii
0.149259 -0.016869999 1.081 4288453254
0.152325 -0.016884699 1.082 4288584582
0.155108 -0.0168681 1.081 4287466101
0.158032 -0.0168672 1.081 4286741864
0.160806 -0.0168506 1.08 4287202152
0.163727 -0.0168496 1.08 4287465578
0.166492 -0.016833 1.079 4287795059
0.16956601 -0.016847599 1.08 4287334254
0.172325 -0.016830999 1.079 4287795066
0.175078 -0.0168144 1.0779999 4288255618
0.177825 -0.0167978 1.077 4287861113
0.18073501 -0.016796701 1.077 4287663734
0.18347301 -0.016780101 1.076 4287071336
0.186032 -0.016747801 1.074 4287860336
0.188756 -0.016731201 1.073 4287728498
0.191296 -0.016698901 1.071 4287596398
0.194368 -0.0167135 1.072 4287004006
0.19726101 -0.016712399 1.072 4287332973
0.20034 -0.0167269 1.073 4286807143
0.202857 -0.0166946 1.071 4286281314
0.205553 -0.016677899 1.0700001 4287860860
0.20843901 -0.0166768 1.0700001 4287992705
0.211127 -0.0166601 1.069 4287795326
0.213809 -0.016643399 1.068 4287926912
0.21608 -0.0165955 1.0650001 4287795326
0.219156 -0.01661 1.066 4287664254
0.22161201 -0.0165777 1.064 4287664252
0.224268 -0.016561 1.063 4287861631
0.226918 -0.016544299 1.062 4287730045
0.22934601 -0.016511999 1.0599999 4287401080
0.23198199 -0.0164953 1.059 4287663993
0.23394699 -0.016431799 1.0549999 4287532407
0.236563 -0.016415101 1.054 4287532405
0.239173 -0.0163984 1.053 4287467128
0.242468 -0.0164285 1.0549999 4287269494
0.245307 -0.016427301 1.0549999 4287401596
0.248381 -0.0164418 1.056 4287401082
0.25050899 -0.0163939 1.053 4287335289
0.25310099 -0.016377199 1.052 4287269496
0.25568801 -0.016360501 1.051 4287072631
0.25826901 -0.0163438 1.05 4287138938
0.26084399 -0.0163272 1.049 4287073145
0.26366401 -0.0163261 1.049 4287073399
0.26673901 -0.0163405 1.05 4287270778
0.26981801 -0.016355 1.051 4287006836
0.27264401 -0.0163539 1.051 4287204217
0.27546799 -0.016352801 1.051 4286941045
0.27802801 -0.0163361 1.05 4286941045
0.28058201 -0.0163195 1.049 4286809459
0.28259 -0.016271699 1.046 4286678387
0.28485501 -0.0162395 1.044 4286941559
0.28766 -0.016238499 1.044 4286678388
0.29074201 -0.016253 1.045 4286810234
0.29383001 -0.016267501 1.046 4286744695
0.29692301 -0.016282 1.0470001 4286547316
0.299449 -0.0162654 1.046 4286612594
0.30225801 -0.0162644 1.046 4286415215
0.305067 -0.016263399 1.046 4286678641
0.30846399 -0.0162935 1.048 4286481008
0.31187201 -0.0163236 1.05 4286152043
0.31558999 -0.016369199 1.053 4286217836
0.319022 -0.0163993 1.0549999 4286217836
0.322465 -0.016429501 1.057 4286349936
0.326226 -0.0164751 1.0599999 4286086764
0.32969201 -0.016505299 1.062 4286744434
0.33316901 -0.016535399 1.064 4286481008
0.336658 -0.0165656 1.066 4286480494
0.339838 -0.0165803 1.067 4286282601
0.34334499 -0.016610401 1.069 4286479980
0.34653801 -0.016625101 1.0700001 4286348392
0.35038999 -0.016670899 1.073 4286545771
0.35294199 -0.016654501 1.072 4286677357
0.356152 -0.016669201 1.073 4286479978
0.35903299 -0.0166684 1.073 4286743152
0.362589 -0.016698699 1.075 4286282601
0.36581501 -0.0167135 1.076 4286479466
0.36836201 -0.0166972 1.075 4286347880
0.37159401 -0.016712001 1.076 4286150499
0.374832 -0.016726799 1.077 4286282599
0.37807599 -0.0167417 1.0779999 4286020196
0.38097101 -0.016741 1.0779999 4286348647
0.38351199 -0.016724899 1.077 4285888096
0.38640499 -0.016724201 1.077 4285558617
0.38893801 -0.0167081 1.076 4285492822
0.39183 -0.016707599 1.076 4285887582
0.39472201 -0.016706999 1.076 4285755996
0.397984 -0.016721999 1.077 4285361238
0.401252 -0.0167371 1.0779999 4285163604
0.40340099 -0.016705601 1.076 4285689948
0.405918 -0.0166896 1.075 4285361499
0.40804899 -0.0166582 1.073 4285098072
0.41055301 -0.0166423 1.072 4283980623
0.41343799 -0.0166419 1.072 4282796864
0.41671199 -0.0166572 1.073 4284902239
0.41960099 -0.0166569 1.073 4285560169
0.422885 -0.016672101 1.074 4285690979
0.42498499 -0.0166409 1.072 4285756257
0.42747501 -0.016625199 1.071 4286019421
0.42915601 -0.016578499 1.068 4285822042
0.432035 -0.0165783 1.068 4285493591
0.434508 -0.0165627 1.067 4286085473
0.437796 -0.016578199 1.068 4285230425
0.44026601 -0.0165627 1.067 4285888357
0.44273099 -0.016547199 1.066 4286151529
0.44477299 -0.016516199 1.064 4286217322
0.447227 -0.016500801 1.063 4285690978
0.44967601 -0.0164854 1.062 4285690978
0.451695 -0.016454499 1.0599999 4286348133
0.453275 -0.016408199 1.057 4286216800
0.45570299 -0.0163929 1.056 4286348382
0.45812699 -0.0163777 1.0549999 4285624402
0.46011001 -0.0163469 1.053 4285492557
0.462084 -0.0163163 1.051 4285097293
0.46449 -0.0163012 1.05 4284900934
0.466447 -0.0162706 1.048 4285755729
0.46884301 -0.0162555 1.0470001 4285229130
0.47168499 -0.0162561 1.0470001 4285492302
0.47407499 -0.0162411 1.046 4285754960
0.47600499 -0.016210699 1.044 4285425994
0.47884399 -0.0162114 1.044 4285492555
0.481684 -0.0162121 1.044 4285558347
0.484061 -0.0161974 1.043 4285360968
0.48596799 -0.016167101 1.041 4285229383
0.488336 -0.016152401 1.04 4285295176
0.49117199 -0.016153401 1.04 4285162823
0.49353501 -0.016138799 1.039 4285425995
0.49685001 -0.016155301 1.04 4285359948
0.49873 -0.016125301 1.038 4285557581
-0.14167 -0.013264 0.72500002 4290429894
-0.137209 -0.0130271 0.71200001 4290299860
-0.135289 -0.0130279 0.71200001 4290168274
-0.133742 -0.0130654 0.71399999 4289905102
-0.13237 -0.0131211 0.71700001 4289444551
-0.130253 -0.0131037 0.71600002 4289641930
-0.12796199 -0.0130679 0.71399999 4289641930
-0.125505 -0.0130139 0.71100003 4289641930
-0.122716 -0.0129232 0.70599997 4288918207
-0.120125 -0.0128507 0.70200002 4288457396
-0.117724 -0.0127966 0.699 4288457396
-0.115339 -0.0127425 0.69599998 4288325809
-0.113295 -0.012725 0.69499999 4288128430
-0.111417 -0.0127257 0.69499999 4287931051
-0.109854 -0.0127631 0.69700003 4288129198
-0.107815 -0.0127456 0.69599998 4288194991
-0.105934 -0.0127463 0.69599998 4287997358
-0.104202 -0.0127654 0.69700003 4288063151
-0.102317 -0.0127661 0.69700003 4288194737
-0.100432 -0.0127668 0.69700003 4287799980
-0.098404802 -0.0127492 0.69599998 4287470501
-0.096383102 -0.0127316 0.69499999 4287864230
-0.0942306 -0.0126957 0.69300002 4288060068
-0.092355199 -0.0126964 0.69300002 4286876048
-0.090610102 -0.0127154 0.69400001 4287203984
-0.089114897 -0.012771 0.69700003 4287926938
-0.087352999 -0.01279 0.69800001 4287729559
-0.085463002 -0.0127906 0.69800001 4287137422
-0.083333202 -0.0127546 0.69599998 4287202701
-0.081331 -0.0127369 0.69499999 4287333519
-0.079562701 -0.0127558 0.69599998 4287399312
-0.077676997 -0.0127564 0.69599998 4287728277
-0.075900003 -0.0127754 0.69700003 4287465106
-0.074011102 -0.0127759 0.69700003 4287728278
-0.072122 -0.0127765 0.69700003 4287135627
-0.070333503 -0.0127954 0.69800001 4286609283
-0.068441197 -0.0127959 0.69800001 4285622388
-0.066739403 -0.0128331 0.69999999 4285819767
-0.064841203 -0.0128336 0.69999999 4287069834
-0.062853001 -0.0128158 0.699 4286675076
-0.0609571 -0.0128163 0.699 4286608770
-0.058892 -0.0127801 0.69700003 4287267726
-0.057082999 -0.0127989 0.69800001 4286940559
-0.055110201 -0.012781 0.69700003 4288191908
-0.053447999 -0.0128365 0.69999999 4287863199
-0.0515485 -0.0128369 0.69999999 4286811795
-0.049648698 -0.0128373 0.69999999 4286154379
-0.047612399 -0.012801 0.69800001 4288522927
-0.045717701 -0.0128014 0.69800001 4289115064
-0.043822899 -0.0128017 0.69800001 4287470239
-0.041867901 -0.0127837 0.69700003 4287206039
-0.039975502 -0.0127841 0.69700003 4287928735
-0.0381376 -0.0128027 0.69800001 4287862428
-0.0363461 -0.0128397 0.69999999 4286282113
-0.0343959 -0.0128217 0.699 4286412931
-0.032451 -0.0128036 0.69800001 4288187543
-0.0304677 -0.0127672 0.69599998 4289177782
-0.028536201 -0.0127491 0.69499999 4289573308
-0.026686801 -0.0127677 0.69599998 4288323241
-0.024831699 -0.0127862 0.69700003 4288520620
-0.0230041 -0.0128231 0.699 4288520877
-0.0211353 -0.0128416 0.69999999 4288194224
-0.019178599 -0.0128051 0.69800001 4287997358
-0.017232699 -0.0127686 0.69599998 4288193707
-0.0153196 -0.0127504 0.69499999 4287798435
-0.0134892 -0.0128055 0.69800001 4287732897
-0.0116425 -0.0128607 0.70099998 4287798690
-0.0097794104 -0.0129158 0.704 4287732642
-0.0078664599 -0.0129159 0.704 4287732642
-0.00597039 -0.0129526 0.70599997 4287666849
-0.00405769 -0.012971 0.70700002 4287403677
-0.00214559 -0.0130261 0.70999998 4287535263
-0.00021687 -0.0130628 0.71200001 4287535518
0.00171789 -0.0130628 0.71200001 4287403932
0.0036629101 -0.0130994 0.71399999 4286878102
0.0056187902 -0.0131361 0.71600002 4287009688
0.0075855101 -0.0131727 0.71799999 4286943640
0.0095365103 -0.0131727 0.71799999 4286877847
0.0114875 -0.0131726 0.71799999 4286943640
0.013401 -0.0131358 0.71600002 4286483089
0.0153464 -0.0131356 0.71600002 4286746516
0.0173159 -0.0131539 0.71700001 4287140760
0.019290799 -0.0131721 0.71799999 4287140760
0.0212711 -0.0131902 0.71899998 4287074967
0.0232567 -0.0132084 0.72000003 4286943381
0.0252827 -0.0132449 0.722 4287008660
0.027432701 -0.0133364 0.727 4287271832
0.0299333 -0.0135746 0.74000001 4287074453
0.033281401 -0.014143 0.77100003 4287074453
0.0507368 -0.019150101 1.044 4287206553
0.054598302 -0.0195165 1.064 4287140760
0.058027901 -0.019699501 1.074 4287009174
0.0611143 -0.019754 1.077 4286943381
0.0640385 -0.019753501 1.077 4287074453
0.066962399 -0.019752899 1.077 4287074453
0.069886103 -0.0197524 1.077 4286482314
0.072944798 -0.0197885 1.079 4286744461
0.075943798 -0.019806201 1.08 4285559673
0.078874797 -0.019805601 1.08 4287532678
0.081729896 -0.0197866 1.079 4287926912
0.084657699 -0.019786 1.079 4287860606
0.087585203 -0.0197853 1.079 4287597688
0.090596303 -0.0198029 1.08 4287597688
0.093525901 -0.0198022 1.08 4287795067
0.096455202 -0.019801401 1.08 4287466622
0.099476203 -0.019819001 1.081 4287335811
0.102218 -0.0197815 1.079 4285100143
0.105241 -0.019799 1.08 4287665807
0.108269 -0.019816499 1.081 4287862662
0.1112 -0.0198157 1.081 4288387208
0.114129 -0.0198148 1.081 4288387463
0.116951 -0.0197956 1.08 4288519049
0.119877 -0.019794701 1.08 4288453256
0.12269 -0.0197754 1.079 4288387204
0.125613 -0.0197745 1.079 4288189825
0.128774 -0.0198102 1.081 4288255357
0.13170099 -0.019809199 1.081 4288124031
0.13450401 -0.019789901 1.08 4287861119
0.13704599 -0.0197339 1.077 4289110931
0.139962 -0.0197329 1.077 4288321931
0.142877 -0.019731799 1.077 4288321931
0.14579201 -0.019730801 1.077 4288321929
0.148844 -0.019748 1.0779999 4288322184
0.151761 -0.0197469 1.0779999 4288650635
0.154677 -0.019745801 1.0779999 4288124289
0.157592 -0.0197447 1.0779999 4287203189
0.16050801 -0.019743601 1.0779999 4286874218
0.163119 -0.0197058 1.076 4287728749
0.165874 -0.0196863 1.075 4287597680
0.168623 -0.0196668 1.074 4287992185
0.171525 -0.019665699 1.074 4288058239
0.174265 -0.019646199 1.073 4288058238
0.177164 -0.019645 1.073 4288190078
0.179895 -0.019625399 1.072 4288123770
0.18279 -0.0196242 1.072 4287005543
0.18551201 -0.0196047 1.071 4287004773
0.188403 -0.0196034 1.071 4287860084
0.19111601 -0.0195839 1.0700001 4287662705
0.194186 -0.0196009 1.071 4287530350
0.19689199 -0.019581299 1.0700001 4287135592
0.199966 -0.0195984 1.071 4287201385
0.202287 -0.0195422 1.068 4287004522
0.20497601 -0.0195226 1.067 4287531381
0.20765901 -0.019502999 1.066 4288189571
0.21053299 -0.019501699 1.066 4288058498
0.21320701 -0.0194821 1.0650001 4287992450
0.215673 -0.019444199 1.063 4288123778
0.218538 -0.019442899 1.063 4287992192
0.221194 -0.0194233 1.062 4287926910
0.22384501 -0.0194037 1.061 4287992703
0.22649001 -0.019384099 1.0599999 4287729786
0.229129 -0.0193645 1.059 4287795579
0.23176201 -0.019344799 1.058 4287927163
0.233946 -0.0192887 1.0549999 4287795577
0.236113 -0.0192325 1.052 4287729784
0.238491 -0.019194599 1.05 4287861372
0.241547 -0.0192116 1.051 4287532152
0.24414299 -0.019192001 1.05 4287729533
0.246969 -0.0191906 1.05 4287597947
0.249318 -0.0191528 1.048 4287597947
0.25213799 -0.019151499 1.048 4287401082
0.254713 -0.019131901 1.0470001 4287532668
0.25777501 -0.019148801 1.048 4287335289
0.26034501 -0.0191293 1.0470001 4287335803
0.263161 -0.0191279 1.0470001 4287204217
0.26572099 -0.0191084 1.046 4287204217
0.26853299 -0.0191071 1.046 4287335803
0.27108601 -0.019087501 1.045 4287533182
0.27415699 -0.019104499 1.046 4287138424
0.276703 -0.019084999 1.045 4287204215
0.27924401 -0.019065401 1.044 4287401594
0.28150901 -0.019027701 1.0420001 4287204215
0.284035 -0.019008201 1.041 4286941559
0.28710699 -0.019025199 1.0420001 4287007352
0.289628 -0.019005699 1.041 4286941559
0.29242399 -0.0190045 1.041 4286678387
0.295504 -0.0190215 1.0420001 4286875766
0.29830199 -0.0190203 1.0420001 4286744180
0.301101 -0.019019101 1.0420001 4286941559
0.30360699 -0.0189997 1.041 4286875252
0.30699101 -0.019035 1.043 4286875252
0.310386 -0.019070299 1.045 4286612594
0.31439 -0.019142199 1.049 4286546801
0.31781101 -0.019177601 1.051 4286415215
0.32154801 -0.0192312 1.054 4286349937
0.324994 -0.0192666 1.056 4286613109
0.32813901 -0.019283701 1.057 4286415729
0.33160299 -0.0193191 1.059 4286349937
0.33476201 -0.0193363 1.0599999 4286481008
0.33824399 -0.0193717 1.062 4286546801
0.34173799 -0.0194072 1.064 4286809973
0.34524199 -0.019442599 1.066 4286481008
0.348757 -0.019478099 1.068 4286810227
0.35162401 -0.019477099 1.068 4286481261
0.35449201 -0.0194762 1.068 4286743664
0.35735899 -0.019475199 1.068 4286414701
0.360901 -0.0195108 1.0700001 4286283115
0.363774 -0.0195099 1.0700001 4286545773
0.36699 -0.019527299 1.071 4286677359
0.37021199 -0.0195446 1.072 4286545771
0.37309101 -0.019543801 1.072 4286349161
0.37597099 -0.019543 1.072 4286085989
0.37885001 -0.019542299 1.072 4286480747
0.38101801 -0.0195051 1.0700001 4286348647
0.38353401 -0.019486099 1.069 4286348647
0.38640699 -0.0194855 1.069 4286348645
0.389644 -0.019502999 1.0700001 4286413926
0.392887 -0.019520599 1.071 4286348133
0.39613599 -0.0195383 1.072 4286348394
0.39901799 -0.0195377 1.072 4286151015
0.401526 -0.019518901 1.071 4286216553
0.40440699 -0.0195184 1.071 4285887588
0.40690801 -0.019499799 1.0700001 4285888104
0.409787 -0.0194993 1.0700001 4285691241
0.41189501 -0.0194625 1.068 4283717966
0.41515899 -0.019480299 1.069 4283717966
0.418037 -0.019479999 1.069 4285955442
0.42091599 -0.019479699 1.069 4286086511
0.42260599 -0.0194248 1.066 4285954664
0.42508 -0.019406401 1.0650001 4285888094
0.42754799 -0.019388 1.064 4286283107
0.430821 -0.019406101 1.0650001 4286217314
0.43328601 -0.0193877 1.064 4286282852
0.435747 -0.0193695 1.063 4286151268
0.43820301 -0.019351199 1.062 4285887841
0.44023901 -0.019314799 1.0599999 4285954150
0.442265 -0.0192785 1.058 4286941045
0.44512299 -0.019278601 1.058 4286612080
0.447983 -0.0192787 1.058 4285559392
0.45041701 -0.019260701 1.057 4286479978
0.452418 -0.0192245 1.0549999 4286085473
0.454409 -0.0191884 1.053 4286414177
0.45682499 -0.0191705 1.052 4286414177
0.45923701 -0.019152701 1.051 4285558609
0.46120501 -0.0191167 1.049 4285229644
0.46272099 -0.0190625 1.046 4285163851
0.46466699 -0.0190266 1.044 4285690195
0.46705201 -0.019008899 1.043 4285755988
0.46988299 -0.019009599 1.043 4285294923
0.472716 -0.019010199 1.043 4285952853
0.47418201 -0.0189563 1.04 4286281818
0.47701001 -0.018957101 1.04 4285097799
0.47937801 -0.0189397 1.039 4285689936
0.48220599 -0.0189406 1.039 4285821522
0.48410201 -0.018905099 1.0369999 4285953108
0.48645899 -0.0188879 1.036 4285492557
0.48928401 -0.018889001 1.036 4285623374
0.49258599 -0.0189083 1.0369999 4285294408
0.495895 -0.018927701 1.038 4285163076
0.49728999 -0.018874301 1.035 4285755213
-0.141864 -0.0152495 0.72600001 4290429379
-0.137401 -0.0149774 0.713 4291220187
-0.13490801 -0.0149154 0.70999998 4290102483
-0.133367 -0.0149584 0.71200001 4289905104
-0.131446 -0.0149594 0.71200001 4289970895
-0.128979 -0.0148973 0.70899999 4289641930
-0.12599 -0.0147722 0.70300001 4289247172
-0.123739 -0.0147311 0.70099998 4289312965
-0.120803 -0.014606 0.69499999 4288325556
-0.118584 -0.0145648 0.69300002 4288259763
-0.116376 -0.0145237 0.69099998 4288062638
-0.114675 -0.0145456 0.69199997 4288194223
-0.112805 -0.0145465 0.69199997 4287799719
-0.110936 -0.0145474 0.69199997 4287865511
-0.109065 -0.0145483 0.69199997 4288062891
-0.10704 -0.0145281 0.69099998 4288062637
-0.105172 -0.014529 0.69099998 4287931566
-0.103453 -0.0145509 0.69199997 4288128691
-0.101876 -0.0145938 0.69400001 4288194738
-0.099998496 -0.0145946 0.69400001 4287865773
-0.097979903 -0.0145744 0.69300002 4287602086
-0.095827699 -0.0145331 0.69099998 4287798435
-0.093549997 -0.0144708 0.68800002 4288257447
-0.091821402 -0.0144926 0.68900001 4287401624
-0.0899565 -0.0144934 0.68900001 4287203215
-0.088474996 -0.0145573 0.69199997 4287466387
-0.086726598 -0.014579 0.69300002 4287598487
-0.085095003 -0.0146219 0.69499999 4287401108
-0.082973301 -0.0145805 0.69300002 4288388003
-0.080979303 -0.0145602 0.69199997 4286676871
-0.079219103 -0.0145819 0.69300002 4287137422
-0.077564798 -0.0146247 0.69499999 4287005836
-0.075790502 -0.0146464 0.69599998 4287334801
-0.073798202 -0.014626 0.69499999 4287400594
-0.071914501 -0.0146267 0.69499999 4287400594
-0.0700306 -0.0146273 0.69499999 4287005321
-0.068146497 -0.0146279 0.69499999 4286478977
-0.066357501 -0.0146496 0.69599998 4286742919
-0.064562798 -0.0146712 0.69700003 4286807942
-0.062582701 -0.0146507 0.69599998 4287269008
-0.060695 -0.0146513 0.69599998 4287401110
-0.0587226 -0.0146308 0.69499999 4287137938
-0.056755401 -0.0146102 0.69400001 4287928736
-0.054793399 -0.0145897 0.69300002 4288323494
-0.0529131 -0.0145902 0.69300002 4287665820
-0.051253401 -0.0146538 0.69599998 4286811281
-0.049293701 -0.0146333 0.69499999 4286285451
-0.047270902 -0.0145916 0.69300002 4287733411
-0.045258898 -0.0145499 0.69099998 4289509822
-0.043383099 -0.0145503 0.69099998 4287799204
-0.041386999 -0.0145086 0.68900001 4287403418
-0.0395163 -0.014509 0.68900001 4287798176
-0.037700199 -0.0145304 0.69 4287797149
-0.0359823 -0.0145939 0.69300002 4287533464
-0.034149598 -0.0146153 0.69400001 4287533210
-0.032264799 -0.0146156 0.69400001 4288520619
-0.030336101 -0.0145949 0.69300002 4289902276
-0.0284539 -0.0145951 0.69300002 4289705665
-0.026533101 -0.0145743 0.69199997 4288785847
-0.024689 -0.0145956 0.69300002 4288062124
-0.022839401 -0.0146169 0.69400001 4287864745
-0.020984201 -0.0146382 0.69499999 4287470501
-0.019041101 -0.0145963 0.69300002 4287601570
-0.017084001 -0.0145333 0.69 4287601570
-0.0151872 -0.0145123 0.68900001 4287469984
-0.0133345 -0.0145335 0.69 4287601825
-0.0114929 -0.0145758 0.69199997 4287075996
-0.0096126301 -0.0145759 0.69199997 4287470500
-0.0077323001 -0.014576 0.69199997 4287470500
-0.0058603999 -0.0145971 0.69300002 4287141019
-0.0039830501 -0.0146182 0.69400001 4286877847
-0.00210326 -0.0146604 0.69599998 4287075481
-0.00021199499 -0.0146604 0.69599998 4287206553
0.00167686 -0.0146393 0.69499999 4287009174
0.0035756701 -0.0146814 0.69700003 4286680209
0.0054774801 -0.0147024 0.69800001 4286811793
0.0073741502 -0.0147024 0.69800001 4286482830
0.0092840698 -0.0147234 0.699 4286811026
0.0111834 -0.0147233 0.699 4286679693
0.0130827 -0.0147231 0.699 4286877072
0.0149819 -0.014723 0.699 4287140243
0.016929399 -0.014765 0.70099998 4286613899
0.0188608 -0.0147859 0.70200002 4287205523
0.020797599 -0.0148067 0.70300001 4287337109
0.022642801 -0.0147644 0.70099998 4287533981
0.0245471 -0.0147642 0.70099998 4287533981
0.026451301 -0.0147639 0.70099998 4286942864
0.028476801 -0.0148269 0.704 4287600794
0.030777499 -0.0150161 0.713 4287534484
0.0340905 -0.015647599 0.74299997 4287534484
0.053674102 -0.0220279 1.046 4287205523
0.0575951 -0.022448501 1.066 4287468695
0.060773298 -0.0225533 1.071 4287205523
0.063800097 -0.0225948 1.073 4287533981
0.066713199 -0.0225942 1.073 4287666590
0.069690898 -0.0226146 1.074 4287008657
0.072606102 -0.022614 1.074 4287534484
0.075521201 -0.0226133 1.074 4287336852
0.078436002 -0.0226126 1.074 4285953646
0.081274703 -0.022590799 1.073 4287137143
0.084264703 -0.0226111 1.074 4287136623
0.087341003 -0.022652401 1.076 4287399280
0.090259999 -0.0226516 1.076 4287530866
0.093178697 -0.0226507 1.076 4287268208
0.096007898 -0.022628799 1.075 4287464820
0.099015303 -0.022648999 1.076 4287664254
0.101838 -0.022627 1.075 4285888367
0.10485 -0.0226472 1.076 4287928464
0.107667 -0.0226252 1.075 4287994247
0.110684 -0.0226452 1.076 4288519310
0.113495 -0.0226232 1.075 4288453003
0.116517 -0.022643199 1.076 4288650380
0.119321 -0.022621101 1.075 4288782221
0.122234 -0.022620101 1.075 4288453256
0.12503 -0.022598 1.074 4288123778
0.128058 -0.022617901 1.075 4288189825
0.130969 -0.0226168 1.075 4288255618
0.13388 -0.022615699 1.075 4288255877
0.136536 -0.0225724 1.073 4288387210
0.139441 -0.022571201 1.073 4288782482
0.142345 -0.0225701 1.073 4288256138
0.14524899 -0.0225688 1.073 4288519310
0.14829101 -0.022588599 1.074 4288782480
0.15105499 -0.0225664 1.073 4288585356
0.15395799 -0.0225651 1.073 4288387461
0.15685999 -0.0225638 1.073 4286808176
0.15991101 -0.0225836 1.074 4287203183
0.162512 -0.022540201 1.072 4287531371
0.16510101 -0.022496801 1.0700001 4287268715
0.167522 -0.0224324 1.067 4287860859
0.170406 -0.0224311 1.067 4288189825
0.173289 -0.022429699 1.067 4288124032
0.176007 -0.022407301 1.066 4288189824
0.178886 -0.0224059 1.066 4288255871
0.181766 -0.022404499 1.066 4288123770
0.184818 -0.0224241 1.067 4288320633
0.187874 -0.022443701 1.068 4287399533
0.190579 -0.0224213 1.067 4287925363
0.193459 -0.0224199 1.067 4287464812
0.195971 -0.022376399 1.0650001 4287464812
0.198658 -0.022353901 1.064 4287201640
0.20133901 -0.0223314 1.063 4286807657
0.204014 -0.022309 1.062 4287334002
0.20687801 -0.0223075 1.062 4287531381
0.209545 -0.022284999 1.061 4286084195
0.212405 -0.0222835 1.061 4286215781
0.21506301 -0.022260999 1.0599999 4286873197
0.217714 -0.0222385 1.059 4287136369
0.22036 -0.022216 1.058 4286412899
0.222789 -0.022172499 1.056 4286873450
0.22542 -0.022150001 1.0549999 4287005804
0.228045 -0.0221275 1.054 4286940011
0.230884 -0.022126 1.054 4286940010
0.23283599 -0.022040499 1.05 4286742631
0.23521399 -0.021996999 1.048 4286743144
0.237581 -0.021953501 1.046 4286940270
0.24085601 -0.021994 1.048 4286940015
0.242979 -0.021929501 1.045 4287071601
0.245791 -0.021927999 1.045 4287334773
0.248127 -0.021884499 1.043 4287466361
0.25093299 -0.021883 1.043 4287137910
0.253739 -0.0218815 1.043 4287466875
0.257036 -0.021922 1.045 4287335289
0.259846 -0.0219205 1.045 4287466875
0.262656 -0.021919001 1.045 4287204217
0.26495799 -0.021875501 1.043 4287335803
0.26724899 -0.021832099 1.041 4287467389
0.26978701 -0.021809701 1.04 4287401596
0.27310699 -0.0218502 1.0420001 4287204215
0.27564201 -0.0218277 1.041 4287401335
0.27817199 -0.021805299 1.04 4287335540
0.28042701 -0.0217619 1.038 4287532919
0.28348801 -0.0217815 1.039 4287401849
0.28627899 -0.0217801 1.039 4287336056
0.28879201 -0.0217577 1.038 4287204217
0.29129899 -0.021735299 1.0369999 4287072631
0.294368 -0.0217549 1.038 4287335803
0.29715601 -0.021753499 1.038 4287204217
0.29994401 -0.021752199 1.038 4287270010
0.30273101 -0.0217508 1.038 4287204217
0.30581301 -0.021770401 1.039 4287270010
0.309196 -0.021810999 1.041 4287270008
0.31289101 -0.021872601 1.044 4287138424
0.31660101 -0.021934099 1.0470001 4287138424
0.32032701 -0.021995701 1.05 4286941559
0.32376099 -0.022036299 1.052 4286809973
0.32720599 -0.022076899 1.054 4286809973
0.330349 -0.022096699 1.0549999 4287007352
0.33381301 -0.022137299 1.057 4286678387
0.33696899 -0.022157099 1.058 4286941559
0.34045199 -0.0221978 1.0599999 4286941559
0.34362099 -0.0222176 1.061 4286876020
0.347123 -0.0222583 1.063 4287139192
0.350306 -0.0222781 1.064 4286876019
0.353163 -0.022276999 1.064 4287072629
0.35602 -0.022275999 1.064 4287269496
0.358877 -0.0222749 1.064 4287269496
0.361734 -0.0222739 1.064 4286808945
0.36527601 -0.0223148 1.066 4287203701
0.36848399 -0.022334799 1.067 4287203956
0.37134999 -0.022333801 1.067 4287203956
0.37386599 -0.022312 1.066 4287138163
0.37672901 -0.022311101 1.066 4286809457
0.37959301 -0.0223103 1.066 4286941043
0.38245699 -0.022309501 1.066 4287072370
0.385683 -0.022329601 1.067 4286480747
0.388551 -0.0223289 1.067 4286743919
0.39178601 -0.022349101 1.068 4286546540
0.39391801 -0.0223065 1.066 4286480494
0.39641199 -0.022284999 1.0650001 4286481008
0.39890099 -0.0222634 1.064 4286217837
0.402518 -0.022304701 1.066 4286348909
0.405386 -0.0223042 1.066 4286348655
0.40825501 -0.0223037 1.066 4285888620
0.41035199 -0.0222614 1.064 4285494377
0.412828 -0.0222401 1.063 4283125575
0.41608101 -0.022260601 1.064 4283784273
0.41894701 -0.022260301 1.064 4286218613
0.42102 -0.022218199 1.062 4286415476
0.42348301 -0.022197001 1.061 4286744180
0.42634299 -0.0221968 1.061 4286743664
0.428799 -0.022175699 1.0599999 4286546285
0.43125001 -0.0221547 1.059 4286611819
0.43410701 -0.0221547 1.059 4286743405
0.43655199 -0.022133701 1.058 4286545257
0.438162 -0.022071 1.0549999 4286348392
0.43975699 -0.0220083 1.052 4286479980
0.442599 -0.022008499 1.052 4287269496
0.44586599 -0.022029599 1.053 4286348906
0.44871199 -0.0220298 1.053 4286545771
0.45155999 -0.0220301 1.053 4286611819
0.45354599 -0.0219886 1.051 4286874730
0.455957 -0.0219681 1.05 4286611558
0.45792601 -0.021926699 1.048 4286940523
0.45988601 -0.0218853 1.046 4285887835
0.46139401 -0.021823101 1.043 4285229905
0.46333301 -0.021781901 1.041 4285755474
0.46526101 -0.021740699 1.039 4285755474
0.46763101 -0.021720501 1.038 4286018648
0.46999699 -0.021700401 1.0369999 4285623890
0.47144699 -0.0216385 1.034 4286347613
0.47425899 -0.021639399 1.034 4286282334
0.477072 -0.021640301 1.034 4286150232
0.48034999 -0.0216623 1.035 4285755474
0.482236 -0.021621499 1.033 4285887829
0.48505101 -0.021622701 1.033 4286282073
0.487396 -0.021602999 1.0319999 4285689936
0.49021199 -0.0216043 1.0319999 4285887313
0.49255201 -0.021584701 1.031 4285887051
0.49488899 -0.021565201 1.03 4285492293
0.497706 -0.0215667 1.03 4285820744
-0.141277 -0.0171455 0.72299999 4290363329
-0.136436 -0.0167909 0.708 4291023069
-0.13376699 -0.016697099 0.704 4290431448
-0.13186701 -0.0166982 0.704 4290036690
-0.129968 -0.016699299 0.704 4289839311
-0.12734 -0.0166055 0.69999999 4289707723
-0.124196 -0.0164405 0.69300002 4289510344
-0.122149 -0.0164179 0.69199997 4288852414
-0.119933 -0.016371399 0.69 4288128431
-0.117899 -0.016348699 0.68900001 4288260017
-0.116038 -0.0163498 0.68900001 4288391602
-0.114343 -0.0163745 0.69 4288194223
-0.112804 -0.016423 0.69199997 4287733925
-0.110614 -0.016376499 0.69 4287602339
-0.108592 -0.016353801 0.68900001 4287470754
-0.106574 -0.016331 0.68800002 4288326323
-0.104715 -0.016332 0.68800002 4287931566
-0.103004 -0.0163566 0.68900001 4288128691
-0.101581 -0.0164288 0.69199997 4288457656
-0.099853598 -0.016453501 0.69300002 4287865773
-0.097837597 -0.0164307 0.69199997 4287470500
-0.095688097 -0.016384101 0.69 4287601056
-0.093549199 -0.016337501 0.68800002 4287928736
-0.091820598 -0.016362101 0.68900001 4288323494
-0.089955702 -0.016363 0.68900001 4288191393
-0.088218503 -0.0163876 0.69 4288257186
-0.086350396 -0.0163884 0.69 4288257700
-0.084604397 -0.016412999 0.69099998 4288718251
-0.082373902 -0.0163425 0.68800002 4289178288
-0.0802764 -0.0162958 0.68599999 4288520358
-0.0781895 -0.0162491 0.68400002 4288388258
-0.076448001 -0.016273599 0.685 4288059293
-0.074700803 -0.0162981 0.68599999 4287730328
-0.072841801 -0.016298899 0.68599999 4287730842
-0.070982598 -0.0162996 0.68599999 4288322977
-0.069022298 -0.016276499 0.685 4287072910
-0.067263402 -0.016301 0.68599999 4286217603
-0.065403402 -0.0163016 0.68599999 4286809740
-0.063635901 -0.0163261 0.68699998 4287138705
-0.061772801 -0.016326699 0.68699998 4287797150
-0.0599095 -0.016327299 0.68699998 4288455079
-0.058130499 -0.0163517 0.68800002 4287929762
-0.056182399 -0.016328501 0.68699998 4287336855
-0.054318499 -0.0163291 0.68699998 4287205269
-0.052454401 -0.0163296 0.68699998 4286416007
-0.0507375 -0.0163777 0.68900001 4285955972
-0.048867598 -0.0163782 0.68900001 4285561214
-0.046997599 -0.016378701 0.68900001 4286416523
-0.045061901 -0.016355401 0.68800002 4286679695
-0.0431315 -0.016332099 0.68699998 4286877074
-0.041146301 -0.016285 0.685 4286811281
-0.039286502 -0.0162855 0.685 4286745488
-0.037372001 -0.016262099 0.68400002 4286877074
-0.035618499 -0.016310001 0.68599999 4287008660
-0.0338048 -0.0163342 0.68699998 4287732642
-0.031985499 -0.016358299 0.68800002 4288588467
-0.030117 -0.016358601 0.68800002 4288917432
-0.028248301 -0.016358901 0.68800002 4288852153
-0.0263795 -0.016359201 0.68800002 4287733672
-0.0245819 -0.0164071 0.69 4287667365
-0.0227075 -0.0164073 0.69 4287930535
-0.020833001 -0.016407499 0.69 4287996069
-0.018931 -0.016384 0.68900001 4287666849
-0.0170095 -0.016336599 0.68699998 4287863967
-0.015121 -0.016313 0.68599999 4288389797
-0.0132571 -0.016313201 0.68599999 4288389544
-0.0114098 -0.0163371 0.68699998 4288455084
-0.0095430696 -0.016337199 0.68699998 4287271063
-0.00767635 -0.0163373 0.68699998 4287994528
-0.0058096 -0.0163374 0.68699998 4287994529
-0.0039485702 -0.016361199 0.68800002 4287468184
-0.0020851099 -0.016408799 0.69 4286481542
-0.00021046901 -0.0164326 0.69099998 4286744966
0.00166478 -0.016408799 0.69 4285494899
0.00354485 -0.0164325 0.69099998 4284705636
0.0054303398 -0.0164563 0.69199997 4284705636
0.0073106899 -0.0164562 0.69199997 4283719247
0.0091644404 -0.0164086 0.69 4283718741
0.0110393 -0.016408401 0.69 4284245085
0.0129141 -0.0164083 0.69 4283784020
0.0148317 -0.016455701 0.69199997 4283323469
0.016784299 -0.0165269 0.69499999 4283652180
0.0186994 -0.0165505 0.69599998 4283125836
0.020619901 -0.016573999 0.69700003 4282862664
0.022448801 -0.0165263 0.69499999 4282205241
0.0243368 -0.016526001 0.69499999 4282468160
0.026224701 -0.016525701 0.69499999 4282599492
0.0281529 -0.0165492 0.69599998 4282336320
0.030215999 -0.016643999 0.69999999 4282664510
0.032851301 -0.0170241 0.71600002 4282335545
0.0572704 -0.0252016 1.0599999 4282994250
0.060545798 -0.0253674 1.067 4282336320
0.063621096 -0.0254381 1.0700001 4282533953
0.066526003 -0.0254374 1.0700001 4282731078
0.069430597 -0.025436699 1.0700001 4282336320
0.072334997 -0.0254359 1.0700001 4282665025
0.0753095 -0.0254589 1.071 4282335545
0.078143097 -0.025434401 1.0700001 4281215519
0.081122398 -0.0254573 1.071 4287005810
0.0841069 -0.0254802 1.072 4287399280
0.087177701 -0.0255269 1.074 4287267433
0.090091303 -0.025526 1.074 4287464812
0.092831403 -0.025477501 1.072 4287399019
0.095649697 -0.0254528 1.071 4287005551
0.098554201 -0.0254518 1.071 4287268980
0.101458 -0.0254508 1.071 4286019194
0.104265 -0.025426 1.0700001 4287926940
0.107065 -0.025401101 1.069 4288256660
0.110066 -0.025423801 1.0700001 4288189838
0.113072 -0.0254464 1.071 4288650382
0.115974 -0.025445299 1.071 4288321415
0.118876 -0.0254441 1.071 4288650380
0.121778 -0.0254429 1.071 4288584842
0.124679 -0.025441701 1.071 4288518794
0.127699 -0.025464199 1.072 4288321415
0.130602 -0.025463 1.072 4288189829
0.133505 -0.0254617 1.072 4288255622
0.136153 -0.0254129 1.0700001 4288255624
0.13891999 -0.025387799 1.069 4289045907
0.141681 -0.025362801 1.068 4288387977
0.144706 -0.0253851 1.069 4288125319
0.147737 -0.025407501 1.0700001 4288783249
0.15063199 -0.0254061 1.0700001 4288519563
0.15352599 -0.025404699 1.0700001 4288453770
0.15642001 -0.0254032 1.0700001 4286808684
0.159463 -0.025425499 1.071 4286940268
0.16190401 -0.0253528 1.068 4287334254
0.164482 -0.0253039 1.066 4287663733
0.16705 -0.0252549 1.064 4287795066
0.169925 -0.0252534 1.064 4288124032
0.17296299 -0.025275599 1.0650001 4288058498
0.175675 -0.025250301 1.064 4288321668
0.17838199 -0.025225 1.063 4288321923
0.181253 -0.025223499 1.063 4288256128
0.18412299 -0.025221899 1.063 4288256124
0.187169 -0.025243999 1.064 4287729266
0.190042 -0.025242399 1.064 4287794805
0.193095 -0.0252645 1.0650001 4287399533
0.195601 -0.0252154 1.063 4287794291
0.198283 -0.0251901 1.062 4287202154
0.20076901 -0.025141001 1.0599999 4287202669
0.203436 -0.0251156 1.059 4286742118
0.20609701 -0.025090201 1.058 4287333485
0.20895 -0.0250885 1.058 4287267692
0.211603 -0.0250632 1.057 4287135594
0.214249 -0.025037801 1.056 4287793008
0.216684 -0.0249887 1.054 4287069285
0.21952499 -0.024986999 1.054 4286411355
0.22215401 -0.0249616 1.053 4286872420
0.22499099 -0.024959899 1.053 4287201640
0.227395 -0.0249108 1.051 4287399531
0.23000599 -0.024885301 1.05 4287399785
0.232169 -0.024812501 1.0470001 4286939748
0.234539 -0.0247635 1.045 4287268713
0.23689801 -0.024714399 1.043 4287334254
0.239935 -0.024736401 1.044 4287202415
0.242048 -0.024663599 1.041 4286873964
0.244849 -0.0246619 1.041 4286610792
0.24717399 -0.024612799 1.039 4286084961
0.25020999 -0.024634801 1.04 4286282340
0.25300801 -0.0246331 1.04 4285690203
0.25580499 -0.0246315 1.04 4285887327
0.25860199 -0.0246298 1.04 4286347878
0.26139799 -0.024628101 1.04 4286676845
0.26394001 -0.0246027 1.039 4286676843
0.26673299 -0.0246011 1.039 4286808431
0.26874799 -0.024528399 1.036 4286611050
0.271795 -0.024550401 1.0369999 4286479972
0.27405199 -0.024501501 1.035 4286545763
0.276833 -0.0244998 1.035 4286611297
0.27934399 -0.0244745 1.034 4286940262
0.28239501 -0.0244966 1.035 4287071848
0.28517601 -0.024495 1.035 4286479713
0.287678 -0.0244698 1.034 4286677096
0.28989401 -0.0244209 1.0319999 4286611303
0.29294899 -0.024443001 1.033 4286545510
0.29572299 -0.024441401 1.033 4286545771
0.29878601 -0.0244636 1.034 4287203196
0.30156299 -0.024462 1.034 4287137910
0.30404499 -0.0244369 1.033 4287072370
0.30741301 -0.024482699 1.035 4287138163
0.31079099 -0.0245286 1.0369999 4287203956
0.314785 -0.024621701 1.041 4287203703
0.3188 -0.0247149 1.045 4287335289
0.322837 -0.024808099 1.049 4287204217
0.32627401 -0.024854001 1.051 4287138424
0.32909501 -0.0248526 1.051 4287467389
0.33191699 -0.024851199 1.051 4287007352
0.33505699 -0.024873501 1.052 4287139192
0.33852401 -0.024919501 1.054 4287007606
0.34200099 -0.0249654 1.056 4287336571
0.345162 -0.0249878 1.057 4287336570
0.34832999 -0.0250102 1.058 4287204468
0.35117 -0.025009001 1.058 4287467128
0.35434499 -0.025031401 1.059 4287401080
0.357526 -0.0250539 1.0599999 4287466873
0.36037299 -0.0250527 1.0599999 4287269496
0.36356199 -0.0250753 1.061 4287466873
0.366411 -0.025074201 1.061 4287269494
0.369261 -0.0250731 1.061 4287072629
0.37141001 -0.0250249 1.059 4287072631
0.37460801 -0.0250475 1.0599999 4287006838
0.377812 -0.0250702 1.061 4287335803
0.38066301 -0.0250693 1.061 4287270008
0.38423699 -0.0251157 1.063 4286941043
0.38709399 -0.025114801 1.063 4286875250
0.39031801 -0.0251377 1.064 4287072629
0.39243901 -0.0250897 1.062 4287138424
0.394923 -0.025065299 1.061 4286941046
0.397026 -0.025017399 1.059 4286940792
0.40063 -0.025064001 1.061 4286940792
0.40348399 -0.025063399 1.061 4287138171
0.405956 -0.0250392 1.0599999 4286480241
0.40842301 -0.025015101 1.059 4286546295
0.41049701 -0.0249674 1.057 4285362791
0.41334301 -0.024967 1.057 4283192136
0.41619 -0.024966599 1.057 4286481786
0.419038 -0.0249663 1.057 4287008129
0.421886 -0.0249661 1.057 4286744695
0.42473501 -0.0249658 1.057 4287073145
0.42717999 -0.0249421 1.056 4286941045
0.42962101 -0.024918299 1.0549999 4287204215
0.43246701 -0.024918299 1.0549999 4287006322
0.43490201 -0.024894601 1.054 4286808945
0.43691701 -0.024847399 1.052 4286611566
0.438503 -0.024776701 1.049 4286874738
0.44091699 -0.0247532 1.048 4286677873
0.44417199 -0.024777001 1.049 4287533180
0.44700801 -0.024777301 1.049 4287138422
0.449417 -0.024754001 1.048 4286809196
0.451821 -0.0247308 1.0470001 4286677610
0.45422 -0.0247076 1.046 4286940784
0.45617899 -0.0246609 1.044 4287269233
0.45856801 -0.0246378 1.043 4286874475
0.46050999 -0.0245912 1.041 4285821787
0.462888 -0.024568301 1.04 4285887576
0.46391901 -0.0244746 1.036 4285755476
0.46538001 -0.0244045 1.033 4286018394
0.46727899 -0.024358099 1.031 4286084441
0.469625 -0.0243355 1.03 4285821269
0.47242501 -0.0243365 1.03 4286610785
0.47568899 -0.024361201 1.031 4286150232
0.47803101 -0.0243388 1.03 4285229130
0.48036999 -0.0243164 1.029 4285492302
0.483174 -0.0243177 1.029 4286084694
0.48598 -0.024319001 1.029 4286216278
0.48878801 -0.0243205 1.029 4286347864
0.49159801 -0.024321999 1.029 4286150223
0.49393001 -0.0243 1.028 4286018637
0.49625799 -0.024278101 1.027 4285754951
0.49906799 -0.024279799 1.027 4285689419
-0.140885 -0.0190516 0.72100002 4290165702
-0.135857 -0.0186301 0.70499998 4291088864
-0.132815 -0.018472699 0.699 4290234069
-0.130742 -0.0184475 0.69800001 4290036690
-0.128121 -0.018343 0.69400001 4289839309
-0.125338 -0.018212 0.68900001 4289642184
-0.122582 -0.018081 0.68400002 4288326324
-0.120912 -0.018108601 0.685 4288392116
-0.118889 -0.0180833 0.68400002 4288128944
-0.117042 -0.0180845 0.68400002 4287997358
-0.115195 -0.018085601 0.68400002 4288391856
-0.11401 -0.0181925 0.68800002 4288260269
-0.112314 -0.01822 0.68900001 4287536032
-0.110292 -0.0181947 0.68800002 4287667618
-0.108118 -0.018142899 0.68599999 4287996069
-0.105954 -0.018091099 0.68400002 4288916916
-0.103648 -0.018012799 0.68099999 4288982709
-0.101657 -0.0179874 0.68000001 4288785330
-0.100112 -0.0180413 0.68199998 4288785330
-0.098411702 -0.0180688 0.68300003 4288258986
-0.096705601 -0.0180963 0.68400002 4287732897
-0.094439097 -0.018017899 0.68099999 4287600797
-0.092460498 -0.0179924 0.68000001 4287600027
-0.090620197 -0.0179934 0.68000001 4288060321
-0.088910297 -0.018020799 0.68099999 4287928735
-0.086939 -0.0179953 0.68000001 4286744715
-0.085223198 -0.018022699 0.68099999 4286678922
-0.083379202 -0.018023601 0.68099999 4286810508
-0.081534997 -0.0180245 0.68099999 4286152578
-0.079456501 -0.0179724 0.67900002 4285692027
-0.077388503 -0.0179203 0.67699999 4284441960
-0.075777598 -0.017974099 0.67900002 4284639338
-0.074046701 -0.0180014 0.68000001 4284441959
-0.072310098 -0.018028701 0.68099999 4284310373
-0.0702575 -0.0179765 0.67900002 4283915869
-0.068316199 -0.017950799 0.67799997 4284770924
-0.066576302 -0.0179781 0.67900002 4284902511
-0.064735301 -0.0179788 0.67900002 4285889406
-0.062986799 -0.018006001 0.68000001 4285823359
-0.061052799 -0.017980199 0.67900002 4285889152
-0.059211299 -0.0179809 0.67900002 4285757823
-0.057454001 -0.0180081 0.68000001 4286087042
-0.055609301 -0.0180087 0.68000001 4286350213
-0.053764399 -0.018009299 0.68000001 4286350213
-0.051842999 -0.0179835 0.67900002 4286744714
-0.050221398 -0.018063501 0.68199998 4286942093
-0.0482997 -0.0180376 0.68099999 4286678922
-0.046451401 -0.0180381 0.68099999 4285823613
-0.044537399 -0.0180122 0.68000001 4285625980
-0.0426916 -0.018012701 0.68000001 4285362808
-0.040785499 -0.0179867 0.67900002 4284836975
-0.038884599 -0.017960699 0.67799997 4286350214
-0.0370984 -0.0179876 0.67900002 4286481800
-0.0354104 -0.0180675 0.68199998 4285890179
-0.033607598 -0.0180944 0.68300003 4286153351
-0.031752702 -0.0180948 0.68300003 4285561728
-0.0298102 -0.018042199 0.68099999 4287996069
-0.0280427 -0.018095501 0.68300003 4288390827
-0.0262642 -0.0181488 0.685 4288129197
-0.024474701 -0.0182021 0.68699998 4287140760
-0.0225756 -0.0181759 0.68599999 4286547593
-0.0206818 -0.0181497 0.685 4285560694
-0.0188483 -0.018176399 0.68599999 4284705383
-0.017009299 -0.0182031 0.68699998 4284113246
-0.0151649 -0.018229799 0.68800002 4283455318
-0.0132956 -0.018230001 0.68800002 4282336835
-0.0114262 -0.018230099 0.68800002 4283125332
-0.0095568597 -0.0182302 0.68800002 4282336321
-0.0076874401 -0.0182303 0.68800002 4281480497
-0.00582645 -0.018256901 0.68900001 4281349165
-0.0039485302 -0.0182305 0.68800002 4282006325
-0.0020820601 -0.018257 0.68900001 4281217315
-0.000210162 -0.018283499 0.69 4282072887
0.00166959 -0.018336499 0.69199997 4282270266
0.00354481 -0.018309999 0.69099998 4282599231
0.0054145898 -0.018283401 0.69 4282204726
0.0073000402 -0.018309901 0.69099998 4282138933
0.0091510499 -0.0182568 0.68900001 4282138419
0.0110072 -0.018230099 0.68800002 4282138164
0.0128952 -0.0182565 0.68900001 4282203959
0.0147887 -0.018282801 0.69 4282203959
0.0167358 -0.018362099 0.69300002 4282466876
0.0186186 -0.0183619 0.69300002 4282598462
0.0205309 -0.018388201 0.69400001 4281809201
0.0224162 -0.018387901 0.69400001 4282598203
0.024301499 -0.018387601 0.69400001 4282861375
0.0261489 -0.0183609 0.69300002 4282203445
0.028031301 -0.018360499 0.69300002 4282137650
0.030043 -0.018439701 0.69599998 4282202928
0.032667398 -0.018863199 0.71200001 4282137135
0.036836501 -0.0200815 0.75800002 4282006064
0.0569456 -0.027922001 1.054 4282072118
0.060204599 -0.028106799 1.061 4282006580
0.063204199 -0.028159 1.063 4282532408
0.066090003 -0.0281583 1.063 4282532410
0.068975598 -0.028157501 1.063 4282335029
0.071996197 -0.028209601 1.0650001 4282006064
0.074957103 -0.0282353 1.066 4282071082
0.077777103 -0.0282079 1.0650001 4282860596
0.080742799 -0.0282334 1.066 4287202416
0.083792202 -0.0282855 1.068 4287333485
0.0866898 -0.028284499 1.068 4287333226
0.0895871 -0.028283499 1.068 4287662191
0.092397504 -0.028255999 1.067 4287465071
0.095112801 -0.0282019 1.0650001 4287466101
0.0980931 -0.028227299 1.066 4287137649
0.100984 -0.0282262 1.066 4285887859
0.103776 -0.028198499 1.0650001 4287730316
0.106664 -0.0281974 1.0650001 4288125074
0.109448 -0.028169701 1.064 4288124815
0.112226 -0.028142 1.063 4288650382
0.115107 -0.028140699 1.063 4288584587
0.118098 -0.028165899 1.064 4288716173
0.121208 -0.0282175 1.066 4288387208
0.124096 -0.0282162 1.066 4288190345
0.127102 -0.028241299 1.067 4289637277
0.12999199 -0.0282399 1.067 4288782482
0.132881 -0.0282385 1.067 4287927173
0.135516 -0.028184099 1.0650001 4288387722
0.13826901 -0.0281562 1.064 4288716942
0.14101601 -0.028128199 1.063 4288191112
0.14402799 -0.0281532 1.064 4288191363
0.146907 -0.0281517 1.064 4288782733
0.149786 -0.0281501 1.064 4288585354
0.15266401 -0.0281485 1.064 4288716942
0.155542 -0.0281469 1.064 4287268980
0.15856799 -0.0281718 1.0650001 4287137136
0.161144 -0.028117299 1.063 4287465841
0.163709 -0.028062699 1.061 4287531634
0.16642 -0.028034599 1.0599999 4287794806
0.16944499 -0.028059401 1.061 4287729273
0.17231201 -0.0280577 1.061 4288190082
0.17501301 -0.0280295 1.0599999 4288321668
0.177709 -0.028001299 1.059 4288190337
0.180398 -0.027973199 1.058 4288256130
0.183082 -0.027945001 1.057 4288190331
0.186112 -0.027969601 1.058 4288058745
0.188968 -0.0279679 1.058 4287466354
0.191824 -0.027966101 1.058 4287465840
0.19449501 -0.0279378 1.057 4287400047
0.19697399 -0.027883099 1.0549999 4287465840
0.19982 -0.0278813 1.0549999 4287597426
0.202666 -0.027879501 1.0549999 4287005289
0.20531701 -0.0278512 1.054 4287794291
0.20796099 -0.027822901 1.053 4287399533
0.21080001 -0.027821099 1.053 4287333226
0.21343599 -0.0277928 1.052 4287266917
0.21585999 -0.0277381 1.05 4287266919
0.218482 -0.027709801 1.049 4287399019
0.22109701 -0.0276815 1.048 4287596398
0.22370701 -0.027653201 1.0470001 4287333224
0.22609501 -0.0275985 1.045 4286939234
0.22869 -0.027570199 1.044 4287070819
0.23128 -0.0275419 1.043 4286807647
0.23386399 -0.027513601 1.0420001 4287333992
0.236442 -0.0274853 1.041 4287005027
0.239244 -0.0274834 1.041 4286742371
0.241348 -0.027402399 1.038 4286807910
0.24390601 -0.0273741 1.0369999 4287071082
0.24622101 -0.0273194 1.035 4286611045
0.249246 -0.027343901 1.036 4286216288
0.252033 -0.0273421 1.036 4286544739
0.25457299 -0.027313801 1.035 4286807657
0.256859 -0.027259201 1.033 4286413413
0.259637 -0.027257301 1.033 4286808429
0.26266801 -0.027281901 1.034 4286742889
0.265448 -0.027279999 1.034 4286611305
0.267968 -0.027251801 1.033 4286808682
0.27048299 -0.0272236 1.0319999 4286348125
0.272991 -0.0271954 1.031 4286808676
0.27576199 -0.0271936 1.031 4286874208
0.27826199 -0.0271655 1.03 4286743126
0.28102899 -0.027163699 1.03 4286808417
0.283245 -0.0271092 1.028 4286676576
0.28600699 -0.027107401 1.028 4286742371
0.28876799 -0.0271057 1.028 4286479713
0.291529 -0.027104 1.028 4286743142
0.29457599 -0.0271286 1.029 4286545761
0.29734001 -0.027126901 1.029 4286217298
0.30039501 -0.0271516 1.03 4285822794
0.303161 -0.02715 1.03 4286150746
0.30651999 -0.027201001 1.0319999 4285953367
0.309591 -0.0272258 1.033 4285821783
0.313272 -0.0273032 1.036 4285953115
0.31757799 -0.027433399 1.041 4286216288
0.32160401 -0.027537201 1.045 4286019168
0.32565099 -0.027641101 1.049 4286084706
0.32878101 -0.0276659 1.05 4286150754
0.33128399 -0.027638 1.049 4286413924
0.33410001 -0.0276365 1.049 4286216545
0.33787999 -0.0277141 1.052 4286282593
0.34135199 -0.0277653 1.054 4286479972
0.34418201 -0.027763899 1.054 4286808937
0.347011 -0.027762501 1.054 4286611558
0.350173 -0.027787499 1.0549999 4287072109
0.35300601 -0.027786201 1.0549999 4286545510
0.35617599 -0.027811199 1.056 4286216545
0.35867199 -0.027783601 1.0549999 4286413924
0.36219001 -0.027835101 1.057 4286348131
0.36468399 -0.0278075 1.056 4286348131
0.36786801 -0.0278327 1.057 4286742889
0.370006 -0.027778899 1.0549999 4287137394
0.373193 -0.0278042 1.056 4286874222
0.37674201 -0.0278558 1.058 4287268980
0.379944 -0.027881101 1.059 4287137649
0.38315099 -0.0279065 1.0599999 4287138163
0.385636 -0.027879201 1.059 4287006322
0.38848299 -0.027878299 1.059 4286940529
0.390591 -0.027824899 1.057 4287137910
0.393805 -0.027850401 1.058 4287335289
0.39590099 -0.027797 1.056 4287203703
0.39911899 -0.027822601 1.057 4287335034
0.401582 -0.0277956 1.056 4287335034
0.40404099 -0.027768699 1.0549999 4287466620
0.40610901 -0.0277155 1.053 4287203448
0.408167 -0.0276624 1.051 4287138171
0.410997 -0.027661899 1.051 4285888618
0.413827 -0.0276615 1.051 4283388998
0.41745201 -0.0277138 1.053 4286547578
0.42028901 -0.0277135 1.053 4287271555
0.42272601 -0.027687 1.052 4287468934
0.42475301 -0.027634099 1.05 4287139199
0.42677 -0.027581399 1.048 4287467903
0.43041801 -0.0276339 1.05 4287204731
0.43283901 -0.027607599 1.049 4287401596
0.43525499 -0.027581399 1.048 4286941045
0.436831 -0.0275025 1.045 4287072115
0.438813 -0.0274501 1.043 4287269494
0.441632 -0.027450301 1.043 4287072629
0.44487801 -0.027476899 1.044 4287665021
0.44727299 -0.027450999 1.043 4287335287
0.450095 -0.0274514 1.043 4286940531
0.45161501 -0.0273729 1.04 4286941045
0.45399499 -0.0273472 1.039 4287532668
0.45593101 -0.0272952 1.0369999 4287532668
0.45918399 -0.027322199 1.038 4287335289
0.46110901 -0.0272703 1.036 4286019168
0.46212801 -0.027165901 1.0319999 4285887323
0.46357799 -0.0270878 1.029 4286084187
0.46501401 -0.027009901 1.026 4286281050
0.46780199 -0.027010901 1.026 4286544224
0.47013301 -0.026985699 1.025 4286610017
0.472922 -0.026986901 1.025 4286939750
0.47617599 -0.0270146 1.026 4286742631
0.47943699 -0.0270423 1.027 4286677092
0.48223701 -0.0270437 1.027 4285887574
0.48409301 -0.0269926 1.025 4286019160
0.48688999 -0.0269942 1.025 4286282071
0.49016699 -0.0270223 1.026 4286281556
0.49248999 -0.0269977 1.025 4286149970
0.49432701 -0.0269469 1.023 4286083663
0.49712601 -0.026948901 1.023 4286215510
0.499439 -0.026924601 1.022 4285821267
-0.140688 -0.020976 0.72000003 4290231238
-0.13547 -0.020482101 0.70300001 4291220450
