# .PCD v0.7 - Point Cloud Data file format
VERSION 0.7
FIELDS x y z rgb
SIZE 4 4 4 4
TYPE F F F U
COUNT 1 1 1 1
WIDTH 1137
HEIGHT 1
VIEWPOINT 0 0 0 1 0 0 0
POINTS 1137
DATA ascii
0.33520901 0.134646 0.70899999 4287599236
0.33715901 0.13465901 0.70899999 4287599490
0.33958799 0.13486201 0.70999998 4287730562
0.34202501 0.135067 0.71100003 4287862147
0.34398499 0.13508099 0.71100003 4287533182
0.34546 0.13490599 0.70999998 4287796354
0.34742001 0.134922 0.70999998 4287730561
0.34938201 0.134938 0.70999998 4287927940
0.35233501 0.135334 0.71200001 4287993733
0.353809 0.135161 0.71100003 4287730561
0.355279 0.13498899 0.70999998 4287993733
0.35624099 0.134626 0.708 4288125319
0.358713 0.134835 0.70899999 4287927941
0.36068299 0.134854 0.70899999 4287861894
0.36265501 0.134873 0.70899999 4287862410
0.36514401 0.135084 0.70999998 4288125327
0.366088 0.13472401 0.708 4287927948
0.36858401 0.13493501 0.70899999 4287993227
0.37108701 0.13514701 0.70999998 4288190861
0.37359801 0.13536 0.71100003 4287927689
0.375588 0.135383 0.71100003 4288059789
0.377049 0.135216 0.70999998 4287928203
0.379042 0.13524 0.70999998 4287862924
0.38103601 0.13526399 0.70999998 4287928201
0.382494 0.13509899 0.70899999 4287336318
0.38503301 0.135315 0.70999998 4287928454
0.387034 0.135342 0.70999998 4288256905
0.38903901 0.135369 0.70999998 4288125320
0.39104599 0.135397 0.70999998 4287861894
0.39250201 0.135234 0.70899999 4287072894
0.394512 0.135263 0.70899999 4284639065
0.39596501 0.135102 0.708 4282797377
0.39853901 0.135323 0.70899999 4288258710
0.401687 0.135736 0.71100003 4288456343
0.404282 0.135959 0.71200001 4288126864
0.40631399 0.13599101 0.71200001 4288257682
0.407776 0.135833 0.71100003 4288455061
0.41038799 0.136058 0.71200001 4288454547
0.41301 0.13628399 0.713 4288520338
0.41447499 0.13612799 0.71200001 4288454545
0.415939 0.13597301 0.71100003 4288125066
0.4174 0.135819 0.70999998 4288453263
0.41885799 0.135665 0.70899999 4288321677
0.420908 0.135703 0.70899999 4288190861
0.424155 0.136125 0.71100003 4288322447
0.426817 0.13635699 0.71200001 4288454547
0.42948899 0.13658901 0.713 4288980636
0.430354 0.13624801 0.71100003 4288191122
0.432428 0.13629 0.71100003 4287862157
0.434506 0.136333 0.71100003 4288387985
0.43720201 0.13656899 0.71200001 4288190608
0.439291 0.13661399 0.71200001 4288520087
0.442004 0.136852 0.713 4288454039
0.44410399 0.13689899 0.713 4288519571
0.44620901 0.13694701 0.713 4288255884
0.44768801 0.136803 0.71200001 4287005555
0.44916701 0.13665999 0.71100003 4286873965
0.451278 0.136711 0.71100003 4286939757
0.454032 0.13695399 0.71200001 4287071856
0.456797 0.137199 0.713 4287795579
0.45892799 0.137253 0.713 4287663993
0.46106499 0.137307 0.713 4287137394
0.46320599 0.137362 0.713 4287400315
0.46404701 0.137033 0.71100003 4287598461
0.46619201 0.137091 0.71100003 4287861117
0.46900201 0.13734201 0.71200001 4286940270
0.47115999 0.137401 0.71200001 4287466612
0.47332501 0.13746201 0.71200001 4287466101
0.474159 0.137137 0.70999998 4287662966
0.477669 0.137586 0.71200001 4287465587
0.47984999 0.13765 0.71200001 4287465587
0.48203701 0.137714 0.71200001 4287137389
0.483549 0.137587 0.71100003 4287334768
0.48642799 0.137848 0.71200001 4287071343
0.48863199 0.137916 0.71200001 4287071603
0.490843 0.137986 0.71200001 4286676845
0.492367 0.137862 0.71100003 4287400055
0.494587 0.137934 0.71100003 4287071603
-0.198514 0.132038 0.70599997 4289441450
-0.19689301 0.13223 0.70700002 4289243810
-0.19471601 0.132048 0.70599997 4289112224
-0.192817 0.132054 0.70599997 4289177762
-0.19064701 0.131872 0.70499998 4289375141
-0.188751 0.131878 0.70499998 4289704106
-0.18738399 0.132257 0.70700002 4289506727
-0.18522 0.132076 0.70599997 4288981153
-0.18332 0.132082 0.70599997 4289770669
-0.181678 0.132274 0.70700002 4290099119
-0.179776 0.13228001 0.70700002 4289769640
-0.177873 0.132286 0.70700002 4289111710
-0.175473 0.131918 0.70499998 4289242780
-0.173822 0.132111 0.70599997 4290163882
-0.172166 0.132304 0.70700002 4289242526
-0.170504 0.132497 0.708 4289176734
-0.16835999 0.13231599 0.70700002 4289702817
-0.16622201 0.132135 0.70599997 4289308059
-0.16408899 0.131954 0.70499998 4289374112
-0.162421 0.132148 0.70599997 4289505952
-0.16052 0.132154 0.70599997 4289375135
-0.158619 0.13215999 0.70599997 4289309342
-0.156496 0.131979 0.70499998 4289374619
-0.154598 0.13198601 0.70499998 4288913552
-0.15269899 0.131992 0.70499998 4288057985
-0.151014 0.132185 0.70599997 4288320897
-0.149323 0.132379 0.70700002 4288188797
-0.147836 0.13276 0.70899999 4287860092
-0.145514 0.132392 0.70700002 4287992193
-0.143609 0.13239799 0.70700002 4288386953
-0.14170399 0.132404 0.70700002 4288979090
-0.14039201 0.132973 0.70999998 4288847502
-0.138283 0.132792 0.70899999 4288386951
-0.136372 0.132798 0.70899999 4288912781
-0.134271 0.132617 0.708 4288978573
-0.132549 0.13281099 0.70899999 4287727993
-0.13026901 0.132442 0.70700002 4288583816
-0.128362 0.132448 0.70700002 4288254336
-0.126635 0.132642 0.708 4288780680
-0.124725 0.13264801 0.708 4288715401
-0.122815 0.132654 0.708 4288715915
-0.120734 0.13247301 0.70700002 4288846987
-0.11849 0.13210399 0.70499998 4288584329
-0.116588 0.13211 0.70499998 4288649608
-0.114848 0.132304 0.70599997 4288583815
-0.113263 0.13268401 0.708 4288452229
-0.111194 0.132503 0.70700002 4288518536
-0.10944 0.132696 0.708 4288123778
-0.107529 0.13270199 0.708 4287926912
-0.105617 0.132708 0.708 4288255622
-0.103558 0.132526 0.70700002 4289703330
-0.101649 0.132531 0.70700002 4289309342
-0.099739201 0.13253701 0.70700002 4289045915
-0.097967602 0.13273001 0.708 4288980122
-0.096054897 0.132735 0.708 4289176986
-0.094407797 0.13311601 0.70999998 4289308572
-0.092358902 0.13293301 0.70899999 4289308058
-0.090442799 0.132939 0.70899999 4289176472
-0.088651299 0.133131 0.70999998 4289044886
-0.086732097 0.133136 0.70999998 4289242265
-0.084573701 0.13276599 0.708 4289110679
-0.082309298 0.132208 0.70499998 4289176472
-0.080403 0.132213 0.70499998 4289044886
-0.078607798 0.132405 0.70599997 4288913300
-0.076915704 0.13278501 0.708 4289176472
-0.0750008 0.13279 0.708 4289242780
-0.072879203 0.13241901 0.70599997 4289045401
-0.070969298 0.132423 0.70599997 4289242266
-0.069156997 0.132615 0.70700002 4289308059
-0.067529403 0.133182 0.70999998 4289308058
-0.065053701 0.132061 0.704 4289242265
-0.059650201 0.124748 0.66500002 4288783004
-0.056893501 0.122689 0.65399998 4288256662
-0.054786202 0.121942 0.64999998 4284637792
-0.052863602 0.12157 0.648 4284638047
-0.051188301 0.121761 0.64899999 4284571738
-0.049355 0.121576 0.648 4284637531
-0.047527101 0.121391 0.64700001 4284505945
-0.0456337 0.121019 0.64499998 4284176466
-0.043751098 0.120647 0.64300001 4284110672
-0.042009801 0.120649 0.64300001 4283979340
-0.040205799 0.120464 0.64200002 4283979340
-0.0385269 0.120655 0.64300001 4283913547
-0.036785301 0.120657 0.64300001 4283715654
-0.035098098 0.120847 0.64399999 4283847240
-0.0333018 0.120661 0.64300001 4283978825
-0.0315108 0.120476 0.64200002 4283716413
-0.029725101 0.12029 0.64099997 4283518526
-0.027988501 0.120292 0.64099997 4283518528
-0.0262518 0.120294 0.64099997 4283649860
-0.0244767 0.120108 0.63999999 4283781193
-0.022707 0.119922 0.639 4283978826
-0.0209755 0.119923 0.639 4284044619
-0.019274 0.120112 0.63999999 4283584582
-0.0174849 0.119738 0.63800001 4284176458
-0.015731201 0.119551 0.63700002 4284110665
-0.013983 0.119365 0.63599998 4284044870
-0.01224 0.119178 0.63499999 4284242249
-0.0105025 0.118991 0.634 4283979077
-0.0087842597 0.118992 0.634 4283650114
-0.0070771002 0.11918 0.63499999 4283715907
-0.0053476398 0.118992 0.634 4283715653
-0.00363503 0.11918 0.63499999 4283781960
-0.00191096 0.118993 0.634 4283781960
-0.000192612 0.118993 0.634 4284110665
0.00152092 0.118618 0.63200003 4283848005
0.00323385 0.118617 0.63200003 4283782214
0.0049389401 0.118429 0.63099998 4283781700
0.0066385898 0.118241 0.63 4283650114
0.0083328104 0.118053 0.62900001 4283781700
0.0100216 0.117865 0.62800002 4283913286
0.0117236 0.117864 0.62800002 4283715905
0.0134041 0.117676 0.62699997 4283781698
0.0151274 0.117862 0.62800002 4283847493
0.016829301 0.117861 0.62800002 4283584067
0.0185607 0.118048 0.62900001 4284110411
0.020232899 0.117859 0.62800002 4283978572
0.0218648 0.117482 0.62599999 4283913293
0.0234857 0.117105 0.62400001 4283649861
0.025136201 0.116916 0.62300003 4283649860
0.0268672 0.117102 0.62400001 4283715653
0.0286036 0.117288 0.625 4283847239
0.030248299 0.117099 0.62400001 4283978825
0.031887598 0.116909 0.62300003 4284241744
0.033467501 0.116531 0.62099999 4283781707
0.035206199 0.116717 0.62199998 4283715914
0.036831599 0.116527 0.62099999 4284045133
0.038451601 0.116337 0.62 4283979339
0.040001199 0.115959 0.61799997 4283650374
0.041742299 0.116144 0.61900002 4283584581
0.043348301 0.115954 0.61799997 4283452995
0.045021702 0.115951 0.61799997 4283716684
0.046468299 0.115385 0.61500001 4283650891
0.048211601 0.11557 0.616 4283454026
0.049879201 0.115567 0.616 4283256645
0.0515467 0.115564 0.616 4283650889
0.053213999 0.115561 0.616 4283519303
0.054792099 0.11537 0.61500001 4283716168
0.0563647 0.115179 0.61400002 4283452742
0.057931699 0.114988 0.61299998 4283781707
0.059590299 0.114984 0.61299998 4283585096
0.061148901 0.114793 0.61199999 4283651144
0.062496699 0.114226 0.60900003 4283914830
0.064249396 0.11441 0.61000001 4283783244
0.065899298 0.114406 0.61000001 4283915345
0.067438401 0.114215 0.60900003 4283783506
0.068971902 0.114023 0.60799998 4283519564
0.0704998 0.113832 0.60699999 4283782736
0.072140902 0.113827 0.60699999 4283848529
0.073903501 0.114011 0.60799998 4283716943
0.075422801 0.113819 0.60699999 4283848529
0.077063501 0.113814 0.60699999 4283651150
0.0785743 0.113623 0.60600001 4283913808
0.0802119 0.113618 0.60600001 4283716429
0.081714302 0.113426 0.60500002 4283913808
0.083211102 0.113234 0.60399997 4283716429
0.084702298 0.113042 0.60299999 4283848015
0.086331204 0.113037 0.60299999 4283716429
0.087959804 0.113032 0.60299999 4283190340
0.089736797 0.113215 0.60399997 4283781960
0.091216497 0.113023 0.60299999 4283584319
0.092844598 0.113018 0.60299999 4283321147
0.094159201 0.112638 0.60100001 4283189816
0.095781498 0.112633 0.60100001 4283255609
0.097079597 0.112253 0.59899998 4282926644
0.099025697 0.112623 0.60100001 4283124023
0.101317 0.113367 0.60500002 4282729265
0.104822 0.115423 0.616 4282795058
0.109768 0.118978 0.63499999 4282795058
0.116748 0.124593 0.66500002 4282860851
0.121928 0.12814701 0.68400002 4282860851
0.125221 0.12964 0.69199997 4282400300
0.128005 0.13056999 0.69700003 4282992437
0.13100301 0.131688 0.70300001 4283782212
0.133276 0.132056 0.70499998 4285032534
0.135368 0.132237 0.70599997 4286677873
0.137271 0.132231 0.70599997 4287006838
0.13937099 0.132412 0.70700002 4287270010
0.141277 0.132406 0.70700002 4286875253
0.14338399 0.132587 0.708 4286874483
0.14488199 0.13220599 0.70599997 4286216294
0.14678399 0.1322 0.70599997 4285953122
0.14847501 0.132006 0.70499998 4286084708
0.150374 0.132 0.70499998 4286413413
0.152273 0.131993 0.70499998 4286479206
0.15439101 0.132174 0.70599997 4286216034
0.156956 0.13273001 0.70899999 4286479206
0.15931299 0.13309801 0.71100003 4286939243
0.161001 0.13290399 0.70999998 4286610532
0.162912 0.132898 0.70999998 4287005803
0.164592 0.132704 0.70899999 4287071854
0.1665 0.132698 0.70899999 4287137647
0.16864599 0.132879 0.70999998 4287071854
0.17079701 0.13305999 0.71100003 4287268976
0.172711 0.133054 0.71100003 4286939497
0.17437901 0.132861 0.70999998 4287005036
0.17604101 0.132668 0.70899999 4286939244
0.177698 0.132475 0.708 4286347107
0.179857 0.13265599 0.70899999 4286939244
0.18176401 0.13265 0.70899999 4286545000
0.183672 0.132644 0.70899999 4286610278
0.185579 0.13263801 0.70899999 4286742118
0.187751 0.13282 0.70999998 4286610278
0.19019499 0.13318799 0.71200001 4286610539
0.191571 0.132809 0.70999998 4286215781
0.19320799 0.132616 0.70899999 4286216294
0.195115 0.13261101 0.70899999 4286216294
0.197023 0.132606 0.70899999 4286808431
0.19893 0.13259999 0.70899999 4286611052
0.200554 0.13240799 0.708 4286544746
0.20245799 0.132403 0.708 4286084708
0.204363 0.13239799 0.708 4287005551
0.20568401 0.13202 0.70599997 4286018656
0.20787799 0.132202 0.70700002 4286018402
0.20977899 0.13219699 0.70700002 4285492058
0.211981 0.13237999 0.708 4285887070
0.21388499 0.132376 0.708 4286479464
0.216095 0.132558 0.70899999 4286873711
0.21831 0.132741 0.70999998 4287071090
0.22053 0.13292401 0.71100003 4286808172
0.222131 0.132733 0.70999998 4286939757
0.224041 0.13273001 0.70999998 4286939758
0.225315 0.13235199 0.708 4287203442
0.227542 0.13253599 0.70899999 4287071856
0.22945 0.132533 0.70899999 4286873964
0.231685 0.132717 0.70999998 4287071343
0.23326799 0.13252699 0.70899999 4287005551
0.23583999 0.132898 0.71100003 4287071344
0.237754 0.13289499 0.71100003 4286544999
0.239669 0.132893 0.71100003 4287005804
0.240905 0.132517 0.70899999 4286611046
0.243157 0.13270199 0.70999998 4286742118
0.24507 0.1327 0.70999998 4286873450
0.24733099 0.13288499 0.71100003 4286479206
0.248546 0.13251001 0.70899999 4286216292
0.249751 0.132135 0.70700002 4286479466
0.252013 0.132321 0.708 4286611052
0.25392199 0.13232 0.708 4286347880
0.25583199 0.132319 0.708 4286676845
0.257377 0.13213199 0.70700002 4286479466
0.25891799 0.131945 0.70599997 4286347880
0.26082399 0.131945 0.70599997 4286479466
0.26310199 0.13213199 0.70700002 4286413671
0.26501101 0.13213199 0.70700002 4286545512
0.267676 0.132507 0.70899999 4286413926
0.269591 0.13250799 0.70899999 4286348133
0.272273 0.132883 0.71100003 4286282085
0.27419499 0.132884 0.71100003 4286545259
0.275729 0.132699 0.70999998 4286611052
0.27765 0.13270099 0.70999998 4287005810
0.27878401 0.13233 0.708 4287005810
0.28109601 0.13251901 0.70899999 4286874483
0.282617 0.13233501 0.708 4286808690
0.28453499 0.132338 0.708 4287005810
0.28564399 0.13196801 0.70599997 4286874224
0.287965 0.13215899 0.70700002 4287137396
0.29070199 0.13253599 0.70899999 4287203189
0.29303899 0.132728 0.70999998 4286611052
0.294135 0.132358 0.708 4286940017
0.29563901 0.132176 0.70700002 4286676590
0.29756001 0.132182 0.70700002 4287400568
0.299905 0.132374 0.708 4287597947
0.30182999 0.13237999 0.708 4287795071
0.30289799 0.13201199 0.70599997 4287137141
0.30438799 0.131832 0.70499998 4287532668
0.30630699 0.13183901 0.70499998 4287203450
0.30910301 0.13222 0.70700002 4287664001
0.31147 0.132415 0.708 4287467136
0.31340101 0.132423 0.708 4287532929
0.314888 0.13224401 0.70700002 4287533183
0.31681901 0.13225301 0.70700002 4287401596
0.31874999 0.13226201 0.70700002 4287730047
0.320683 0.13227201 0.70700002 4287466875
0.32261801 0.132282 0.70700002 4287401596
0.325012 0.132479 0.708 4287204217
0.32695201 0.13248999 0.708 4287270525
0.32889301 0.13250101 0.708 4287533697
0.33083501 0.132512 0.708 4287402625
0.33230901 0.132337 0.70700002 4287336578
0.33425099 0.13235 0.70700002 4287533697
0.33667001 0.13255 0.708 4287796868
0.33861801 0.13256299 0.708 4287730561
0.34056801 0.132577 0.708 4287927940
0.34251899 0.13259099 0.708 4287862147
0.34447101 0.132605 0.708 4287993733
0.34642601 0.13262001 0.708 4287862147
0.348874 0.13282301 0.70899999 4287796354
0.351329 0.133027 0.70999998 4288256905
0.352797 0.132856 0.70899999 4287665282
0.35376 0.132498 0.70700002 4287731076
0.35471401 0.13214099 0.70499998 4287862148
0.35717699 0.132346 0.70599997 4287796869
0.35862899 0.132177 0.70499998 4287730822
0.361101 0.132384 0.70599997 4287862155
0.36255199 0.13221601 0.70499998 4287862157
0.36399999 0.132048 0.704 4287993743
0.366483 0.132256 0.70499998 4288059022
0.36845201 0.132277 0.70499998 4287993227
0.37147301 0.13267399 0.70700002 4287927689
0.37397999 0.132884 0.708 4287993994
0.37596399 0.132907 0.708 4287993994
0.37795001 0.13293099 0.708 4287993994
0.37993801 0.132955 0.708 4287467650
0.38192901 0.13297901 0.708 4287336318
0.38338 0.132817 0.70700002 4287862662
0.38428301 0.132467 0.70499998 4287731076
0.38681999 0.132681 0.70599997 4287796355
0.38881499 0.132708 0.70599997 4287796355
0.39081299 0.132736 0.70599997 4287665029
0.39281401 0.132764 0.70599997 4286744441
0.39425701 0.132605 0.70499998 4282205501
0.397385 0.13301 0.70700002 4287469448
0.39996099 0.133229 0.708 4288653469
0.40368199 0.133825 0.71100003 4288323736
0.40514001 0.13366801 0.70999998 4288323473
0.40774301 0.133889 0.71100003 4288322959
0.409778 0.133922 0.71100003 4288257166
0.41239601 0.13414399 0.71200001 4288388752
0.41327599 0.133802 0.70999998 4288257166
0.414148 0.133461 0.708 4288125066
0.41501099 0.133119 0.70599997 4288256654
0.41704899 0.133156 0.70599997 4288321677
0.41968301 0.13338199 0.70700002 4288256652
0.42173001 0.13342001 0.70700002 4288125068
0.42437899 0.13364799 0.708 4288257168
0.427039 0.13387699 0.70899999 4288520085
0.429708 0.134106 0.70999998 4288783259
0.43116999 0.133959 0.70899999 4287862157
0.43324101 0.134001 0.70899999 4288059536
0.43470201 0.133855 0.708 4288191122
0.438012 0.134277 0.70999998 4288125329
0.440099 0.134322 0.70999998 4288256660
0.44218901 0.134368 0.70999998 4288388499
0.443032 0.134036 0.708 4288124550
0.44512501 0.134084 0.708 4287729533
0.44722199 0.134132 0.708 4287334516
0.45059299 0.13456 0.70999998 4287531894
0.45270601 0.13461 0.70999998 4287071343
0.45546299 0.13485099 0.71100003 4287532148
0.45758799 0.134904 0.71100003 4287729527
0.45971701 0.134957 0.71100003 4287729786
0.46185201 0.135011 0.71100003 4286742891
0.462686 0.13468599 0.70899999 4287926405
0.46416801 0.134552 0.708 4287992703
0.46696699 0.134799 0.70899999 4287137649
0.469116 0.134857 0.70899999 4287071856
0.47060499 0.134726 0.708 4287466101
0.47276199 0.13478599 0.708 4287597688
0.47559401 0.135038 0.70899999 4287597688
0.47776499 0.13510001 0.70899999 4287531895
0.47994101 0.13516399 0.70899999 4287334769
0.48076299 0.134847 0.70700002 4287005804
0.48431101 0.13529401 0.70899999 4287334769
0.48513299 0.13497899 0.70700002 4287137390
0.48870501 0.13542899 0.70899999 4287400308
0.490219 0.135307 0.708 4286807658
0.49382001 0.13575999 0.70999998 4287005810
-0.19795699 0.129766 0.704 4289046946
-0.196063 0.12977099 0.704 4289441189
-0.194169 0.129776 0.704 4289506982
-0.192276 0.12978201 0.704 4289572775
-0.19011199 0.129603 0.70300001 4289638568
-0.187953 0.12942401 0.70200002 4289572520
-0.18632901 0.129614 0.70300001 4289310118
-0.18443801 0.129619 0.70300001 4289902255
-0.182807 0.12981001 0.704 4289441704
-0.180656 0.129631 0.70300001 4290099119
-0.17927299 0.130005 0.70499998 4289374882
-0.177376 0.13001101 0.70499998 4289243296
-0.174981 0.129648 0.70300001 4289374882
-0.173336 0.129839 0.704 4290295214
-0.171685 0.13002899 0.70499998 4289374113
-0.170028 0.13022 0.70599997 4289045148
-0.16789 0.130041 0.70499998 4289570977
-0.165757 0.12986299 0.704 4289439645
-0.163629 0.129685 0.70300001 4289505698
-0.16173699 0.129691 0.70300001 4289309087
-0.159844 0.129697 0.70300001 4289375135
-0.15862501 0.130257 0.70599997 4289309342
-0.15650199 0.130079 0.70499998 4289176726
-0.154604 0.13008501 0.70499998 4288387208
-0.15248901 0.129907 0.704 4288452229
-0.15080599 0.130098 0.70499998 4287991418
-0.14911801 0.130288 0.70599997 4288320383
-0.147425 0.13047899 0.70700002 4288123264
-0.145109 0.130116 0.70499998 4288057985
-0.143006 0.12993801 0.704 4288913295
-0.14130899 0.13012899 0.70499998 4288386951
-0.139805 0.130505 0.70700002 4288584329
-0.137704 0.130326 0.70599997 4288715401
-0.135801 0.13033301 0.70599997 4288912266
-0.133708 0.130154 0.70499998 4288649094
-0.131621 0.129976 0.704 4288385408
-0.129538 0.129797 0.70300001 4288845959
-0.12782399 0.129988 0.704 4288122236
-0.126283 0.130364 0.70599997 4289109645
-0.124379 0.13037001 0.70599997 4288649608
-0.122648 0.13056 0.70700002 4288781194
-0.120569 0.130382 0.70599997 4288452743
-0.118496 0.13020299 0.70499998 4288386437
-0.116429 0.130025 0.704 4288715401
-0.114529 0.13003001 0.704 4288452229
-0.112789 0.13022099 0.70499998 4288452230
-0.110728 0.130042 0.704 4288649608
-0.108828 0.13004801 0.704 4288255364
-0.106927 0.130054 0.704 4287531899
-0.105175 0.130244 0.70499998 4288847759
-0.103271 0.13025001 0.70499998 4288782482
-0.101367 0.130255 0.70499998 4288980377
-0.099321403 0.13007601 0.704 4289440158
-0.097557902 0.130266 0.70499998 4289637538
-0.095788799 0.130456 0.70599997 4289242779
-0.093881197 0.13046201 0.70599997 4289044886
-0.091973297 0.130467 0.70599997 4289044886
-0.090065204 0.130472 0.70599997 4289110679
-0.088281803 0.13066199 0.70700002 4289308058
-0.086248398 0.130482 0.70599997 4289242265
-0.084100798 0.130117 0.704 4289176726
-0.0819638 0.129752 0.70200002 4288979347
-0.080065504 0.129757 0.70200002 4289242519
-0.078389801 0.13013101 0.704 4289176726
-0.076594397 0.130321 0.70499998 4289242519
-0.074687399 0.130325 0.70499998 4289111193
-0.072677098 0.130145 0.704 4288979607
-0.070671901 0.12996399 0.70300001 4289110679
-0.068965502 0.130338 0.70499998 4289044886
-0.067248099 0.130712 0.70700002 4288847761
-0.065334901 0.130716 0.70700002 4288979093
-0.060102399 0.123879 0.67000002 4288519832
-0.057071 0.121294 0.65600002 4288191383
-0.054789599 0.120188 0.64999998 4284835941
-0.0529484 0.120006 0.64899999 4284638561
-0.051270299 0.120195 0.64999998 4284309080
-0.049510501 0.120198 0.64999998 4284177494
-0.047676999 0.120016 0.64899999 4284308821
-0.045707401 0.119464 0.64600003 4284308051
-0.043821901 0.119097 0.64399999 4284044879
-0.042077798 0.1191 0.64399999 4284176465
-0.040333599 0.119102 0.64399999 4283585098
-0.038649201 0.11929 0.64499998 4283914063
-0.0369021 0.119292 0.64499998 4283781707
-0.035154801 0.119294 0.64499998 4284110672
-0.033407498 0.119297 0.64499998 4284176205
-0.0315619 0.118929 0.64300001 4283913032
-0.029773399 0.118746 0.64200002 4284110411
-0.028034 0.118748 0.64200002 4283517768
-0.026294401 0.118749 0.64200002 4283978573
-0.0245548 0.118751 0.64200002 4283978573
-0.022779601 0.118568 0.64099997 4284044365
-0.0210425 0.118569 0.64099997 4283847754
-0.0192753 0.118385 0.63999999 4283716168
-0.017486 0.118017 0.63800001 4283979079
-0.0157323 0.117833 0.63700002 4284110665
-0.0140278 0.118019 0.63800001 4283847493
-0.0122601 0.11765 0.63599998 4284044872
-0.0105364 0.11765 0.63599998 4284044870
-0.0087986896 0.117466 0.63499999 4283650114
-0.0070998599 0.117836 0.63700002 4283913032
-0.0053648599 0.117652 0.63599998 4283847239
-0.00364099 0.117652 0.63599998 4283979340
-0.0019141 0.117467 0.63499999 4284110926
-0.00019262399 0.117282 0.634 4283913546
0.00152343 0.117097 0.63300002 4283584835
0.0032442999 0.117282 0.634 4283716421
0.0049549202 0.117097 0.63300002 4283716419
0.0066601001 0.116912 0.63200003 4283979079
0.0083333496 0.116356 0.62900001 4283518274
0.0100382 0.116356 0.62900001 4283584321
0.011743 0.116355 0.62900001 4283715905
0.0134264 0.116169 0.62800002 4283781698
0.0151525 0.116353 0.62900001 4283781700
0.016857199 0.116352 0.62900001 4283913032
0.0185619 0.116351 0.62900001 4283913032
0.020234199 0.116165 0.62800002 4283649607
0.0218662 0.115793 0.62599999 4283913033
0.023562601 0.115792 0.62599999 4283715654
0.0252185 0.115605 0.625 4283978825
0.026998101 0.115974 0.62699997 4283847239
0.0286969 0.115972 0.62699997 4283715907
0.0303957 0.11597 0.62699997 4283781447
0.031940799 0.115413 0.62400001 4284176205
0.033631299 0.115411 0.62400001 4283781961
0.035264999 0.115224 0.62300003 4283847754
0.0369526 0.115221 0.62300003 4283716682
0.038516 0.114849 0.62099999 4283387456
0.040197998 0.114847 0.62099999 4283650628
0.041812401 0.114659 0.62 4283452995
0.0435615 0.114841 0.62099999 4283979593
0.0450974 0.114469 0.61900002 4283585096
0.046773501 0.114466 0.61900002 4283387719
0.048292901 0.114093 0.61699998 4283519303
0.049963299 0.11409 0.61699998 4283651144
0.0516335 0.114087 0.61699998 4283584581
0.053390101 0.114269 0.61799997 4283650374
0.054884601 0.113895 0.616 4283913032
0.056551699 0.113892 0.616 4283584067
0.0581242 0.113704 0.61500001 4283518274
0.059691101 0.113515 0.61400002 4283518274
0.061352499 0.113512 0.61400002 4283585349
0.062808298 0.113138 0.61199999 4283256900
0.064358599 0.112949 0.611 4283322438
0.066011302 0.112946 0.611 4283190854
0.067663804 0.112942 0.611 4283585357
0.069202803 0.112753 0.61000001 4283651150
0.070852302 0.112749 0.61000001 4283848529
0.0723828 0.11256 0.60900003 4283914322
0.0739078 0.112371 0.60799998 4283980115
0.075302802 0.111997 0.60600001 4283848529
0.076813899 0.111808 0.60500002 4284045908
0.0784491 0.111803 0.60500002 4284243287
0.079951704 0.111614 0.60399997 4284309080
0.081718899 0.111794 0.60500002 4283980115
0.083353497 0.11179 0.60500002 4283716943
0.084987901 0.111785 0.60500002 4283585357
0.086335897 0.111411 0.60299999 4283585357
0.087964602 0.111406 0.60299999 4283585357
0.089444503 0.111217 0.602 4283716682
0.091070101 0.111212 0.602 4283387454
0.092541598 0.111022 0.60100001 4283190836
0.094164103 0.111017 0.60100001 4283058230
0.095786497 0.111012 0.60100001 4283518779
0.097570799 0.111192 0.602 4282926644
0.099525101 0.111556 0.60399997 4282663472
0.101657 0.112105 0.60699999 4283058230
0.105167 0.114132 0.61799997 4282860851
0.110465 0.118004 0.639 4282860851
0.11728 0.123354 0.66799998 4283058230
0.122112 0.126487 0.685 4282860851
0.125046 0.127589 0.69099998 4282466093
0.128011 0.128691 0.69700003 4283189816
0.13063601 0.12942301 0.70099998 4283914053
0.133093 0.129971 0.704 4286282601
0.13499101 0.12996501 0.704 4287006324
0.136889 0.129958 0.704 4286743666
0.138983 0.130137 0.70499998 4287006838
0.140883 0.13012999 0.70499998 4286941046
0.142986 0.130309 0.70599997 4286874483
0.144683 0.130118 0.70499998 4286545259
0.146374 0.12992699 0.704 4285821536
0.14827099 0.129921 0.704 4285887329
0.14995401 0.12973 0.70300001 4286150241
0.152063 0.129908 0.704 4286281827
0.15395901 0.12990201 0.704 4286874218
0.156298 0.130265 0.70599997 4286479460
0.15842301 0.13044301 0.70700002 4286873704
0.160327 0.130437 0.70700002 4286479460
0.16223 0.13043 0.70700002 4286743144
0.16436601 0.13060901 0.708 4287072109
0.16650601 0.130787 0.70899999 4286940523
0.168415 0.13078099 0.70899999 4287072109
0.170323 0.13077401 0.70899999 4286874218
0.172231 0.130768 0.70899999 4287071083
0.173893 0.130578 0.708 4287136622
0.17555 0.13038699 0.70700002 4287005037
0.177453 0.130382 0.70700002 4286478693
0.179609 0.13056 0.708 4286873965
0.18151399 0.13055401 0.708 4286281828
0.18315899 0.130364 0.70700002 4286413413
0.185323 0.13054299 0.708 4286807911
0.187492 0.130721 0.70899999 4286413414
0.189667 0.1309 0.70999998 4286084449
0.19130699 0.13071001 0.70899999 4286347621
0.193214 0.130705 0.70899999 4286084706
0.19457 0.13033099 0.70700002 4285821536
0.196472 0.130325 0.70700002 4286149988
0.198374 0.13032 0.70700002 4286084449
0.200275 0.13031501 0.70700002 4286347367
0.202177 0.13031 0.70700002 4286215781
0.204079 0.13030501 0.70700002 4286413414
0.20539799 0.129932 0.70499998 4286742378
0.207588 0.13011099 0.70599997 4286479207
0.20948701 0.130107 0.70599997 4286479207
0.211686 0.13028701 0.70700002 4286479207
0.213285 0.130098 0.70599997 4286479207
0.215185 0.13009401 0.70599997 4286413160
0.217392 0.130274 0.70700002 4286610279
0.219604 0.130454 0.708 4286216035
0.22150899 0.13045 0.708 4286413414
0.22309799 0.130262 0.70700002 4286610793
0.224682 0.13007499 0.70599997 4286413926
0.22690301 0.130255 0.70700002 4286479719
0.22848301 0.130068 0.70599997 4286281828
0.23103499 0.13043299 0.708 4286413414
0.232283 0.130062 0.70599997 4286479207
0.234184 0.130059 0.70599997 4286216035
0.236085 0.13005599 0.70599997 4286150242
0.23865999 0.130422 0.708 4285952348
0.240567 0.13042 0.708 4285952348
0.241789 0.13005 0.70599997 4286149727
0.243691 0.13004801 0.70599997 4286215006
0.245593 0.130046 0.70599997 4286149727
0.24749599 0.130044 0.70599997 4286216035
0.24939901 0.130043 0.70599997 4286479207
0.251302 0.130042 0.70599997 4286479464
0.253564 0.130225 0.70700002 4286347878
0.25510901 0.13004 0.70599997 4286544746
0.25665 0.12985501 0.70499998 4286545259
0.25855201 0.12985501 0.70499998 4286611052
0.26082399 0.13003901 0.70599997 4286742636
0.26310199 0.130224 0.70700002 4286808429
0.26426101 0.12985601 0.70499998 4286413926
0.26654199 0.13004 0.70599997 4286611050
0.26844901 0.130041 0.70599997 4286676843
0.27112299 0.130411 0.708 4286742636
0.27303699 0.130412 0.708 4286611052
0.27495101 0.13041399 0.708 4286611052
0.277257 0.13060001 0.70899999 4286940015
0.27838799 0.130234 0.70700002 4286940015
0.280301 0.130236 0.70700002 4286940017
0.28141701 0.12987 0.70499998 4286742638
0.283326 0.12987299 0.70499998 4286807918
0.28442699 0.129508 0.70300001 4286807918
0.28714699 0.12988 0.70499998 4287137137
0.29069799 0.130621 0.70899999 4286413414
0.29303399 0.13080899 0.70999998 4286479207
0.29413 0.130445 0.708 4285821534
0.29521599 0.130081 0.70599997 4285821534
0.297133 0.130086 0.70599997 4286150499
0.299052 0.130092 0.70599997 4286216292
0.300971 0.130097 0.70599997 4286545257
0.30203301 0.12973499 0.704 4286940017
0.303949 0.129741 0.704 4286545259
0.305866 0.129748 0.704 4286676845
0.308658 0.130123 0.70599997 4286676845
0.31014201 0.12994701 0.70499998 4287071603
0.31250799 0.13013899 0.70599997 4287269496
0.31443399 0.130147 0.70599997 4287203703
0.31636199 0.130155 0.70599997 4287466875
0.31784001 0.12998 0.70499998 4287072117
0.31885999 0.12962 0.70300001 4286216808
0.32123899 0.129814 0.704 4286874738
0.32316601 0.129824 0.704 4287072631
0.32509401 0.129834 0.704 4287335804
0.32748801 0.13003001 0.70499998 4287533697
0.329889 0.130225 0.70599997 4287402111
0.33182701 0.130237 0.70599997 4287401597
0.33376601 0.13024899 0.70599997 4287730561
0.335706 0.130261 0.70599997 4287796352
0.33717 0.13009 0.70499998 4287467903
0.33862999 0.12991901 0.704 4287731075
0.34057 0.129932 0.704 4287665282
0.342511 0.12994701 0.704 4287665282
0.34494299 0.130146 0.70499998 4287730561
0.34738201 0.130346 0.70599997 4287927940
0.349334 0.13036101 0.70599997 4287928454
0.35078999 0.130193 0.70499998 4288060040
0.35274199 0.130209 0.70499998 4287796869
0.35469699 0.130226 0.70499998 4287928455
0.356653 0.130244 0.70499998 4287862408
0.35810199 0.130077 0.704 4287993994
0.360571 0.13028 0.70499998 4287993996
0.36201799 0.130115 0.704 4287927948
0.36346301 0.129949 0.70300001 4288059534
0.36542299 0.129969 0.70300001 4288256399
0.367385 0.12999 0.70300001 4288190861
0.37092599 0.130566 0.70599997 4288257168
0.37290201 0.130588 0.70599997 4287862408
0.374879 0.13061 0.70599997 4287797383
0.37632501 0.130448 0.70499998 4287862922
0.37884101 0.130656 0.70599997 4287665543
0.38082501 0.13067999 0.70599997 4287796615
0.38281199 0.130705 0.70599997 4288059787
0.38371199 0.13036001 0.704 4288059787
0.38569799 0.13038599 0.704 4287796869
0.387687 0.130412 0.704 4287927941
0.389678 0.130439 0.704 4287599236
0.391673 0.130467 0.704 4286612858
0.39366901 0.130495 0.704 4282994504
0.39679301 0.130895 0.70599997 4283061821
0.398801 0.130924 0.70599997 4288786065
0.401948 0.13132501 0.708 4288323989
0.40339699 0.131171 0.70700002 4288258196
0.406564 0.131574 0.70899999 4288323473
0.408016 0.131421 0.708 4288257166
0.410624 0.131639 0.70899999 4288322959
0.411495 0.131302 0.70700002 4288586385
0.41294301 0.13115101 0.70599997 4288717717
0.414388 0.131 0.70499998 4287928203
0.416421 0.131036 0.70499998 4288125066
0.419052 0.131258 0.70599997 4287993734
0.419902 0.130924 0.704 4288059273
0.42254201 0.131148 0.70499998 4288190859
0.42458999 0.13118701 0.70499998 4288520085
0.427246 0.131413 0.70599997 4288783259
0.42869601 0.131267 0.70499998 4288585625
0.43014401 0.13112199 0.704 4288190867
0.43220401 0.131164 0.704 4287993743
0.43611801 0.13176601 0.70700002 4288124560
0.43819401 0.13180999 0.70700002 4287927695
0.44027501 0.131855 0.70700002 4288191120
0.44110799 0.13152701 0.70499998 4288519826
0.44444901 0.131947 0.70700002 4287532668
0.44591099 0.131807 0.70599997 4286808429
0.44863999 0.13204201 0.70700002 4287268723
0.45010501 0.13190401 0.70599997 4287137390
0.45285001 0.13214099 0.70700002 4287137902
0.45496199 0.132192 0.70700002 4287335281
0.45707801 0.13224401 0.70700002 4287532658
0.45855001 0.13211 0.70599997 4287071854
0.460673 0.132164 0.70599997 4287663991
0.46280101 0.132219 0.70599997 4287729527
0.46559301 0.13246199 0.70700002 4287729273
0.46773499 0.13251901 0.70700002 4286742632
0.46855199 0.132202 0.70499998 4287334515
0.47003099 0.132073 0.704 4287268469
0.47284999 0.13232 0.70499998 4287926400
0.47568101 0.132569 0.70599997 4287268982
0.47920099 0.133007 0.708 4287203442
0.480699 0.132882 0.70700002 4287598200
0.48356301 0.13313399 0.708 4287269235
0.48438001 0.132824 0.70599997 4286940268
0.487259 0.13307799 0.70700002 4287662967
0.49015 0.133334 0.708 4286479206
0.493054 0.13359199 0.70899999 4286545259
-0.199003 0.12731799 0.70099998 4289704106
-0.197118 0.127323 0.70099998 4289572520
-0.195233 0.12732799 0.70099998 4289506727
-0.19334701 0.127333 0.70099998 4289506727
-0.191462 0.12733901 0.70099998 4289638313
-0.189576 0.127344 0.70099998 4289967533
-0.187958 0.12753101 0.70200002 4289375396
-0.18607 0.127537 0.70200002 4289638568
-0.184182 0.127542 0.70200002 4289901740
-0.182293 0.12754799 0.70200002 4289441189
-0.18040501 0.127554 0.70200002 4290230191
-0.178516 0.12756 0.70200002 4289243294
-0.176627 0.127565 0.70200002 4289045915
-0.17448901 0.12739 0.70099998 4289572259
-0.173095 0.12775899 0.70300001 4290098089
-0.171204 0.127765 0.70300001 4289176733
-0.169553 0.12795299 0.704 4289308320
-0.167182 0.12759501 0.70200002 4289242012
-0.16529199 0.127601 0.70200002 4289637538
-0.16316999 0.127426 0.70099998 4289177503
-0.161513 0.12761401 0.70200002 4289111708
-0.15939499 0.12743799 0.70099998 4289704100
-0.157957 0.127808 0.70300001 4288782998
-0.155843 0.12763201 0.70200002 4288781968
-0.153952 0.127639 0.70200002 4287795071
-0.15184499 0.127463 0.70099998 4288189057
-0.15038501 0.12783299 0.70300001 4288122750
-0.148702 0.128021 0.704 4288254850
-0.14701401 0.12820899 0.70499998 4288123264
-0.14490899 0.128034 0.704 4288189571
-0.142809 0.127858 0.70300001 4288715916
-0.14091501 0.127864 0.70300001 4288781708
-0.13902 0.12787101 0.70300001 4288321157
-0.13732 0.128059 0.704 4288912780
-0.135423 0.128065 0.704 4288781194
-0.13333499 0.12788901 0.70300001 4287662199
-0.13144 0.127895 0.70300001 4288582787
-0.12936001 0.12772 0.70200002 4288977545
-0.127648 0.12790801 0.70300001 4288385408
-0.12593099 0.128096 0.704 4288649094
-0.124032 0.128102 0.704 4288846987
-0.122133 0.12810799 0.704 4288715402
-0.120234 0.128114 0.704 4288781195
-0.118334 0.12812001 0.704 4288386437
-0.116269 0.12794399 0.70300001 4288715402
-0.114535 0.128132 0.704 4288452230
-0.112794 0.12831999 0.70499998 4288452230
-0.110734 0.128143 0.704 4288452230
-0.108524 0.127785 0.70200002 4287926400
-0.106477 0.127609 0.70099998 4288321415
-0.104882 0.127978 0.70300001 4288979345
-0.10313 0.12816601 0.704 4288848275
-0.101372 0.128354 0.70499998 4288782996
-0.099185802 0.127995 0.70300001 4288913814
-0.097148098 0.127818 0.70200002 4288979608
-0.095251396 0.12782399 0.70200002 4289176472
-0.093487397 0.128011 0.70300001 4289110679
-0.091587603 0.128016 0.70300001 4289242265
-0.089687496 0.128021 0.70300001 4289242265
-0.0877873 0.12802599 0.70300001 4288979607
-0.085886799 0.128031 0.70300001 4288913814
-0.083747201 0.127672 0.70099998 4289110933
-0.081618302 0.127312 0.699 4289176726
-0.079842098 0.127499 0.69999999 4288847761
-0.0781717 0.127868 0.70200002 4289242519
-0.076598898 0.128419 0.70499998 4288979347
-0.0745859 0.128241 0.704 4289110679
-0.072578199 0.12806299 0.70300001 4288979093
-0.070575602 0.127886 0.70200002 4288979093
-0.0685784 0.127707 0.70099998 4289044886
-0.066871703 0.128076 0.70300001 4288847507
-0.065246403 0.128626 0.70599997 4288913814
-0.060285501 0.122436 0.67199999 4288454039
-0.057074498 0.119524 0.65600002 4288454041
-0.054877199 0.118616 0.65100002 4284901733
-0.0530333 0.118438 0.64999998 4284441436
-0.0513524 0.118623 0.65100002 4284309080
-0.049665902 0.118808 0.65200001 4284440921
-0.047753502 0.118447 0.64999998 4284374612
-0.0458517 0.118085 0.648 4284177233
-0.043960702 0.117724 0.64600003 4284045133
-0.0421458 0.117544 0.64499998 4283913547
-0.040336099 0.117365 0.64399999 4284308051
-0.038591702 0.117367 0.64399999 4284045649
-0.0369616 0.117734 0.64600003 4284242258
-0.0352116 0.117736 0.64600003 4283979086
-0.033409599 0.117556 0.64499998 4284241998
-0.031613 0.117376 0.64399999 4283913033
-0.0298681 0.117378 0.64399999 4283978826
-0.0280794 0.117197 0.64300001 4283715654
-0.026378 0.117381 0.64399999 4284110159
-0.024594599 0.117201 0.64300001 4284307538
-0.0228166 0.11702 0.64200002 4284110672
-0.0210767 0.117021 0.64200002 4283913547
-0.019306701 0.116841 0.64099997 4283914316
-0.017542001 0.116659 0.63999999 4283979593
-0.015758 0.116296 0.63800001 4283913546
-0.0140288 0.116297 0.63800001 4283847753
-0.0122802 0.116115 0.63700002 4284044618
-0.010537 0.115934 0.63599998 4284176204
-0.0087992596 0.115752 0.63499999 4283781447
-0.0070891702 0.115935 0.63599998 4283715654
-0.0053652101 0.115935 0.63599998 4283912779
-0.0036412301 0.115936 0.63599998 4283650121
-0.0019142299 0.115754 0.63499999 4284110672
-0.00019294101 0.115754 0.63499999 4283913546
0.00152594 0.115571 0.634 4283716421
0.0032496301 0.115754 0.63499999 4283847493
0.0049630702 0.115571 0.634 4284044870
0.0066710799 0.115388 0.63300002 4283979079
0.0083471397 0.114841 0.63 4283913286
0.0100388 0.114658 0.62900001 4283781700
0.0117438 0.114657 0.62900001 4283979079
0.0134487 0.114657 0.62900001 4284242251
0.0151535 0.114656 0.62900001 4283913286
0.0168583 0.114655 0.62900001 4283847493
0.0185926 0.114836 0.63 4283913286
0.020267799 0.114652 0.62900001 4284110663
0.021937501 0.114469 0.62800002 4283781953
0.0236394 0.114467 0.62800002 4283913539
0.025300801 0.114283 0.62699997 4283979332
0.027042899 0.114464 0.62800002 4283979332
0.0286988 0.11428 0.62699997 4283781953
0.0303976 0.114278 0.62699997 4283847493
0.031994 0.113911 0.625 4283913032
0.033741198 0.114092 0.62599999 4283650374
0.0354371 0.114089 0.62599999 4283979339
0.037073601 0.113905 0.625 4283848268
0.0386425 0.113538 0.62300003 4283387202
0.040200502 0.113171 0.62099999 4283650374
0.041882399 0.113168 0.62099999 4283584582
0.043494102 0.112984 0.62 4283847754
0.045173101 0.112981 0.62 4284045132
0.046776399 0.112796 0.61900002 4283716168
0.048374102 0.112611 0.61799997 4283979339
0.050047301 0.112608 0.61799997 4283650628
0.0516367 0.112422 0.61699998 4283650114
0.053393301 0.112601 0.61799997 4283518528
0.054977 0.112416 0.61699998 4283650112
0.056738801 0.112594 0.61799997 4283649855
0.058222201 0.112227 0.616 4283781698
0.059889201 0.112223 0.616 4283715905
0.061456099 0.112037 0.61500001 4283321147
0.062914699 0.111669 0.61299998 4283650112
0.064467698 0.111483 0.61199999 4283584835
0.066015199 0.111297 0.611 4283387202
0.067778602 0.111476 0.61199999 4283256131
0.069433801 0.111472 0.61199999 4283453512
0.071088798 0.111467 0.61199999 4283453512
0.072624698 0.111281 0.611 4283453512
0.0741551 0.111095 0.61000001 4283452995
0.075555697 0.110726 0.60799998 4283519303
0.077072203 0.11054 0.60699999 4283519303
0.078583203 0.110353 0.60600001 4283585096
0.0802209 0.110349 0.60600001 4283848270
0.081993602 0.110527 0.60699999 4283716429
0.0834959 0.11034 0.60600001 4284176980
0.085133098 0.110335 0.60600001 4283848529
0.086483799 0.109966 0.60399997 4284374359
0.087823398 0.109598 0.602 4284440152
0.089449301 0.109593 0.602 4283782224
0.091075003 0.109588 0.602 4283716421
0.092700496 0.109583 0.602 4283453249
0.094012402 0.109214 0.60000002 4283518526
0.095791496 0.109391 0.60100001 4283189816
0.097737901 0.10975 0.60299999 4282795058
0.100025 0.110473 0.60699999 4282860851
0.102165 0.111014 0.61000001 4282992437
0.106023 0.113375 0.62300003 4282729265
0.111508 0.117373 0.64499998 4282992437
0.118339 0.122644 0.67400002 4282992437
0.122475 0.12500399 0.68699998 4282729265
0.12505201 0.125726 0.69099998 4282662965
0.12764999 0.12644701 0.69499999 4283320896
0.13008299 0.126987 0.69800001 4285624157
0.13234299 0.127345 0.69999999 4286413673
0.13480601 0.127884 0.70300001 4286545771
0.136701 0.127878 0.70300001 4286546288
0.13839801 0.12769 0.70200002 4286875253
0.14009 0.12750199 0.70099998 4287138425
0.14218201 0.12767801 0.70200002 4286940276
0.143868 0.127489 0.70099998 4286084708
0.145965 0.127665 0.70200002 4285953122
0.147856 0.12765899 0.70200002 4285952609
0.149747 0.127653 0.70200002 4286216035
0.15142199 0.127464 0.70099998 4286084448
0.153528 0.12763999 0.70200002 4286544739
0.15564001 0.12781601 0.70300001 4286610532
0.157757 0.12799101 0.704 4286545253
0.159426 0.127803 0.70300001 4286545253
0.161548 0.127979 0.704 4286940270
0.163443 0.12797301 0.704 4286874477
0.16580801 0.12833001 0.70599997 4286677098
0.16770799 0.128324 0.70599997 4286742891
0.169608 0.128318 0.70599997 4286939757
0.17126501 0.12813 0.70499998 4286939243
0.173163 0.128124 0.70499998 4286741864
0.17481101 0.12793601 0.704 4287136622
0.176706 0.12793 0.704 4286873450
0.1786 0.127924 0.704 4286478693
0.180494 0.127919 0.704 4286479207
0.182129 0.127731 0.70300001 4286676071
0.184282 0.12790699 0.704 4286610532
0.18644001 0.12808301 0.70499998 4286742378
0.188604 0.128259 0.70599997 4286676585
0.19023301 0.12807199 0.70499998 4286413671
0.192129 0.128067 0.70499998 4286150754
0.19374999 0.12788001 0.704 4286610793
0.195922 0.128056 0.70499998 4286413414
0.197818 0.128051 0.70499998 4286412900
0.199714 0.12804601 0.70499998 4286675818
0.20161 0.128041 0.70499998 4286675818
0.20350599 0.12803601 0.70499998 4286807404
0.205403 0.128031 0.70499998 4286413414
0.20729899 0.12802599 0.70499998 4286282085
0.20889799 0.12784 0.704 4286479464
0.21079201 0.127836 0.704 4286545257
0.212383 0.12764999 0.70300001 4286413160
0.214274 0.127645 0.70300001 4286544746
0.216473 0.127823 0.704 4286807404
0.218987 0.12818199 0.70599997 4286610279
0.22057401 0.127996 0.70499998 4286676072
0.22183999 0.12763 0.70300001 4287070829
0.223731 0.127626 0.70300001 4286610278
0.225944 0.127804 0.704 4286478692
0.22816201 0.12798201 0.70499998 4286676071
0.230386 0.128161 0.70599997 4287005036
0.231957 0.127976 0.70499998 4286742118
0.23385499 0.12797301 0.70499998 4286873964
0.23541901 0.12778901 0.704 4286676072
0.23765101 0.127968 0.70499998 4286808172
0.23920999 0.127784 0.704 4286478953
0.24076401 0.127601 0.70300001 4286676332
0.24265701 0.127599 0.70300001 4286807404
0.244551 0.127597 0.70300001 4286742125
0.246446 0.12759501 0.70300001 4287070830
0.248693 0.127775 0.704 4287005036
0.250947 0.127955 0.70499998 4286611045
0.25320601 0.12813599 0.70599997 4286742118
0.254749 0.12795401 0.70499998 4286808171
0.25665 0.12795299 0.70499998 4286676585
0.25855201 0.12795299 0.70499998 4286282085
0.26008499 0.12777101 0.704 4286742638
0.261985 0.12777101 0.704 4286940015
0.263136 0.127408 0.70200002 4286611050
0.26540899 0.12759 0.70300001 4286611052
0.26768801 0.127772 0.704 4286611050
0.26958999 0.127773 0.704 4286479719
0.27149299 0.127775 0.704 4286545512
0.27339599 0.127776 0.704 4286808684
0.27608201 0.128141 0.70599997 4287006316
0.27720401 0.12778001 0.704 4286940523
0.279506 0.127964 0.70499998 4286808682
0.27941799 0.127059 0.69999999 4286741612
0.28131399 0.12706099 0.69999999 4286939244
0.282805 0.126883 0.699 4287136108
0.28592101 0.12743101 0.70200002 4287070313
0.28864399 0.12779699 0.704 4287070313
0.291379 0.12816399 0.70599997 4286939496
0.29287899 0.127987 0.70499998 4286873703
0.294375 0.12781 0.704 4287005290
0.29586601 0.12763301 0.70300001 4286873704
0.29777601 0.127639 0.70300001 4286873451
0.29925999 0.127462 0.70200002 4286610279
0.300311 0.127105 0.69999999 4286347621
0.30221599 0.127111 0.69999999 4286479207
0.30455601 0.127299 0.70099998 4286413414
0.30690199 0.127487 0.70200002 4286281827
0.308815 0.12749501 0.70200002 4286150495
0.310729 0.12750199 0.70200002 4286019166
0.31309 0.127692 0.70300001 4286348131
0.315009 0.1277 0.70300001 4286479719
0.31647801 0.127527 0.70200002 4286808684
0.31749001 0.12717199 0.69999999 4286479719
0.31986001 0.127363 0.70099998 4286676843
0.32177901 0.127373 0.70099998 4287203187
0.32323599 0.12720101 0.69999999 4287072117
0.32608399 0.127575 0.70200002 4287006839
0.32800901 0.12758601 0.70200002 4287006839
0.330405 0.12777901 0.70300001 4287006324
0.332335 0.127791 0.70300001 4287269494
0.33426699 0.127803 0.70300001 4286940529
0.335722 0.12763301 0.70200002 4287270008
0.337174 0.127464 0.70099998 4287467387
0.33862099 0.127296 0.69999999 4287598975
0.341524 0.127673 0.70200002 4287533182
0.34345999 0.12768801 0.70200002 4287993733
0.345891 0.127884 0.70300001 4287664768
0.347339 0.127718 0.70200002 4287927940
0.34928101 0.12773301 0.70200002 4287730561
0.35122499 0.127749 0.70200002 4287731076
0.35367301 0.127948 0.70300001 4288125320
0.35511699 0.127783 0.70200002 4287862408
0.356558 0.127618 0.70099998 4287796617
0.35952899 0.128001 0.70300001 4287796617
0.361485 0.12801901 0.70300001 4288059534
0.36344299 0.128038 0.70300001 4287993741
0.36488301 0.127876 0.70200002 4287927948
0.36632001 0.12771399 0.70099998 4287730569
0.36880401 0.12791599 0.70200002 4287796617
0.37129501 0.12812001 0.70300001 4288191627
0.37326401 0.128142 0.70300001 4288060555
0.37470099 0.12798201 0.70200002 4287863176
0.37667099 0.128004 0.70200002 4287797129
0.37864399 0.12802801 0.70200002 4288060303
0.380077 0.127869 0.70099998 4287928717
0.38150701 0.127712 0.69999999 4288060303
0.383481 0.127737 0.69999999 4288059787
0.38600799 0.12794501 0.70099998 4287862410
0.38854399 0.12815399 0.70200002 4287665031
0.38997599 0.12799799 0.70099998 4287006079
0.39196399 0.12802599 0.70099998 4286151284
0.39451599 0.128236 0.70200002 4282401599
0.396512 0.12826499 0.70200002 4287468681
0.399647 0.12865999 0.704 4288258964
0.40165401 0.128691 0.704 4287995538
0.40423799 0.128904 0.70499998 4288191890
0.40625501 0.12893599 0.70499998 4287994510
0.40885401 0.129151 0.70599997 4288059789
0.409715 0.12881801 0.704 4288388752
0.411154 0.12866899 0.70300001 4288454545
0.41317701 0.128703 0.70300001 4288191375
0.41520399 0.128738 0.70300001 4287862410
0.41842201 0.129141 0.70499998 4288190859
0.41926801 0.128811 0.70300001 4288322445
0.42130601 0.128848 0.70300001 4288190859
0.42274401 0.128703 0.70200002 4287993741
0.42599601 0.129108 0.704 4288454292
0.427439 0.12896401 0.70300001 4288981153
0.429492 0.129005 0.70300001 4287993743
0.431548 0.12904599 0.70300001 4287862157
0.435458 0.129639 0.70599997 4288387987
0.43691099 0.129498 0.70499998 4288059536
0.43898499 0.12954199 0.70499998 4288191122
0.44043699 0.129403 0.704 4288190861
0.44314501 0.129632 0.70499998 4288059273
0.44459999 0.129494 0.704 4287400568
0.44668901 0.12954099 0.704 4287071344
0.44878101 0.12958901 0.704 4287400562
0.45151901 0.129823 0.70499998 4287203442
0.45362401 0.12987199 0.70499998 4287203440
0.45508701 0.129739 0.704 4287466608
0.45654899 0.12960599 0.70300001 4287335273
0.458662 0.129659 0.70300001 4287335022
0.461436 0.129897 0.704 4287663480
