# .PCD v0.7 - Point Cloud Data file format
VERSION 0.7
FIELDS x y z rgb
SIZE 4 4 4 4
TYPE F F F U
COUNT 1 1 1 1
WIDTH 1115
HEIGHT 1
VIEWPOINT 0 0 0 1 0 0 0
POINTS 1115
DATA ascii
-0.155901 0.33696201 0.93000001 4286152053
-0.15388601 0.33805001 0.93300003 4288783774
-0.15136901 0.338052 0.93300003 4288717981
-0.14837299 0.33696601 0.93000001 4288520087
-0.145863 0.336968 0.93000001 4288782745
-0.143508 0.33733201 0.93099999 4288848283
-0.140845 0.336972 0.93000001 4288914076
-0.13818701 0.336611 0.92900002 4288716697
-0.135534 0.33625099 0.92799997 4289045662
-0.133174 0.33661601 0.92900002 4289111710
-0.130667 0.33661801 0.92900002 4289440675
-0.128023 0.33625799 0.92799997 4288519571
-0.12551901 0.33625999 0.92799997 4288848791
-0.12275 0.33553699 0.926 4289177754
-0.120511 0.33626401 0.92799997 4289046168
-0.118134 0.336629 0.92900002 4289046168
-0.115752 0.33699399 0.93000001 4289309340
-0.113242 0.33699599 0.93000001 4289309342
-0.110733 0.33699799 0.93000001 4289637538
-0.107991 0.33627599 0.92799997 4289374366
-0.1056 0.33664101 0.92900002 4288321164
-0.102982 0.336281 0.92799997 4288123531
-0.100478 0.336283 0.92799997 4288123531
-0.097868301 0.33592299 0.92699999 4288189324
-0.095366701 0.335926 0.92699999 4288255117
-0.092865102 0.33592799 0.92699999 4288781715
-0.090363398 0.33592999 0.92699999 4288847507
-0.087672196 0.335208 0.92500001 4289242262
-0.085175797 0.33521 0.92500001 4288386953
-0.082589999 0.33485001 0.92400002 4287860355
-0.080182999 0.33521399 0.92500001 4289110676
-0.077686504 0.335217 0.92500001 4288321158
-0.0751087 0.334856 0.92400002 4288781968
-0.072614901 0.334858 0.92400002 4288781968
-0.070196897 0.33522299 0.92500001 4288650122
-0.0677002 0.33522499 0.92500001 4288452744
-0.065133102 0.33486399 0.92400002 4288518539
-0.062503502 0.334142 0.92199999 4288321158
-0.059884701 0.333419 0.92000002 4287992705
-0.0572142 0.332333 0.917 4287532154
-0.054619599 0.33160999 0.91500002 4289505944
-0.052035701 0.33088699 0.91299999 4289440151
-0.049571201 0.330888 0.91299999 4289177754
-0.046951901 0.32980299 0.91000003 4289111963
-0.044299901 0.328354 0.90600002 4288980122
-0.041623201 0.32654399 0.90100002 4289374880
-0.0390605 0.32545799 0.898 4289374112
-0.036513899 0.32437199 0.89499998 4289439905
-0.034212101 0.32545999 0.898 4289374112
-0.031752501 0.32509899 0.89700001 4289177248
-0.029265599 0.324375 0.89499998 4289309089
-0.0266994 0.32256401 0.88999999 4289111969
-0.024269501 0.322202 0.889 4289243555
-0.021844899 0.32183999 0.88800001 4288849314
-0.019425699 0.32147899 0.88700002 4288915621
-0.017031001 0.32147899 0.88700002 4288784035
-0.0146199 0.32111701 0.88599998 4288718241
-0.0121866 0.32003099 0.88300002 4288718495
-0.0097804898 0.31930599 0.88099998 4288586909
-0.0073936302 0.31894401 0.88 4288586395
-0.0050178599 0.31894401 0.88 4289046431
-0.00264208 0.31894401 0.88 4289111969
-0.00026569801 0.31821901 0.87800002 4288980383
0.00210228 0.317857 0.87699997 4288783004
0.0044597699 0.317132 0.875 4288848797
0.0068220398 0.317132 0.875 4288718495
0.0091843102 0.31713101 0.875 4288783774
0.0115334 0.316769 0.87400001 4288849567
0.013877 0.31640601 0.87300003 4288717981
0.0161967 0.31568 0.87099999 4288322969
0.018548099 0.31568 0.87099999 4288849313
0.020899501 0.31567901 0.87099999 4288455323
0.023277599 0.31604099 0.87199998 4288191897
0.0256611 0.316403 0.87300003 4288389277
0.0279858 0.316039 0.87199998 4288191636
0.0302354 0.314951 0.86900002 4288389016
0.0324689 0.31386301 0.866 4288257430
0.0346861 0.312774 0.86299998 4288520349
0.0370587 0.31313601 0.86400002 4288651681
0.039436601 0.31349701 0.86500001 4288652195
0.106805 0.243486 0.67199999 4287863196
0.10878 0.243847 0.67299998 4287665568
0.111581 0.24602 0.67900002 4287796903
0.118735 0.245653 0.67799997 4287994785
0.120386 0.24529 0.67699999 4287929497
0.12113 0.24311601 0.671 4288061597
0.123857 0.244927 0.676 4287536023
0.137637 0.246737 0.68099999 4287928735
0.13927101 0.24637499 0.68000001 4287797402
0.14006899 0.244564 0.67500001 4287731866
0.141891 0.244564 0.67500001 4287337622
0.201784 0.32681701 0.90200001 4287797402
0.206258 0.33008 0.91100001 4287863452
0.209405 0.33116999 0.91399997 4287732120
0.212569 0.332259 0.917 4287337622
0.21528 0.33262399 0.91799998 4287798173
0.218234 0.333352 0.92000002 4287732380
0.22071999 0.33335501 0.92000002 4287797660
0.22344799 0.33372101 0.921 4287600023
0.226182 0.334088 0.92199999 4287402382
0.228921 0.334454 0.92299998 4286480251
0.23191699 0.33518401 0.92500001 4287005050
0.23441701 0.33518901 0.92500001 4287465854
0.236918 0.33519399 0.92500001 4287202676
0.239419 0.335199 0.92500001 4287466102
0.242181 0.33556801 0.926 4287202162
0.24495 0.33593601 0.92699999 4287334262
0.247457 0.33594301 0.92699999 4287268469
0.25023401 0.336312 0.92799997 4287334262
0.25328901 0.337044 0.93000001 4287400055
0.255806 0.33705199 0.93000001 4287268982
0.25804499 0.336698 0.92900002 4287334262
0.26056001 0.33670601 0.92900002 4287202934
0.26279199 0.336353 0.92799997 4287334520
0.26559001 0.336725 0.92900002 4287663487
0.268684 0.337459 0.93099999 4287531899
0.27149701 0.337832 0.93199998 4287466361
0.27402201 0.337843 0.93199998 4287531641
0.27684399 0.33821699 0.93300003 4287531381
0.27967301 0.33859101 0.93400002 4287662966
0.28220499 0.33860299 0.93400002 4287663220
0.28443301 0.33825299 0.93300003 4287729274
0.286964 0.33826599 0.93300003 4287860860
0.28949499 0.33827999 0.93300003 4287663738
0.29234001 0.33865699 0.93400002 4287400821
0.29487601 0.33867201 0.93400002 4287335532
0.29709399 0.33832401 0.93300003 4287072107
0.29930699 0.33797699 0.93199998 4287466614
0.30183899 0.33799401 0.93199998 4287071603
0.30404499 0.337648 0.93099999 4286874224
0.30657601 0.337666 0.93099999 4287400315
0.30910799 0.33768401 0.93099999 4287072109
0.31231001 0.33842799 0.93300003 4287137394
0.31518599 0.33881 0.93400002 4287466361
0.31738901 0.338467 0.93300003 4287663740
0.31958699 0.33812499 0.93199998 4287729533
0.32247099 0.33850899 0.93300003 4287335289
0.325014 0.33853099 0.93300003 4287401594
0.327557 0.33855399 0.93300003 4287466873
0.330102 0.338577 0.93300003 4287401082
0.332647 0.33860099 0.93300003 4287466873
0.33447599 0.33790001 0.93099999 4287335287
0.33737999 0.33828801 0.93199998 4287663738
0.33956099 0.337951 0.93099999 4287466361
0.342473 0.338341 0.93199998 4287466361
0.344652 0.33800599 0.93099999 4287729533
0.34757099 0.338397 0.93199998 4286940017
0.35049799 0.33879 0.93300003 4287203187
0.35343099 0.339183 0.93400002 4287861633
0.355609 0.338851 0.93300003 4287992450
0.35778299 0.33851901 0.93199998 4288321415
0.36033899 0.338552 0.93199998 4288124552
0.362896 0.33858499 0.93199998 4287927173
0.36506301 0.338256 0.93099999 4288190598
0.367226 0.33792701 0.93000001 4287861633
0.369782 0.33796301 0.93000001 4287795326
0.37233999 0.338 0.93000001 4287861631
0.375303 0.33840099 0.93099999 4287795838
0.37786701 0.33844 0.93099999 4287861633
0.38002399 0.33811599 0.93000001 4287730561
0.382177 0.33779299 0.92900002 4287664769
0.38474 0.337834 0.92900002 4287796101
0.38730499 0.33787599 0.92900002 4287861894
0.38945201 0.337556 0.92799997 4287533445
0.39159599 0.33723599 0.92699999 4287796615
0.39501101 0.338009 0.92900002 4287533697
0.39758399 0.338056 0.92900002 4287665283
0.40015799 0.338103 0.92900002 4287664768
0.40230101 0.33778799 0.92799997 4287664768
0.40531299 0.338202 0.92900002 4287466875
0.40833199 0.338617 0.93000001 4287598461
0.410476 0.33830401 0.92900002 4287466873
0.41261601 0.337993 0.92799997 4287598461
0.41475201 0.33768299 0.92699999 4287532668
0.41733599 0.33773801 0.92699999 4287204217
0.42037499 0.33815899 0.92799997 4287533182
0.422966 0.33821699 0.92799997 4287204217
0.426018 0.33864 0.92900002 4287072629
0.42861599 0.3387 0.92900002 4287203956
0.43121701 0.33876199 0.92900002 4287007082
0.43382099 0.338824 0.92900002 4287204209
0.43689701 0.33925301 0.93000001 4287072368
0.439509 0.33931801 0.93000001 4287073137
0.441172 0.33865499 0.92799997 4287072884
0.443306 0.33835801 0.92699999 4287073135
0.44591701 0.33842701 0.92699999 4286481523
0.44901499 0.33886299 0.92799997 4285495144
0.451635 0.33893499 0.92799997 4283850065
0.454748 0.33937299 0.92900002 4285889648
0.456884 0.33908299 0.92799997 4287666311
0.45951301 0.33915901 0.92799997 4287402625
0.462145 0.339237 0.92799997 4287204731
0.463779 0.33858499 0.926 4286942074
0.46590799 0.33829901 0.92500001 4287204732
0.46955499 0.339113 0.92699999 4287270011
0.473216 0.339928 0.92900002 4287467389
0.47637999 0.34038001 0.93000001 4287072378
0.47852299 0.340101 0.92900002 4287137657
0.48118201 0.34018999 0.92900002 4287335804
0.48332301 0.33991399 0.92799997 4288125320
0.48651001 0.340372 0.92900002 4287335803
0.48970699 0.340832 0.93000001 4287204723
0.49291301 0.34129399 0.93099999 4287073145
0.49612901 0.34175801 0.93199998 4287598973
0.49881899 0.34185699 0.93199998 4287533182
-0.199866 0.32833299 0.91299999 4285559410
-0.198266 0.32977101 0.917 4286020477
-0.19579101 0.32977 0.917 4286085756
-0.193526 0.330129 0.91799998 4286217340
-0.19146501 0.330847 0.92000002 4286414205
-0.189392 0.33156601 0.92199999 4287531658
-0.187309 0.33228499 0.92400002 4287992207
-0.184816 0.33228499 0.92400002 4288189324
-0.182717 0.33300501 0.926 4288518285
-0.18041199 0.33336499 0.92699999 4288847759
-0.178103 0.33372501 0.92799997 4288321415
-0.175409 0.33336601 0.92699999 4289176726
-0.173094 0.333727 0.92799997 4288650642
-0.170406 0.333368 0.92699999 4288256136
-0.168267 0.334088 0.92900002 4288519049
-0.16540401 0.33337 0.92699999 4288848014
-0.162551 0.332652 0.92500001 4287861884
-0.159536 0.33157501 0.92199999 4288059526
-0.15721899 0.331936 0.92299998 4286810227
-0.155232 0.33301699 0.926 4287665545
-0.153063 0.33373699 0.92799997 4289244325
-0.150235 0.33302 0.926 4288849566
-0.147736 0.333022 0.926 4289374880
-0.145238 0.333024 0.926 4289440675
-0.143048 0.333745 0.92799997 4289308834
-0.140241 0.33302799 0.926 4288848283
-0.137743 0.33302999 0.926 4288979869
-0.13495199 0.332313 0.92400002 4289572006
-0.132603 0.33267501 0.92500001 4289243296
-0.130107 0.33267799 0.92500001 4289111708
-0.127335 0.33196101 0.92299998 4288980636
-0.124574 0.33124399 0.921 4288849820
-0.122089 0.33124599 0.921 4288652440
-0.119994 0.33232799 0.92400002 4288455062
-0.117628 0.33269 0.92500001 4288586133
-0.115256 0.33305201 0.926 4288651926
-0.112758 0.33305401 0.926 4288717205
-0.110259 0.33305699 0.926 4288585364
-0.107644 0.33270001 0.92500001 4288453264
-0.105034 0.33234301 0.92400002 4288189324
-0.102541 0.33234501 0.92400002 4288453010
-0.100047 0.33234799 0.92400002 4288584082
-0.097448401 0.33199099 0.92299998 4288124045
-0.094957598 0.33199301 0.92299998 4288453264
-0.092466801 0.33199501 0.92299998 4288716436
-0.089878403 0.33163801 0.92199999 4288584335
-0.087295398 0.33128101 0.921 4288847761
-0.084809802 0.331283 0.921 4287729023
-0.082324199 0.33128601 0.921 4288386956
-0.079838499 0.33128801 0.921 4288386699
-0.077268802 0.33093101 0.92000002 4287992193
-0.074785702 0.330933 0.92000002 4288913554
-0.072381198 0.33129501 0.921 4288386956
-0.069971301 0.33165699 0.92199999 4288913295
-0.067629099 0.332378 0.92400002 4288584332
-0.065064602 0.33202001 0.92299998 4288189320
-0.062505402 0.33166301 0.92199999 4288452746
-0.059821401 0.33058599 0.91900003 4287861119
-0.057153601 0.32950801 0.91600001 4288190084
-0.054442201 0.328071 0.912 4289505944
-0.051866401 0.327353 0.91000003 4289045907
-0.0493013 0.32663599 0.90799999 4289111961
-0.046489101 0.324119 0.90100002 4289375135
-0.0434701 0.31980401 0.889 4289505951
0.032259401 0.24030299 0.66799998 4288455336
0.033909701 0.23922201 0.66500002 4288126118
0.035651099 0.23886199 0.66399997 4288060840
0.037330799 0.238141 0.662 4288060578
0.0389405 0.23706 0.65899998 4288323750
0.040534001 0.23598 0.65600002 4288455336
0.042175699 0.235259 0.65399998 4288455336
0.043941099 0.235258 0.65399998 4287929762
0.0455666 0.23453701 0.65200001 4288126372
0.047253799 0.23417599 0.65100002 4288586416
0.048709799 0.23273499 0.64700001 4287797668
0.050456099 0.23273399 0.64700001 4288126371
0.052283101 0.233092 0.648 4287799204
0.053865299 0.232371 0.64600003 4288192418
0.0551784 0.230571 0.64099997 4288126367
0.056730799 0.22984999 0.639 4288521126
0.0584554 0.229848 0.639 4287994782
0.0601799 0.229847 0.639 4287863199
0.061904401 0.229845 0.639 4287863199
0.063827999 0.230563 0.64099997 4287994785
0.065455601 0.23020101 0.63999999 4287995039
0.066972703 0.22948 0.63800001 4287863966
0.0683714 0.22840001 0.63499999 4288061860
0.069864199 0.227678 0.63300002 4287930276
0.071572296 0.227677 0.63300002 4287798949
0.073627703 0.228754 0.63599998 4287601570
0.075343899 0.228752 0.63599998 4287733156
0.077181198 0.22911 0.63700002 4288062121
0.0786523 0.22838899 0.63499999 4287864483
0.080365703 0.228387 0.63499999 4287864483
0.081691302 0.22730701 0.63200003 4287864483
0.083660498 0.22802401 0.634 4288127655
0.085371204 0.22802299 0.634 4287930021
0.087081797 0.228021 0.634 4287667365
0.088512301 0.2273 0.63200003 4287864744
0.090217501 0.22729801 0.63200003 4287601570
0.0919227 0.22729699 0.63200003 4287469986
0.0936279 0.227295 0.63200003 4287798951
0.095182203 0.226934 0.63099998 4287930537
0.096884698 0.226933 0.63099998 4287864744
0.0985872 0.22693101 0.63099998 4287272607
0.10029 0.22693001 0.63099998 4287206553
0.101992 0.22692899 0.63099998 4287667104
0.103695 0.226927 0.63099998 4287337623
0.105731 0.22764499 0.63300002 4287140244
0.107439 0.227644 0.63300002 4287271829
0.109147 0.227643 0.63300002 4286812048
0.110505 0.226923 0.63099998 4286615698
0.111851 0.22620299 0.62900001 4286682005
0.113368 0.225842 0.62800002 4286681751
0.115246 0.226201 0.62900001 4286813338
0.117315 0.22691999 0.63099998 4287010463
0.119395 0.22763801 0.63300002 4287141536
0.121103 0.22763801 0.63300002 4287338400
0.123005 0.227997 0.634 4287535263
0.124716 0.227997 0.634 4287469725
0.12642699 0.227997 0.634 4287601311
0.12793601 0.22763699 0.63300002 4287338653
0.12943999 0.22727799 0.63200003 4287010202
0.13093799 0.226918 0.63099998 4287273375
0.132851 0.22727799 0.63200003 4287141789
0.135409 0.228717 0.63599998 4287009433
0.138419 0.230875 0.64200002 4286746261
0.145392 0.239507 0.66600001 4286746261
0.19775601 0.31790701 0.884 4287601311
0.204218 0.32438201 0.90200001 4287338653
0.20757 0.325822 0.90600002 4287075481
0.210712 0.32690299 0.90899998 4287141789
0.213636 0.32762501 0.91100001 4287273375
0.21680801 0.32870701 0.91399997 4287009433
0.21951699 0.32906899 0.91500002 4286680468
0.222231 0.32943201 0.91600001 4286942867
0.224951 0.329795 0.917 4287007890
0.227429 0.329799 0.917 4286415750
0.230158 0.330163 0.91799998 4286282617
0.232639 0.330167 0.91799998 4287203458
0.235632 0.33089101 0.92000002 4287334522
0.238378 0.331256 0.921 4287465848
0.241391 0.331981 0.92299998 4287334262
0.24388599 0.33198699 0.92299998 4287268469
0.246382 0.33199301 0.92299998 4286939504
0.24914899 0.33235899 0.92400002 4287597434
0.25192001 0.332726 0.92500001 4287597434
0.25442299 0.33273301 0.92500001 4287663227
0.256926 0.33274001 0.92500001 4287597434
0.25914899 0.332389 0.92400002 4287400313
0.26165 0.33239701 0.92400002 4287531899
0.26415199 0.33240601 0.92400002 4287400568
0.26723099 0.33313501 0.926 4287466361
0.27032101 0.333864 0.92799997 4287531894
0.27283499 0.33387399 0.92799997 4287532148
0.275646 0.334245 0.92900002 4287663219
0.278164 0.33425599 0.92900002 4287729013
0.280682 0.33426699 0.92900002 4287466092
0.28289601 0.33392 0.92799997 4287663734
0.285721 0.33429199 0.92900002 4287597945
0.288241 0.33430499 0.92900002 4287598200
0.29076099 0.334319 0.92900002 4287663993
0.29328299 0.334333 0.92900002 4287203440
0.295486 0.333987 0.92799997 4287532148
0.298327 0.334362 0.92900002 4286873964
0.30085099 0.334378 0.92900002 4287729533
0.303049 0.334034 0.92799997 4287597947
0.30557099 0.33405101 0.92799997 4287795324
0.307762 0.333709 0.92699999 4287531895
0.31095201 0.334447 0.92900002 4287597688
0.31381699 0.33482501 0.93000001 4287597687
0.316008 0.33448499 0.92900002 4287729274
0.318194 0.33414501 0.92799997 4287663738
0.32106701 0.33452499 0.92900002 4287466361
0.323598 0.334546 0.92900002 4287664252
0.32648101 0.33492801 0.93000001 4287466873
0.32901701 0.33495101 0.93000001 4287400568
0.33119699 0.33461401 0.92900002 4287334775
0.33337301 0.33427799 0.92799997 4287597945
0.33590701 0.33430201 0.92799997 4287466359
0.33844101 0.33432701 0.92799997 4287466361
0.341344 0.334714 0.92900002 4287795324
0.343514 0.33438 0.92799997 4287795324
0.34642401 0.334768 0.92900002 4287334773
0.348966 0.33479699 0.92900002 4287137136
0.351888 0.335186 0.93000001 4286610793
0.354435 0.33521599 0.93000001 4286676845
0.35659999 0.33488601 0.92900002 4286611052
0.35914701 0.33491799 0.92900002 4286611052
0.362084 0.335311 0.93000001 4286610797
0.36463699 0.33534399 0.93000001 4286676845
0.36640099 0.33465701 0.92799997 4286545259
0.368554 0.33433101 0.92699999 4286808431
0.370702 0.33400601 0.926 4286940017
0.37365299 0.33440399 0.92699999 4287071601
0.376205 0.33444101 0.92699999 4287268980
0.37875801 0.33447999 0.92699999 4287466361
0.38049099 0.33379701 0.92500001 4287137396
0.38304201 0.33383799 0.92500001 4287597947
0.38476199 0.333157 0.92299998 4287664254
0.38773 0.33355999 0.92400002 4287467389
0.390284 0.33360299 0.92400002 4287598975
0.39368999 0.33436999 0.926 4287730047
0.39625299 0.33441499 0.926 4287796354
0.398388 0.33410001 0.92500001 4287467389
0.40095201 0.33414799 0.92500001 4287730047
0.40351799 0.334196 0.92500001 4287730047
0.40652499 0.33460701 0.926 4287730045
0.409098 0.334658 0.926 4287598459
0.41167399 0.33470899 0.926 4287532668
0.41380399 0.33440101 0.92500001 4287401082
0.41593 0.334093 0.92400002 4287598461
0.41805401 0.33378699 0.92299998 4287598976
0.421085 0.334205 0.92400002 4287204217
0.42412499 0.33462399 0.92500001 4287269494
0.42763299 0.33540601 0.92699999 4287269747
0.43022799 0.335466 0.92699999 4287467126
0.432358 0.33516601 0.926 4287269243
0.435424 0.33559 0.92699999 4287203701
0.43755299 0.33529201 0.926 4287138677
0.43968001 0.334995 0.92500001 4287533182
0.44228101 0.335062 0.92500001 4286809457
0.444886 0.33512899 0.92500001 4286743666
0.44797701 0.33556101 0.926 4286481515
0.449617 0.33490601 0.92400002 4284639318
0.45271599 0.33534101 0.92500001 4283980885
0.45533299 0.33541399 0.92500001 4287468418
0.45795199 0.335489 0.92500001 4287139959
0.460076 0.33520201 0.92400002 4287665282
0.46169701 0.33455399 0.92199999 4287336317
0.46431699 0.33463299 0.92199999 4287336317
0.46744701 0.335076 0.92299998 4287533182
0.471095 0.335884 0.92500001 4287138424
0.474246 0.33633101 0.926 4287270008
0.476376 0.33605301 0.92500001 4287006836
0.47953999 0.336503 0.926 4287270263
0.48167101 0.33622801 0.92500001 4287664766
0.48484799 0.33668199 0.926 4287730561
0.48750699 0.33677399 0.926 4287336317
0.49070001 0.33723101 0.92699999 4287007352
0.49443501 0.338054 0.92900002 4287204732
0.49657899 0.337787 0.92799997 4287204478
0.49979901 0.33825001 0.92900002 4287006585
-0.19920801 0.324797 0.91000003 4286940800
-0.197833 0.326581 0.91500002 4287401351
-0.195576 0.32693699 0.91600001 4287664778
-0.193315 0.32729399 0.917 4287598471
-0.191256 0.32800701 0.91900003 4288255632
-0.188981 0.32836401 0.92000002 4287597701
-0.186904 0.32907799 0.92199999 4288320910
-0.184416 0.32907799 0.92199999 4287926659
-0.18192799 0.329079 0.92199999 4288650382
-0.17944001 0.32907999 0.92199999 4287860864
-0.17714401 0.32943699 0.92299998 4288650894
-0.17465299 0.329438 0.92299998 4288979861
-0.17216299 0.32943901 0.92299998 4288519824
-0.169488 0.32908401 0.92199999 4287861633
-0.16682 0.32872799 0.921 4288322184
-0.164156 0.32837299 0.92000002 4288322690
-0.161323 0.32765999 0.91799998 4287664768
-0.158673 0.32730499 0.917 4287336064
-0.15653899 0.32802099 0.91900003 4286875524
-0.15456299 0.32909301 0.92199999 4289047450
-0.15223999 0.32945201 0.92299998 4288980891
-0.149425 0.32874101 0.921 4289177756
-0.1471 0.32910001 0.92199999 4289243294
-0.144613 0.32910201 0.92199999 4289440673
-0.142279 0.32946101 0.92299998 4289309089
-0.139486 0.328749 0.921 4289572006
-0.13700099 0.32875201 0.921 4289374882
-0.13437 0.32839701 0.92000002 4289243810
-0.13203201 0.32875699 0.921 4289178017
-0.129547 0.32875901 0.921 4289046431
-0.12664799 0.32769099 0.91799998 4285823603
-0.1239 0.32697999 0.91600001 4286086521
-0.121296 0.32662499 0.91500002 4286152829
-0.119217 0.32769901 0.91799998 4286021243
-0.116867 0.328058 0.91900003 4287600528
-0.114388 0.32806101 0.91900003 4288652702
-0.111908 0.32806399 0.91900003 4288980636
-0.109547 0.32842299 0.92000002 4289177756
-0.107065 0.328426 0.92000002 4289046170
-0.104468 0.32807201 0.91900003 4289111193
-0.101989 0.32807401 0.91900003 4289374366
-0.0996169 0.32843399 0.92000002 4289505952
-0.097028702 0.32808 0.91900003 4289111193
-0.094445698 0.32772499 0.91799998 4289242779
-0.091868199 0.327371 0.917 4289045654
-0.089393497 0.32737401 0.917 4289176726
-0.086823903 0.32701901 0.91600001 4288979347
-0.084443897 0.32737899 0.917 4288847507
-0.081879601 0.32702401 0.91600001 4288781715
-0.079320699 0.32666901 0.91500002 4288913301
-0.076935202 0.32702899 0.91600001 4288584335
-0.074625403 0.32774499 0.91799998 4288584850
-0.072304897 0.328462 0.92000002 4288452750
-0.0698976 0.328821 0.921 4288584589
-0.0676312 0.32989401 0.92400002 4288650128
-0.065207601 0.33025301 0.92500001 4288584336
-0.062642999 0.329898 0.92400002 4288123784
-0.059758302 0.32775801 0.91799998 4287597694
-0.0570307 0.326332 0.91399997 4288716175
-0.054205202 0.32419199 0.90799999 4289242519
-0.051412102 0.32205099 0.90200001 4289045654
-0.048597101 0.319554 0.89499998 4289176986
-0.0453039 0.313485 0.87800002 4289176987
-0.0303532 0.23458099 0.65700001 4284573031
-0.0278401 0.228512 0.63999999 4288455851
-0.0260715 0.228156 0.639 4287272091
-0.024194 0.22672901 0.63499999 4288259755
-0.022479599 0.22672901 0.63499999 4288522413
-0.020798 0.22708701 0.63599998 4288456620
-0.0192909 0.229587 0.64300001 4288259241
-0.017527699 0.229231 0.64200002 4288522413
-0.0157206 0.22815999 0.639 4288588465
-0.0139734 0.22780401 0.63800001 4288390827
-0.0122125 0.22709 0.63599998 4288390827
-0.0105119 0.227448 0.63700002 4288325034
-0.0088058598 0.227805 0.63800001 4288127655
-0.0070722098 0.227448 0.63700002 4288653485
-0.0053355498 0.226734 0.63499999 4288193448
-0.0036211 0.226735 0.63499999 4288128169
-0.00190964 0.227092 0.63599998 4288457134
-0.00019308399 0.227806 0.63800001 4288391341
0.0015246799 0.227092 0.63599998 4288061607
0.0032418401 0.227092 0.63599998 4288193709
0.0049434002 0.226377 0.634 4288258733
0.0066551599 0.226377 0.634 4288258733
0.0083537102 0.22601999 0.63300002 4288456112
0.0100786 0.226377 0.634 4288324779
0.0117346 0.22530501 0.63099998 4288389543
0.0134808 0.226019 0.63300002 4288784301
0.0152138 0.226375 0.634 4288784555
0.016925501 0.226375 0.634 4288324518
0.018578401 0.22566 0.63200003 4288258725
0.0202526 0.225302 0.63099998 4288061346
0.021921299 0.224944 0.63 4288456104
0.0235472 0.22422899 0.62800002 4288127141
0.0252828 0.224586 0.62900001 4287996069
0.0270238 0.224942 0.63 4288193193
0.028633401 0.224227 0.62800002 4288325295
0.0301838 0.22315399 0.625 4287798949
0.0318201 0.22279599 0.62400001 4287931051
0.033558302 0.223152 0.625 4288193707
0.0351891 0.222794 0.62400001 4288062376
0.036873501 0.222793 0.62400001 4287930790
0.0384962 0.222434 0.62300003 4287733411
0.0402424 0.22279 0.62400001 4287667363
0.041859601 0.222432 0.62300003 4287666849
0.043611102 0.22278699 0.62400001 4287667365
0.0452228 0.22242901 0.62300003 4287338398
0.0469044 0.222427 0.62300003 4287798435
0.048508 0.222069 0.62199998 4287732897
0.050106101 0.22171 0.62099999 4287469725
0.051698901 0.221352 0.62 4287469725
0.053372201 0.22135 0.62 4287600797
0.054956801 0.220991 0.61900002 4287535004
0.0566274 0.22099 0.61900002 4287469725
0.058297999 0.22098801 0.61900002 4287272346
0.060162298 0.2217 0.62099999 4287140760
0.061838198 0.221699 0.62099999 4287140760
0.063514099 0.221697 0.62099999 4287141274
0.064874999 0.220624 0.61799997 4287009688
0.066435002 0.220265 0.61699998 4287733156
0.067768902 0.219193 0.61400002 4287733672
0.069538802 0.219548 0.61500001 4287996844
0.071429901 0.22025999 0.61699998 4288128430
0.073213302 0.220615 0.61799997 4287931051
0.074880898 0.220613 0.61799997 4287931305
0.076300703 0.219898 0.616 4287799204
0.078089401 0.22025301 0.61699998 4287799719
0.079624899 0.21989401 0.616 4287602086
0.081286997 0.219892 0.616 4287865258
0.083083697 0.220248 0.61699998 4287404707
0.084611103 0.219889 0.616 4287536293
0.086273097 0.219887 0.616 4287469986
0.087649599 0.219172 0.61400002 4287733672
0.0894517 0.21952701 0.61500001 4287273122
0.0912591 0.219882 0.616 4287338914
0.092770196 0.219524 0.61500001 4286746778
0.0944295 0.219522 0.61500001 4286483089
0.096244998 0.219877 0.616 4285299070
0.098224796 0.22059 0.61799997 4284640879
0.100054 0.220945 0.61900002 4286219141
0.10156 0.220587 0.61799997 4286416520
0.103227 0.220586 0.61799997 4285561465
0.104724 0.220227 0.61699998 4285759358
0.106389 0.220226 0.61699998 4284904565
0.107879 0.219868 0.616 4285168766
0.109363 0.21951 0.61500001 4285102719
0.110842 0.219152 0.61400002 4285892235
0.112682 0.21950801 0.61500001 4286813084
0.114341 0.21950699 0.61500001 4286154640
0.116566 0.220577 0.61799997 4285364608
0.118042 0.22022 0.61699998 4286219403
0.120095 0.22093301 0.61900002 4284969591
0.121176 0.219862 0.616 4284574833
0.123037 0.220219 0.61699998 4286746516
0.124298 0.219504 0.61500001 4287075481
0.125958 0.219504 0.61500001 4286680984
0.127203 0.21878999 0.61299998 4286878363
0.12927701 0.219504 0.61500001 4286812570
0.131363 0.220218 0.61699998 4286746261
0.133891 0.221646 0.62099999 4286746002
0.138405 0.22628701 0.634 4286548109
0.201499 0.317662 0.88999999 4287075481
0.206193 0.32123199 0.89999998 4286944410
0.209319 0.32230499 0.903 4286812570
0.21246099 0.323378 0.90600002 4286944156
0.21538199 0.324094 0.90799999 4286812570
0.21831401 0.32481101 0.91000003 4286746261
0.22101501 0.32517001 0.91100001 4286548109
0.22347599 0.32517299 0.91100001 4287007890
0.22593699 0.32517701 0.91100001 4286876300
0.22839899 0.32518101 0.91100001 4285559664
0.231114 0.32554099 0.912 4287334529
0.234091 0.32626 0.91399997 4287334268
0.23682 0.326621 0.91500002 4287466108
0.239816 0.32734001 0.917 4287268470
0.242824 0.32806 0.91900003 4287334263
0.245309 0.32806501 0.91900003 4287005298
0.248064 0.328428 0.92000002 4287729020
0.250824 0.32879201 0.921 4287465848
0.253591 0.329155 0.92199999 4287268469
0.25580701 0.32880601 0.921 4287400058
0.258019 0.32845601 0.92000002 4287136886
0.26050901 0.328464 0.92000002 4287596930
0.262999 0.32847199 0.92000002 4287268470
0.266067 0.32919499 0.92199999 4287334516
0.26885501 0.329561 0.92299998 4287663219
0.271355 0.32957101 0.92299998 4287531887
0.27385601 0.32958099 0.92299998 4287860598
0.276357 0.32959101 0.92299998 4287861112
0.27946201 0.33031699 0.92500001 4287663734
0.28136 0.32961401 0.92299998 4287729531
0.28417 0.329983 0.92400002 4287597947
0.28729701 0.33070999 0.926 4287795326
0.290122 0.33107999 0.92699999 4287795324
0.29200599 0.33037901 0.92500001 4287137396
0.29419801 0.33003601 0.92400002 4287662967
0.296707 0.33004999 0.92400002 4287399795
0.29954001 0.330423 0.92500001 4287466102
0.302053 0.33043799 0.92500001 4287663481
0.30489501 0.33081201 0.926 4287729527
0.30708101 0.33047101 0.92500001 4287729526
0.30993 0.33084601 0.926 4287729527
0.312112 0.330506 0.92500001 4287663733
0.31496799 0.33088201 0.926 4287598198
0.317489 0.330901 0.926 4287400821
0.320701 0.33163601 0.92799997 4287466359
0.322532 0.330942 0.926 4287334773
0.32470399 0.330605 0.92500001 4287334773
0.32758 0.33098501 0.926 4287532154
0.330461 0.33136499 0.92699999 4287400568
0.33263099 0.33103001 0.926 4287597947
0.33479601 0.33069599 0.92500001 4287466106
0.337322 0.33072099 0.92500001 4287531899
0.33984801 0.330746 0.92500001 4287334775
0.34274599 0.33113 0.926 4287400566
0.34490499 0.33079901 0.92500001 4287203189
0.34743601 0.33082601 0.92500001 4287334001
0.349967 0.33085501 0.92500001 4287399795
0.35249999 0.33088401 0.92500001 4287136883
0.35503399 0.33091301 0.92500001 4287466361
0.35756901 0.330944 0.92500001 4287334775
0.360495 0.33133301 0.926 4287334775
0.36303601 0.331366 0.926 4287137396
0.365578 0.33139899 0.926 4287400055
0.368121 0.331433 0.926 4287334262
0.37026599 0.33111 0.92500001 4287465334
0.37281001 0.33114499 0.92500001 4286939758
0.37494999 0.33082399 0.92400002 4286873965
0.37749401 0.33086199 0.92400002 4286873964
0.37921801 0.33018401 0.92199999 4286874222
0.38134599 0.32986501 0.921 4286742636
0.38347 0.32954699 0.92000002 4286808431
0.38600999 0.329588 0.92000002 4286677359
0.38897401 0.329988 0.921 4287071601
0.391945 0.33039001 0.92199999 4287137394
0.39492401 0.33079201 0.92299998 4286545259
0.39704901 0.330479 0.92199999 4286545259
0.400038 0.33088401 0.92299998 4286808429
0.40259701 0.33093101 0.92299998 4286611050
0.405159 0.33098 0.92299998 4287203442
0.40728101 0.33067 0.92199999 4287071854
0.40984401 0.33072099 0.92199999 4287203442
0.41196099 0.330414 0.921 4287532407
0.414076 0.33010799 0.92000002 4287663740
0.41664001 0.33016199 0.92000002 4287400827
0.41920599 0.33021599 0.92000002 4287532668
0.42223299 0.330632 0.921 4287401082
0.42526799 0.33104801 0.92199999 4287270008
0.427847 0.33110699 0.92199999 4287401335
0.43089601 0.33152601 0.92299998 4287598714
0.433483 0.33158699 0.92299998 4287598461
0.43607199 0.33164901 0.92299998 4287270010
0.438189 0.33135399 0.92199999 4287072631
0.441259 0.33177799 0.92299998 4287006838
0.44433701 0.33220401 0.92400002 4287006838
0.446457 0.33191201 0.92299998 4286678640
0.44857299 0.331622 0.92199999 4286020971
0.45068699 0.331332 0.921 4284769631
0.45378301 0.33176401 0.92199999 4286876534
0.45639199 0.331837 0.92199999 4287600003
0.458009 0.331191 0.92000002 4287599489
0.460118 0.33090699 0.91900003 4287665282
0.463231 0.33134401 0.92000002 4287467903
0.46635401 0.33178401 0.921 4287533443
0.46948501 0.33222401 0.92199999 4287336064
0.472114 0.332306 0.92199999 4287269747
0.475261 0.33274999 0.92299998 4287532919
0.478935 0.33355701 0.92500001 4287466359
0.481062 0.33328301 0.92400002 4287467128
0.48266301 0.33265001 0.92199999 4287927938
0.48425701 0.33201799 0.92000002 4287598975
0.48796001 0.332831 0.92199999 4287073146
0.491678 0.33364701 0.92400002 4287336064
0.49380699 0.333381 0.92299998 4287204480
0.496472 0.33347699 0.92299998 4287532929
-0.19877 0.32163101 0.90799999 4287138432
-0.19696701 0.322694 0.91100001 4287335552
-0.194722 0.32304701 0.912 4287730055
-0.192472 0.32340199 0.91299999 4287532676
-0.190424 0.32411 0.91500002 4287466369
-0.188365 0.324819 0.917 4287400576
-0.186093 0.325174 0.91799998 4287992199
-0.18341599 0.32482001 0.917 4288781714
-0.180942 0.324821 0.917 4288058245
-0.17827301 0.32446799 0.91600001 4288650382
-0.176377 0.32553101 0.91900003 4288058759
-0.17370801 0.325178 0.91799998 4287861894
-0.171418 0.32553399 0.91900003 4287664515
-0.168571 0.32482699 0.917 4287993734
-0.166097 0.32482901 0.917 4288256905
-0.163266 0.32412201 0.91500002 4287665283
-0.160446 0.32341501 0.91299999 4286744443
-0.15815499 0.323771 0.91399997 4285099112
-0.15603 0.32448199 0.91600001 4289046946
-0.15372699 0.32483801 0.917 4288718485
-0.151088 0.32448599 0.91600001 4288849305
-0.148454 0.32413399 0.91500002 4288980122
-0.14630499 0.32484499 0.917 4288980122
-0.143831 0.32484701 0.917 4289177503
-0.14151099 0.32520401 0.91799998 4289243296
-0.138731 0.324498 0.91600001 4288914590
-0.13626 0.32450101 0.91600001 4289046431
-0.133643 0.32414901 0.91500002 4289441189
-0.13103101 0.32379699 0.91399997 4289441189
-0.128424 0.32344601 0.91299999 4287533707
-0.12568501 0.32273999 0.91100001 4285823349
-0.122956 0.322034 0.90899998 4285429108
-0.120504 0.32203701 0.90899998 4285165936
-0.118441 0.32310301 0.912 4285626485
-0.11598 0.32310501 0.912 4286481793
-0.113644 0.32346299 0.91299999 4287731600
-0.111302 0.32381999 0.91399997 4288388501
-0.108836 0.32382199 0.91399997 4289045915
-0.106486 0.32418001 0.91500002 4289243549
-0.103789 0.32347399 0.91299999 4289243549
-0.101325 0.323477 0.91299999 4289505951
-0.098970003 0.323834 0.91399997 4289505951
-0.096714601 0.324545 0.91600001 4289374619
-0.094242699 0.32454801 0.91600001 4289440410
-0.091570303 0.32384199 0.91399997 4289505689
-0.089006104 0.32348999 0.91299999 4289571482
-0.086447299 0.32313901 0.912 4289374105
-0.083985999 0.32314101 0.912 4289045654
-0.081435204 0.32279 0.91100001 4289176987
-0.0789764 0.32279199 0.91100001 4289242780
-0.076601602 0.323149 0.912 4289111193
-0.0744652 0.32456899 0.91600001 4289176987
-0.072307199 0.32598799 0.92000002 4289242780
-0.070051603 0.32705399 0.92299998 4289176472
-0.067852996 0.328473 0.92699999 4289242265
-0.065421298 0.32883 0.92799997 4289242265
-0.062848501 0.32847801 0.92699999 4289308058
-0.059890501 0.32600001 0.92000002 4289308312
-0.057094999 0.32422999 0.91500002 4289242265
-0.053669799 0.318562 0.89899999 4289242519
-0.031345598 0.227144 0.64099997 4288257954
-0.028829699 0.221121 0.62400001 4291416536
-0.026884001 0.218996 0.61799997 4289246912
-0.0252156 0.218997 0.61799997 4288918461
-0.023508999 0.21864399 0.61699998 4288720567
-0.021843201 0.21864501 0.61699998 4288720567
-0.0201774 0.21864501 0.61699998 4288457395
-0.018541601 0.219 0.61799997 4288523189
-0.016873 0.219001 0.61799997 4288062898
-0.0151799 0.218647 0.61699998 4287405222
-0.0134921 0.21829399 0.616 4287338914
-0.0118289 0.21829399 0.616 4287469984
-0.0101822 0.218649 0.61699998 4287536032
-0.0085163303 0.218649 0.61699998 4287798690
-0.00685042 0.218649 0.61699998 4286878102
-0.0051676999 0.217941 0.61500001 4287404191
-0.00350147 0.21758699 0.61400002 4287535777
-0.00184665 0.217941 0.61500001 4287667363
-0.000186433 0.21829601 0.616 4287798951
0.00147439 0.217941 0.61500001 4287667366
0.0031298201 0.21758699 0.61400002 4287733673
0.0047720498 0.216878 0.61199999 4288061870
0.0064349598 0.217232 0.61299998 4287535526
0.0080768699 0.216877 0.61199999 4287469986
0.0097292801 0.216877 0.61199999 4287206814
0.0113817 0.216877 0.61199999 4287272091
0.0130767 0.217585 0.61400002 4287469470
0.0147584 0.217939 0.61500001 4287338139
0.016392199 0.217584 0.61400002 4286811540
0.018020499 0.21722899 0.61299998 4286745747
0.0196114 0.216519 0.611 4287469470
0.021295801 0.21687301 0.61199999 4287535265
0.0228731 0.21616299 0.61000001 4286746263
0.024640599 0.217226 0.61299998 4287272605
0.026252599 0.21686999 0.61199999 4286812570
0.0278593 0.216515 0.611 4287009949
0.029412201 0.21580499 0.60900003 4286944924
0.031107301 0.216158 0.61000001 4286747031
0.0328614 0.216866 0.61199999 4286483858
0.0345136 0.216865 0.61199999 4286155407
0.036106601 0.216509 0.611 4287273374
0.037817799 0.21686199 0.61199999 4286483858
0.039469801 0.21686099 0.61199999 4286747031
0.0410547 0.21650501 0.611 4286746777
0.0426341 0.216149 0.61000001 4287075742
0.044353198 0.216502 0.611 4287207328
0.046077799 0.216855 0.61199999 4287602086
0.047651701 0.216499 0.611 4286812570
0.049220201 0.216143 0.61000001 4287404446
0.050949998 0.21649601 0.611 4287469725
0.052857399 0.217557 0.61400002 4287074965
0.054514602 0.217556 0.61400002 4285956486
0.056263201 0.21790799 0.61500001 4286614416
0.058017202 0.218261 0.616 4286943381
0.0597765 0.218613 0.61699998 4284509299
0.061142899 0.217548 0.61400002 4286154124
0.062697597 0.21719199 0.61299998 4287469984
0.064141899 0.216482 0.611 4286877847
0.065575399 0.215771 0.60900003 4287535777
0.066998102 0.21506099 0.60699999 4287667363
0.068636097 0.215059 0.60699999 4287667879
0.070621401 0.21612 0.61000001 4287470754
0.0723859 0.216473 0.611 4287799465
0.074155703 0.21682499 0.61199999 4287799719
0.075559303 0.216114 0.61000001 4287668133
0.077331796 0.21646699 0.611 4287405221
0.078980401 0.216465 0.611 4287207842
0.080628999 0.216463 0.611 4287536807
0.082277603 0.216461 0.611 4287470500
0.083926097 0.21645901 0.611 4287404707
0.085574597 0.21645799 0.611 4286614677
0.087223098 0.216456 0.611 4283719785
0.088871598 0.216454 0.611 4285693061
0.090816401 0.217161 0.61299998 4284443508
0.092319302 0.216805 0.61199999 4284114027
0.094123997 0.21715701 0.61299998 4285035384
0.095777802 0.21715599 0.61299998 4284047975
0.097749501 0.21786299 0.61500001 4286153348
0.099570401 0.218215 0.616 4285692283
0.101232 0.21821401 0.616 4284573802
0.102727 0.217858 0.61500001 4284310630
0.104556 0.218211 0.616 4283521628
0.105873 0.217501 0.61400002 4285101175
0.107705 0.21785399 0.61500001 4284247150
0.108831 0.21679001 0.61199999 4285234305
0.110482 0.21678901 0.61199999 4285562756
0.112133 0.21678799 0.61199999 4286154893
0.113784 0.216787 0.61199999 4285956231
0.115813 0.217494 0.61400002 4284443247
0.117661 0.217848 0.61500001 4285627521
0.119514 0.218201 0.616 4283258973
0.120783 0.217492 0.61400002 4283982694
0.12224 0.21713699 0.61299998 4287272346
0.12349 0.216428 0.611 4286878102
0.124934 0.216074 0.61000001 4287206298
0.12637299 0.215719 0.60900003 4287140507
0.128647 0.216782 0.61199999 4287074714
0.130724 0.21749 0.61400002 4287206298
0.13281301 0.218199 0.616 4287271832
0.136222 0.22103301 0.62400001 4287140246
0.14298899 0.22917999 0.64700001 4287337625
0.197649 0.30923599 0.87300003 4287075481
0.20412999 0.315613 0.89099997 4286878102
0.20769501 0.317386 0.89600003 4287206298
0.211052 0.318804 0.89999998 4287140507
0.213957 0.31951499 0.90200001 4287074714
0.21687201 0.320225 0.90399998 4287206298
0.219557 0.320582 0.90499997 4287271832
0.222001 0.32058501 0.90499997 4286877074
0.224446 0.32058799 0.90499997 4286416007
0.227392 0.3213 0.90700001 4285889152
0.230349 0.32201201 0.90899998 4286875009
0.233318 0.32272401 0.91100001 4287072117
0.23629799 0.32343701 0.91299999 4287005557
0.238765 0.323441 0.91299999 4287465597
0.24123301 0.32344601 0.91299999 4287531390
0.24370199 0.32345101 0.91299999 4287202936
0.24643999 0.32381099 0.91399997 4287400313
0.24891099 0.32381701 0.91399997 4287597435
0.25165901 0.32417801 0.91500002 4287071093
0.254134 0.324184 0.91500002 4287136633
0.25689 0.32454601 0.91600001 4287070840
0.259368 0.32455301 0.91600001 4287268472
0.26156199 0.32420701 0.91500002 4287136369
0.26461601 0.32492301 0.917 4286874210
0.26739001 0.325286 0.91799998 4287202152
0.269876 0.32529601 0.91799998 4287005803
0.27206501 0.32495099 0.917 4287005804
0.274849 0.325315 0.91799998 4287400562
0.277639 0.32567999 0.91900003 4287269235
0.279825 0.32533601 0.91799998 4287466359
0.28292799 0.326056 0.92000002 4287466361
0.28604299 0.32677701 0.92199999 4287532154
0.28885701 0.327144 0.92299998 4287334775
0.29073 0.32644799 0.921 4287531641
0.29259199 0.32575199 0.91900003 4287662713
0.29540801 0.326121 0.92000002 4287794553
0.29822999 0.32649001 0.921 4287399795
0.301384 0.327214 0.92299998 4287202415
0.30389199 0.32722899 0.92299998 4287466355
0.306068 0.32689101 0.92199999 4287597940
0.30824 0.32655299 0.921 4287466355
0.31040701 0.32621601 0.92000002 4287597940
0.31324899 0.326588 0.921 4287663991
0.316098 0.32696101 0.92199999 4287466614
0.31860799 0.32697999 0.92199999 4287729531
0.32077 0.32664499 0.921 4287729533
0.32292801 0.32631099 0.92000002 4287861633
0.325789 0.32668701 0.921 4287203703
0.32865599 0.32706299 0.92199999 4287466875
0.33117101 0.32708499 0.92199999 4287663740
0.333325 0.32675299 0.921 4287597954
0.335839 0.32677701 0.921 4287795073
0.33835399 0.32680199 0.921 4287466361
0.34086999 0.32682699 0.921 4287334775
0.34338701 0.32685301 0.921 4287465848
0.34590599 0.32687899 0.921 4287729274
0.348425 0.32690701 0.921 4287268727
0.351327 0.32729 0.92199999 4286873969
0.353852 0.327319 0.92199999 4287202934
0.35599199 0.32699299 0.921 4287071603
0.35851699 0.32702401 0.921 4287005810
0.361435 0.32741001 0.92199999 4286808172
0.36436 0.32779801 0.92299998 4287202676
0.36689499 0.327831 0.92299998 4287005297
0.36862999 0.32715401 0.921 4287267955
0.37116301 0.327189 0.921 4287004783
0.37329 0.32686901 0.92000002 4287071083
0.37582299 0.326906 0.92000002 4287267692
0.37794501 0.326588 0.91900003 4287004520
0.38006401 0.326271 0.91799998 4286741603
0.38217899 0.32595399 0.917 4287005289
0.38429099 0.32563901 0.91600001 4286808425
0.387665 0.32639101 0.91799998 4286742632
0.39020199 0.326433 0.91799998 4287137390
0.39274099 0.32647601 0.91799998 4286808172
0.395282 0.32652 0.91799998 4286939757
0.398258 0.32692099 0.91900003 4286874218
0.400805 0.326967 0.91900003 4286348133
0.40291601 0.32665801 0.91799998 4286479972
0.40546501 0.32670701 0.91799998 4286808935
0.40801501 0.326756 0.91799998 4286480223
0.410568 0.32680601 0.91799998 4286479972
0.41222301 0.32614601 0.91600001 4286940015
0.41477501 0.32619801 0.91600001 4286808431
0.41732901 0.32625201 0.91600001 4286479980
0.420802 0.32701901 0.91799998 4286743152
0.42336601 0.327075 0.91799998 4286808943
0.425933 0.327133 0.91799998 4286480233
0.42850199 0.327191 0.91799998 4287006577
0.43107301 0.32725099 0.91799998 4287137908
0.43364799 0.32731199 0.91799998 4287269494
0.43622401 0.32737401 0.91799998 4286875250
0.439282 0.32779399 0.91900003 4287072629
0.44234699 0.32821599 0.92000002 4287335803
0.444938 0.328282 0.92000002 4287270010
0.446558 0.327636 0.91799998 4286086764
0.44914901 0.327705 0.91799998 4284902490
0.45174301 0.327775 0.91799998 4284770904
0.45384401 0.32748899 0.917 4287271808
0.45594299 0.327205 0.91600001 4287600003
0.459041 0.327636 0.917 4287599490
0.46265 0.32842699 0.91900003 4287467904
0.465262 0.328504 0.91900003 4287731075
0.46787801 0.328583 0.91900003 4287730308
0.470496 0.32866299 0.91900003 4287533679
0.47363299 0.32910299 0.92000002 4287204964
0.47677901 0.32954401 0.921 4287335277
0.479413 0.329629 0.921 4287203693
0.480481 0.32864201 0.91799998 4287927677
0.48311499 0.32872999 0.91799998 4288256652
0.48628101 0.32917801 0.91900003 4287730561
0.48998901 0.32998601 0.921 4287270271
0.49157301 0.329362 0.91900003 4287270525
0.494762 0.32981601 0.92000002 4287730561
0.49904299 0.33098799 0.92299998 4287993480
-0.198331 0.318477 0.90600002 4286678921
-0.19610199 0.31882799 0.90700001 4286218361
-0.193868 0.31918001 0.90799999 4287336328
-0.19162799 0.31953201 0.90899998 4287993229
-0.189592 0.32023501 0.91100001 4287137920
-0.18775 0.32128999 0.91399997 4286874748
-0.18508101 0.32093999 0.91299999 4288650904
-0.18261699 0.320941 0.91299999 4287795595
-0.179956 0.32058999 0.912 4288256146
-0.177301 0.32023999 0.91100001 4288980383
-0.175227 0.32094401 0.91299999 4288322453
-0.172574 0.32059401 0.912 4286940800
-0.170114 0.32059601 0.912 4287270788
-0.16746899 0.32024601 0.91100001 4288323476
-0.165012 0.32024801 0.91100001 4287862925
-0.16219699 0.319547 0.90899998 4286020981
-0.15974499 0.31954899 0.90899998 4286086775
-0.157812 0.32060599 0.912 4288389530
-0.15552101 0.320959 0.91299999 4289113253
-0.15305801 0.32096201 0.91299999 4288914845
-0.15009999 0.31990901 0.91000003 4289112222
-0.147808 0.320263 0.91100001 4289440673
-0.145509 0.320618 0.912 4289638054
-0.143049 0.32062 0.912 4289769385
-0.140589 0.32062301 0.912 4289506727
-0.137977 0.320274 0.91100001 4289440934
-0.135519 0.32027701 0.91100001 4289375141
-0.13291501 0.31992799 0.91000003 4289572520
-0.13045999 0.319931 0.91000003 4289309864
-0.12772299 0.319231 0.90799999 4289177509
-0.124998 0.31852999 0.90600002 4288980900
-0.122418 0.31818199 0.90499997 4288191898
-0.119844 0.31783301 0.90399998 4288455069
-0.117405 0.31783599 0.90399998 4288257176
-0.114838 0.317487 0.903 4285099112
-0.112526 0.31784201 0.90399998 4286085491
-0.11033 0.31854799 0.90600002 4285493609
-0.108005 0.318903 0.90700001 4287861896
-0.105674 0.31925699 0.90799999 4288848789
-0.103224 0.31926 0.90799999 4289111961
-0.100662 0.31891099 0.90700001 4288979861
-0.098323099 0.31926599 0.90799999 4288979861
-0.096083902 0.31997201 0.91000003 4289111445
-0.093731001 0.32032701 0.91100001 4288979861
-0.091072097 0.319626 0.90899998 4289111445
-0.0884239 0.31892601 0.90700001 4289111445
-0.0858813 0.31857699 0.90600002 4289111447
-0.083436102 0.31858 0.90600002 4289308826
-0.080901399 0.31823099 0.90499997 4289308826
-0.078718901 0.31928799 0.90799999 4289374619
-0.076352097 0.31964201 0.90899998 4289177240
-0.074305102 0.321403 0.91399997 4289308572
-0.072152399 0.32281199 0.91799998 4289243033
-0.069902197 0.32387 0.921 4289111447
-0.067708999 0.325279 0.92500001 4289440412
-0.064648099 0.32246801 0.917 4289308826
-0.061833698 0.320712 0.912 4289243801
-0.058720801 0.317197 0.90200001 4289309340
-0.055474602 0.312628 0.889 4289375135
-0.033128899 0.22577301 0.64200002 4288849567
-0.030466501 0.219092 0.62300003 4283455068
-0.028414899 0.21628 0.61500001 4290759644
-0.026536999 0.214522 0.61000001 4289115846
-0.024890101 0.214523 0.61000001 4288590016
-0.0232432 0.214524 0.61000001 4288721087
-0.02149 0.21347 0.60699999 4288457915
-0.019818399 0.213119 0.60600001 4288128950
-0.018182199 0.21312 0.60600001 4288326072
-0.016628001 0.214176 0.60900003 4288260537
-0.014959 0.213825 0.60799998 4286155161
-0.0133393 0.214177 0.60900003 4287733419
-0.011695 0.214177 0.60900003 4287273122
-0.0100671 0.21452899 0.61000001 4285956747
-0.0084062302 0.214178 0.60900003 4285956747
-0.0067618601 0.214178 0.60900003 4284444022
-0.0051090801 0.213827 0.60799998 4284772473
-0.0034787999 0.214531 0.61000001 4284640887
-0.00182871 0.21417899 0.60900003 4284904059
-0.00018401899 0.213827 0.60799998 4287470500
0.00145287 0.21312401 0.60600001 4287273122
0.0030942601 0.213476 0.60699999 4287536293
0.0047098501 0.21242 0.60399997 4287404708
0.0063617202 0.21312299 0.60600001 4287667880
0.0079715997 0.21242 0.60399997 4287733672
0.0096342703 0.21312299 0.60600001 4288193709
0.0112519 0.212771 0.60500002 4287798435
0.0129707 0.214177 0.60900003 4286811795
0.014639 0.21452799 0.61000001 4285035384
0.016286001 0.21452799 0.61000001 4287074967
0.0179036 0.214175 0.60900003 4288258472
0.0194837 0.213471 0.60699999 4287469470
0.021122601 0.21347 0.60699999 4288061095
0.0226865 0.21276601 0.60500002 4286614163
0.024440501 0.21382 0.60799998 4287798949
0.026039099 0.213468 0.60699999 4286417296
0.0276323 0.21311501 0.60600001 4287470754
0.0292201 0.212762 0.60500002 4287536547
0.030904399 0.213113 0.60600001 4287536547
0.0326479 0.213815 0.60799998 4287141788
0.0342892 0.21381401 0.60799998 4287141788
0.035989702 0.214164 0.60900003 4286351758
0.0375719 0.213811 0.60799998 4287733411
0.0392133 0.21381 0.60799998 4287470239
0.040787298 0.213456 0.60699999 4287601570
0.042355999 0.213103 0.60600001 4287470754
0.044064399 0.21345299 0.60699999 4286286226
0.0457782 0.21380401 0.60799998 4287602086
0.047341298 0.21345 0.60699999 4286220434
0.049060401 0.2138 0.60799998 4287667363
0.050868299 0.21450201 0.61000001 4283719524
0.052772999 0.215555 0.61299998 4283521631
0.054161102 0.214498 0.61000001 4282469457
0.056081999 0.215551 0.61299998 4282008904
0.057736401 0.21555001 0.61299998 4286483344
0.059584599 0.216251 0.61500001 4283719783
