# .PCD v0.7 - Point Cloud Data file format
VERSION 0.7
FIELDS x y z rgb
SIZE 4 4 4 4
TYPE F F F U
COUNT 1 1 1 1
WIDTH 1045
HEIGHT 1
VIEWPOINT 0 0 0 1 0 0 0
POINTS 1045
DATA ascii
0.395051 -0.054618899 0.61000001 4287202677
0.39751399 -0.0547284 0.611 4287729023
0.39933401 -0.0547488 0.611 4287794813
0.401158 -0.054769699 0.611 4287861113
0.40364599 -0.0548806 0.61199999 4287400562
0.40548199 -0.0549022 0.61199999 4287927165
0.40732199 -0.054924302 0.61199999 4287532154
0.40916601 -0.054946698 0.61199999 4287663740
0.41034299 -0.054879799 0.611 4287400568
0.41151899 -0.054813199 0.61000001 4287532154
0.413371 -0.054836899 0.61000001 4287334773
0.41522801 -0.054861002 0.61000001 4287400308
0.418457 -0.055065501 0.61199999 4287531634
0.42032999 -0.055090599 0.61199999 4287399278
0.42082801 -0.054935999 0.61000001 4287334001
0.422012 -0.054871801 0.60900003 4287399541
-0.19886699 -0.055420302 0.60799998 4288452229
-0.197558 -0.0555139 0.60900003 4288189058
-0.195922 -0.0555165 0.60900003 4289505432
-0.193967 -0.055427901 0.60799998 4289900190
-0.192018 -0.0553394 0.60699999 4289703068
-0.190387 -0.055342 0.60699999 4289637275
-0.188757 -0.055344801 0.60699999 4289637530
-0.187435 -0.055438701 0.60799998 4289505689
-0.186413 -0.055624001 0.61000001 4289505434
-0.18477499 -0.055626798 0.61000001 4288189574
-0.183136 -0.055629801 0.61000001 4287333749
-0.1812 -0.055541601 0.60900003 4288320130
-0.179564 -0.0555446 0.60900003 4289636503
-0.177929 -0.055547699 0.60900003 4289834396
-0.17600299 -0.055459499 0.60799998 4289834909
-0.17408299 -0.0553714 0.60699999 4289834909
-0.171884 -0.055192199 0.60500002 4289505944
-0.17054 -0.055286601 0.60600001 4289703323
-0.169191 -0.055381 0.60699999 4289900189
-0.167836 -0.055475499 0.60799998 4289965982
-0.165929 -0.055387601 0.60699999 4289570710
-0.164297 -0.055390898 0.60699999 4289241745
-0.16293401 -0.055485498 0.60799998 4288452229
-0.16156501 -0.055580098 0.60900003 4287925885
-0.15992799 -0.055583499 0.60900003 4287729021
-0.158291 -0.055586901 0.60900003 4287466108
-0.156654 -0.055590399 0.60900003 4287729278
-0.154762 -0.0555025 0.60799998 4288189829
-0.153127 -0.055505998 0.60799998 4289111186
-0.151243 -0.055418201 0.60699999 4289440151
-0.149857 -0.055512901 0.60799998 4289703323
-0.148221 -0.0555165 0.60799998 4289440151
-0.146586 -0.055520002 0.60799998 4289637018
-0.144711 -0.0554322 0.60699999 4289768863
-0.143078 -0.055435698 0.60699999 4289176467
-0.14167801 -0.0555305 0.60799998 4289044881
-0.14050201 -0.055716801 0.61000001 4288189572
-0.138405 -0.0555376 0.60799998 4287926400
-0.137218 -0.055723902 0.61000001 4287728507
-0.135353 -0.055636 0.60900003 4287399542
-0.13393299 -0.055730999 0.61000001 4288649609
-0.13164 -0.055460401 0.60699999 4289373331
-0.130005 -0.055463899 0.60699999 4289176466
-0.12837 -0.055467401 0.60699999 4289308565
-0.127361 -0.055745099 0.61000001 4289176724
-0.12592299 -0.055840001 0.611 4289110931
-0.124073 -0.055752099 0.61000001 4288913807
-0.122228 -0.0556642 0.60900003 4288584587
-0.120388 -0.055576298 0.60799998 4288321670
-0.118749 -0.0555798 0.60799998 4288321670
-0.117302 -0.055674601 0.60900003 4288190590
-0.11585 -0.055769499 0.61000001 4288584587
-0.114579 -0.055955801 0.61199999 4287926659
-0.112928 -0.055959199 0.61199999 4287663234
-0.111277 -0.0559626 0.61199999 4287597441
-0.109088 -0.0556916 0.60900003 4287991942
-0.107444 -0.055695001 0.60900003 4288057734
-0.105627 -0.055606801 0.60799998 4288123781
-0.104669 -0.055976 0.61199999 4287663487
-0.103017 -0.0559792 0.61199999 4287926659
-0.101199 -0.055891 0.611 4288255624
-0.0992226 -0.055711299 0.60900003 4287794819
-0.097417302 -0.055622999 0.60799998 4287597440
-0.095774703 -0.055626102 0.60799998 4287597441
-0.094286703 -0.055720702 0.60900003 4287465601
-0.092793003 -0.055815302 0.61000001 4287465601
-0.091144301 -0.055818301 0.61000001 4288321417
-0.089495301 -0.0558213 0.61000001 4288781968
-0.087990098 -0.055915799 0.611 4288650382
-0.086055398 -0.0557357 0.60900003 4289045138
-0.084269799 -0.055647101 0.60799998 4289110931
-0.0826253 -0.05565 0.60799998 4289308312
-0.080847397 -0.0555613 0.60699999 4289242519
-0.079466201 -0.055747099 0.60900003 4289900195
-0.077946097 -0.055841401 0.61000001 4289505437
-0.077045701 -0.0563934 0.616 4289834403
-0.075867899 -0.0567623 0.62 4289702563
-0.0752666 -0.057588901 0.62900001 4289702817
-0.073212899 -0.057316899 0.62599999 4289900196
-0.069918402 -0.056037601 0.61199999 4289966242
-0.067368902 -0.0553075 0.60399997 4289900195
-0.0615975 -0.051830102 0.56599998 4289703077
-0.057305299 -0.049451299 0.54000002 4289047460
-0.054601502 -0.048354398 0.528 4289112252
-0.0525668 -0.0478069 0.52200001 4284178788
-0.051054399 -0.047717199 0.52100003 4284374873
-0.0495473 -0.047627501 0.51999998 4284177235
-0.048138 -0.047629301 0.51999998 4284177233
-0.046638701 -0.047539499 0.51899999 4283585096
-0.0451447 -0.0474496 0.51800001 4283452996
-0.043655898 -0.047359601 0.51700002 4283452481
-0.042172398 -0.047269601 0.51599997 4283452735
-0.0406942 -0.047179598 0.51499999 4283057717
-0.039450299 -0.047364298 0.51700002 4283320889
-0.0381217 -0.047457401 0.51800001 4282926131
-0.036787599 -0.047550399 0.51899999 4282794285
-0.035311598 -0.047460198 0.51800001 4283057457
-0.033971898 -0.0475531 0.51899999 4282794031
-0.032563802 -0.0475544 0.51899999 4282925617
-0.0310957 -0.047463998 0.51800001 4283122482
-0.029632799 -0.0473735 0.51700002 4282859824
-0.028284499 -0.0474663 0.51800001 4283254068
-0.0268787 -0.047467399 0.51800001 4283122482
-0.0255221 -0.047559999 0.51899999 4282925617
-0.024067 -0.047469299 0.51800001 4283254836
-0.022573501 -0.047286998 0.51599997 4282926131
-0.0211729 -0.047287799 0.51599997 4283123510
-0.019772099 -0.0472886 0.51599997 4282991925
-0.0184069 -0.047380999 0.51700002 4282991925
-0.0169705 -0.047290001 0.51599997 4282926132
-0.0155998 -0.047382299 0.51700002 4282926132
-0.0141686 -0.047291301 0.51599997 4282926132
-0.0127676 -0.0472918 0.51599997 4283123510
-0.0113445 -0.047200602 0.51499999 4283122997
-0.0099654496 -0.047292698 0.51599997 4283386169
-0.0085643204 -0.047293101 0.51599997 4283057204
-0.0071492698 -0.047201701 0.51499999 4282925618
-0.0057508 -0.047201999 0.51499999 4282991411
-0.0043607601 -0.047293801 0.51599997 4282794031
-0.0029652701 -0.047385599 0.51700002 4282859824
-0.00156132 -0.0473857 0.51700002 4282794799
-0.000157066 -0.047294099 0.51599997 4282597419
0.00124417 -0.047294099 0.51599997 4282860077
0.0026402799 -0.0472023 0.51499999 4282860077
0.0040387898 -0.0472022 0.51499999 4282991663
0.0054372898 -0.047201999 0.51499999 4282925356
0.0068490398 -0.047293399 0.51599997 4282860078
0.0082182297 -0.047109801 0.514 4282860078
0.0095952302 -0.047017802 0.51300001 4282860078
0.0110096 -0.047109101 0.514 4283254835
0.0124052 -0.047108602 0.514 4283056942
0.0138545 -0.047291402 0.51599997 4283254321
0.0152555 -0.047290798 0.51599997 4283123249
0.016624199 -0.0471985 0.51499999 4282860078
0.0179873 -0.047106199 0.514 4282794545
0.0193827 -0.047105499 0.514 4282794545
0.020818399 -0.047196399 0.51499999 4282662960
0.0222164 -0.047195502 0.51499999 4282794546
0.023660099 -0.047286302 0.51599997 4282926132
0.0249635 -0.047102001 0.514 4282926132
0.026409701 -0.0471927 0.51499999 4283057720
0.0277534 -0.0471 0.514 4282926132
0.029204899 -0.047190499 0.51499999 4282926131
0.030542901 -0.047097702 0.514 4282991924
0.031999599 -0.0471882 0.51499999 4282992178
0.033267099 -0.047003701 0.51300001 4282333994
0.034658801 -0.047002401 0.51300001 4282333994
0.035980102 -0.046909399 0.51200002 4282860338
0.037514798 -0.047091201 0.514 4282860338
0.038757499 -0.046906602 0.51200002 4282860592
0.040224299 -0.046996702 0.51300001 4282925870
0.041534301 -0.046903498 0.51200002 4282925095
0.042922501 -0.046902001 0.51200002 4283057193
0.044224001 -0.046808701 0.51099998 4282991402
0.04552 -0.046715502 0.50999999 4283124016
0.046994399 -0.0468053 0.51099998 4282860845
0.048284601 -0.046712 0.50999999 4282663470
0.049666699 -0.046710201 0.50999999 4282531886
0.051048599 -0.046708301 0.50999999 4282729265
0.052533198 -0.046797998 0.51099998 4282597679
0.054128502 -0.0469792 0.51300001 4282794545
0.0554098 -0.046885699 0.51200002 4282990896
0.056796499 -0.046883602 0.51200002 4282596138
0.057955801 -0.046698399 0.50999999 4282859310
0.059452999 -0.046787899 0.51099998 4282991150
0.060836501 -0.046785802 0.51099998 4282794031
0.062098 -0.046691999 0.50999999 4282728752
0.063353904 -0.0465983 0.509 4282926384
0.064477101 -0.0464129 0.50700003 4282860338
0.0659789 -0.046502199 0.50800002 4282728752
0.067485899 -0.046591401 0.509 4282859824
0.0688629 -0.046589099 0.509 4282925617
0.070515603 -0.046769802 0.51099998 4282925617
0.071756899 -0.046675801 0.50999999 4282597167
0.073136002 -0.046673398 0.50999999 4282926132
0.074514799 -0.046670899 0.50999999 4282860338
0.076042302 -0.0467599 0.51099998 4282268201
0.077120498 -0.046574298 0.509 4282530859
0.078341901 -0.046480201 0.50800002 4282859824
0.079714604 -0.046477601 0.50800002 4282925103
0.081406303 -0.046658002 0.50999999 4282727725
0.082783997 -0.046655402 0.50999999 4283057203
0.0839964 -0.0465612 0.509 4282859824
0.085371003 -0.046558499 0.509 4282728238
0.086745404 -0.046555799 0.509 4282794031
0.088292703 -0.046644501 0.50999999 4282794031
0.089493498 -0.0465503 0.509 4282596652
0.090688802 -0.046456002 0.50800002 4282596652
0.091878399 -0.0463618 0.50700003 4282531373
0.092878498 -0.046176098 0.505 4282662959
0.094240896 -0.046173301 0.505 4282334507
0.095603101 -0.046170499 0.505 4282597166
0.0973491 -0.046350501 0.50700003 4282991924
0.098521598 -0.046256199 0.50599998 4282662959
0.100083 -0.046344701 0.50700003 4282662959
0.10145 -0.046341799 0.50700003 4282465580
0.102817 -0.046338901 0.50700003 4282597420
0.103977 -0.046244599 0.50599998 4282597420
0.105133 -0.046150301 0.505 4282465834
0.106493 -0.046147399 0.505 4282267687
0.108281 -0.0463272 0.50700003 4282728238
0.110295 -0.046598401 0.50999999 4282662445
0.11364 -0.0474177 0.51899999 4282662445
0.119248 -0.0491505 0.53799999 4282662445
0.12697899 -0.0517052 0.56599998 4282728238
0.133724 -0.053802799 0.58899999 4282465066
0.13783699 -0.054804102 0.60000002 4282728238
0.139452 -0.0548007 0.60000002 4282662445
0.141536 -0.054979801 0.602 4282136615
0.142919 -0.054885 0.60100001 4282531886
0.144776 -0.054972801 0.602 4282466093
0.146152 -0.054878101 0.60100001 4288059012
0.147523 -0.0547833 0.60000002 4288125833
0.149634 -0.0549624 0.602 4288256905
0.151504 -0.055050299 0.60299999 4288651663
0.153126 -0.055046901 0.60299999 4288585101
0.15448999 -0.054952201 0.602 4288716687
0.156368 -0.055039998 0.60299999 4288256138
0.15851299 -0.0552192 0.60500002 4288321931
0.160404 -0.055307101 0.60600001 4288585103
0.16203301 -0.0553037 0.60600001 4288716435
0.163662 -0.0553004 0.60600001 4289111708
0.16529 -0.055297099 0.60600001 4288848791
0.16636799 -0.0551113 0.60399997 4288652178
0.167991 -0.055108 0.60399997 4288520078
0.16989399 -0.055196099 0.60500002 4288783250
0.17151999 -0.055192899 0.60500002 4288454799
0.17343099 -0.055280901 0.60600001 4288191627
0.175348 -0.055369001 0.60699999 4288388492
0.177562 -0.055548299 0.60900003 4288717457
0.178903 -0.055454101 0.60799998 4288453770
0.18024001 -0.055359799 0.60699999 4288256391
0.18187 -0.055356901 0.60699999 4288453770
0.18350001 -0.055353899 0.60699999 4288387977
0.185436 -0.055442199 0.60799998 4288322184
0.18676101 -0.055348199 0.60699999 4288256391
0.188081 -0.055254199 0.60600001 4288124803
0.18939599 -0.055160299 0.60500002 4287861633
0.191652 -0.055339999 0.60699999 4287993219
0.193601 -0.055428501 0.60799998 4288059012
0.195234 -0.055425901 0.60799998 4287927171
0.19654401 -0.055332199 0.60699999 4287598208
0.19784801 -0.055238601 0.60600001 4287466622
0.19980501 -0.0553273 0.60699999 4287598208
0.201435 -0.055325001 0.60699999 4287400829
0.202732 -0.0552315 0.60600001 4287466622
0.20435999 -0.055229299 0.60600001 4287531899
0.206328 -0.0553183 0.60699999 4287202934
0.208644 -0.055498499 0.60900003 4287268727
0.21062601 -0.055587601 0.61000001 4287861119
0.212266 -0.0555856 0.61000001 4287663740
0.21390601 -0.055583801 0.61000001 4287597947
0.214839 -0.055399701 0.60799998 4287729531
0.21611799 -0.0553069 0.60699999 4287729531
0.218109 -0.0553964 0.60799998 4287663738
0.22010501 -0.055486001 0.60900003 4287992703
0.221379 -0.055393402 0.60799998 4287795579
0.22264799 -0.055300899 0.60699999 4287598200
0.224281 -0.055299599 0.60699999 4287795579
0.226659 -0.055480599 0.60900003 4287466355
0.228673 -0.055570599 0.61000001 4287269233
0.229938 -0.055478498 0.60900003 4287663734
0.231958 -0.055568699 0.61000001 4287466101
0.233601 -0.055567902 0.61000001 4287663481
0.23524401 -0.055567101 0.61000001 4288123778
0.23649999 -0.055475399 0.60900003 4287860606
0.23853201 -0.055566002 0.61000001 4287992192
0.239783 -0.055474501 0.60900003 4287794813
0.24102899 -0.055383101 0.60799998 4287729533
0.241871 -0.0552008 0.60600001 4287532154
0.243908 -0.055291802 0.60699999 4287795324
0.245142 -0.0552007 0.60600001 4287729531
0.247592 -0.055383101 0.60799998 4287729531
0.248824 -0.0552922 0.60699999 4287729020
0.25170201 -0.055565901 0.61000001 4287531641
0.25251999 -0.0553842 0.60799998 4287662713
0.25416401 -0.0553849 0.60799998 4287531641
0.25580901 -0.055385601 0.60799998 4287794813
0.25745401 -0.055386499 0.60799998 4288058496
0.25909999 -0.055387601 0.60799998 4287401325
0.260746 -0.0553887 0.60799998 4287861623
0.263257 -0.055572201 0.61000001 4287663991
0.26404101 -0.055391502 0.60799998 4287466614
0.26525301 -0.055301901 0.60699999 4288124544
0.26646 -0.055212501 0.60600001 4287138163
0.268105 -0.055214401 0.60600001 4288585870
0.27019599 -0.0553075 0.60699999 4288717456
0.27139699 -0.0552186 0.60600001 4288718485
0.272594 -0.055129699 0.60500002 4288652438
0.27469301 -0.055223301 0.60600001 4288652441
0.27725399 -0.055408198 0.60799998 4288718748
0.279369 -0.055502102 0.60900003 4288521369
0.28148901 -0.055596199 0.61000001 4288521369
0.28315201 -0.055599298 0.61000001 4288323990
0.28435001 -0.0555114 0.60900003 4288718233
0.28554201 -0.055423699 0.60799998 4288850071
0.28720301 -0.055427302 0.60799998 4288389006
0.28933999 -0.0555223 0.60900003 4288717457
0.291006 -0.055526301 0.60900003 4288322184
0.292193 -0.0554392 0.60799998 4288190598
0.294341 -0.055534702 0.60900003 4288584842
0.296011 -0.055539198 0.60900003 4288716428
0.29719299 -0.055452701 0.60799998 4287993733
0.29787901 -0.055275202 0.60600001 4288520077
0.29954401 -0.055280201 0.60600001 4288454798
0.301707 -0.055376701 0.60699999 4287797383
0.30437699 -0.055564601 0.60900003 4288717971
0.30555201 -0.055479001 0.60799998 4288323213
0.307228 -0.055484898 0.60799998 4288257934
0.30839801 -0.055399701 0.60699999 4288323213
0.31109601 -0.055588499 0.60900003 4288717457
0.31277999 -0.055594999 0.60900003 4288716687
0.31446499 -0.055601701 0.60900003 4288124291
0.31511301 -0.055426002 0.60699999 4287729527
0.316796 -0.055433098 0.60699999 4287663733
0.31848001 -0.0554404 0.60699999 4287730039
0.320694 -0.055539299 0.60799998 4287335026
0.32238501 -0.0555471 0.60799998 4287729784
0.323544 -0.055463798 0.60699999 4287664505
0.3247 -0.055380601 0.60600001 4287861625
0.32639101 -0.055389099 0.60600001 4288124797
0.32862499 -0.055489201 0.60699999 4287729526
0.33032301 -0.055498201 0.60699999 4287597940
0.33202201 -0.055507399 0.60699999 4288058492
0.33317399 -0.055425402 0.60600001 4287466614
0.33598 -0.0556181 0.60799998 4288058496
0.33824399 -0.055719499 0.60900003 4287926912
0.339957 -0.055729799 0.60900003 4288190343
0.34055099 -0.055557299 0.60699999 4288059527
0.34282699 -0.0556596 0.60799998 4288059526
0.34511101 -0.055762202 0.60900003 4287795840
0.346264 -0.055681899 0.60799998 4287664252
0.34741399 -0.055601899 0.60699999 4287927426
0.35086101 -0.055888601 0.61000001 4288190598
0.353172 -0.055992499 0.611 4287861380
0.35490999 -0.056005001 0.611 4288321931
0.35548401 -0.055834401 0.60900003 4287795326
0.35722101 -0.0558475 0.60900003 4287729531
0.35778299 -0.055677399 0.60699999 4287466359
0.358336 -0.0555075 0.60500002 4287203187
0.36126101 -0.055704899 0.60699999 4286414187
0.3642 -0.055902701 0.60900003 4281282847
0.36535099 -0.055825502 0.60799998 4285691492
0.36649901 -0.0557485 0.60699999 4288454798
0.36885801 -0.055855598 0.60799998 4288321670
0.371225 -0.055962998 0.60900003 4287926912
0.373602 -0.056070801 0.61000001 4287466106
0.37475601 -0.055995099 0.60900003 4287926657
0.37652701 -0.056011699 0.60900003 4287992193
0.37767899 -0.055936601 0.60799998 4287729531
0.38070199 -0.056137901 0.61000001 4287926912
0.38185799 -0.056063499 0.60900003 4287795326
0.384902 -0.0562656 0.611 4287597692
0.38606301 -0.056191899 0.61000001 4287400055
0.38785699 -0.0562107 0.61000001 4287663227
0.38965401 -0.0562298 0.61000001 4287794299
0.39209801 -0.056341499 0.611 4287925886
0.393262 -0.056269102 0.61000001 4287662714
0.39442301 -0.056197099 0.60900003 4287465851
0.39623401 -0.0562177 0.60900003 4287334262
0.39804801 -0.0562388 0.60900003 4287597435
0.40052301 -0.0563526 0.61000001 4287597947
0.402349 -0.056374401 0.61000001 4287597945
0.40417901 -0.0563967 0.61000001 4287663740
0.40601301 -0.056419399 0.61000001 4287597947
0.40852001 -0.056535099 0.611 4287532154
0.41036701 -0.056558698 0.611 4287663740
0.41086799 -0.056397501 0.60900003 4287532154
0.41204 -0.056329299 0.60799998 4287598200
0.414572 -0.056446798 0.60900003 4287597687
0.417115 -0.0565648 0.61000001 4287729273
0.418982 -0.056590602 0.61000001 4287729020
0.41947401 -0.056431301 0.60799998 4287861119
0.420652 -0.056365099 0.60699999 4287597947
-0.198864 -0.057061601 0.60799998 4287991678
-0.19788 -0.0572518 0.61000001 4287794299
-0.19559801 -0.057066701 0.60799998 4287860607
-0.193965 -0.057069302 0.60799998 4289176724
-0.19201501 -0.0569782 0.60699999 4289834654
-0.190385 -0.0569809 0.60699999 4289768861
-0.18844301 -0.056889798 0.60600001 4289637275
-0.187124 -0.0569865 0.60699999 4289768861
-0.185799 -0.057083301 0.60799998 4289439125
-0.184772 -0.057274099 0.61000001 4288517769
-0.18313301 -0.057277098 0.61000001 4287465335
-0.181197 -0.057186201 0.60900003 4287728507
-0.17897201 -0.057001501 0.60699999 4288584329
-0.177633 -0.0570985 0.60799998 4289637017
-0.176 -0.0571017 0.60799998 4289834909
-0.17408 -0.057011001 0.60699999 4289769116
-0.17216501 -0.056920301 0.60600001 4289637530
-0.17053699 -0.056923501 0.60600001 4289768861
-0.16918699 -0.057020798 0.60699999 4289900189
-0.167556 -0.057024099 0.60699999 4289768603
-0.165378 -0.0568396 0.60500002 4289110160
-0.163753 -0.056842901 0.60500002 4287465334
-0.162663 -0.057034299 0.60699999 4287662713
-0.161827 -0.0573196 0.61000001 4290097054
-0.16018701 -0.057323098 0.61000001 4289110674
-0.158547 -0.0573266 0.61000001 4289439898
-0.15665001 -0.057236101 0.60900003 4289176724
-0.15475801 -0.0571457 0.60799998 4289637275
-0.152872 -0.057055201 0.60699999 4289440151
-0.15148801 -0.0571528 0.60799998 4289637530
-0.15009999 -0.057250399 0.60900003 4289703323
-0.148461 -0.057253901 0.60900003 4289571737
-0.14658201 -0.057163499 0.60799998 4289637275
-0.14470799 -0.057073101 0.60699999 4289571484
-0.14331 -0.057170801 0.60799998 4289768606
-0.14190701 -0.0572684 0.60900003 4289308053
-0.140268 -0.057271998 0.60900003 4289439639
-0.138629 -0.057275701 0.60900003 4289176467
-0.137439 -0.057467401 0.611 4289636504
-0.135794 -0.057471 0.611 4288386183
-0.133929 -0.057380602 0.61000001 4286742128
-0.131853 -0.057196099 0.60799998 4287005300
-0.13000099 -0.057105701 0.60699999 4288584842
-0.12857699 -0.0572033 0.60799998 4289242772
-0.127148 -0.057301 0.60900003 4289440151
-0.125507 -0.057304598 0.60900003 4289374358
-0.123663 -0.0572141 0.60799998 4289374358
-0.121823 -0.057123601 0.60699999 4289374358
-0.120187 -0.0571272 0.60699999 4289440149
-0.11855 -0.057130702 0.60699999 4289440149
-0.116914 -0.0571342 0.60699999 4288913807
-0.115467 -0.057231899 0.60799998 4288979600
-0.114201 -0.057423599 0.61000001 4288913300
-0.112555 -0.057427101 0.61000001 4288715922
-0.11091 -0.057430599 0.61000001 4289110679
-0.108905 -0.057245702 0.60799998 4288649871
-0.107264 -0.0572492 0.60799998 4288649355
-0.10545 -0.057158399 0.60699999 4288452230
-0.104153 -0.057350099 0.60900003 4288386437
-0.102677 -0.057447601 0.61000001 4288057986
-0.100699 -0.057262599 0.60799998 4288189574
-0.098730601 -0.057077501 0.60600001 4288123784
-0.096933402 -0.0569865 0.60500002 4287992198
-0.095456503 -0.057083901 0.60600001 4287926405
-0.093973897 -0.057181299 0.60699999 4287794820
-0.092485599 -0.0572786 0.60799998 4288057992
-0.090991803 -0.057376001 0.60900003 4288452746
-0.089492299 -0.057473298 0.61000001 4288321158
-0.087843098 -0.057476301 0.61000001 4288123778
-0.086052403 -0.057385098 0.60900003 4288057985
-0.084266901 -0.057293899 0.60799998 4288123778
-0.082622401 -0.057296801 0.60799998 4287794813
-0.080977798 -0.0572997 0.60799998 4287663734
-0.079332903 -0.057302501 0.60799998 4287794813
-0.077815503 -0.057399601 0.60900003 4287465851
-0.076542698 -0.0576851 0.61199999 4287399805
-0.075253397 -0.057970598 0.61500001 4287465598
-0.074665599 -0.058821701 0.62400001 4287597184
-0.072742403 -0.058635902 0.62199998 4287465851
-0.070258602 -0.0579786 0.61500001 4288189829
-0.067589499 -0.057132602 0.60600001 4288650382
-0.062139399 -0.053835198 0.57099998 4289374112
-0.057621501 -0.051197499 0.54299998 4288981406
-0.0547029 -0.049879599 0.52899998 4289112505
-0.0525649 -0.049221501 0.52200001 4284507753
-0.050954498 -0.049034901 0.51999998 4284243803
-0.0495454 -0.049036801 0.51999998 4284177494
-0.048043601 -0.048944298 0.51899999 4283782477
-0.046636902 -0.048946101 0.51899999 4283584582
-0.045230102 -0.048947901 0.51899999 4283584067
-0.0437387 -0.048855301 0.51800001 4283518274
-0.0422526 -0.048762601 0.51700002 4282992182
-0.0407717 -0.048669901 0.51599997 4283320889
-0.039525099 -0.048860099 0.51800001 4283386682
-0.0381939 -0.048955899 0.51899999 4282860338
-0.036786199 -0.0489574 0.51899999 4283122996
-0.035242099 -0.0487701 0.51700002 4283122996
-0.0339051 -0.048865799 0.51800001 4282860338
-0.032437101 -0.048772801 0.51700002 4282925617
-0.031034401 -0.048774 0.51700002 4283057203
-0.0296316 -0.0487752 0.51700002 4282991410
-0.0282834 -0.048870701 0.51800001 4282859824
-0.026877699 -0.0488718 0.51800001 4283057203
-0.025570299 -0.0490615 0.51999998 4282794546
-0.024065999 -0.048873801 0.51800001 4282662959
-0.022572599 -0.048686098 0.51599997 4282728752
-0.021131 -0.048592601 0.51499999 4282729010
-0.019771401 -0.048687801 0.51599997 4282926132
-0.018406199 -0.0487829 0.51700002 4283123511
-0.0170027 -0.0487836 0.51700002 4282663217
-0.015629301 -0.048878599 0.51800001 4282860341
-0.0141955 -0.0487848 0.51700002 4283123513
-0.0127918 -0.0487854 0.51700002 4283189304
-0.0113441 -0.048597101 0.51499999 4283123511
-0.00996505 -0.048691899 0.51599997 4283123511
-0.0085639805 -0.048692301 0.51599997 4283057204
-0.0071628699 -0.048692599 0.51599997 4283188789
-0.0057617398 -0.048692901 0.51599997 4283057203
-0.00436904 -0.048787501 0.51700002 4283320375
-0.0029708899 -0.048882 0.51800001 4283189303
-0.00156126 -0.048787698 0.51700002 4283057971
-0.00015706 -0.0486934 0.51599997 4283057971
0.00124412 -0.0486934 0.51599997 4282926385
0.00265043 -0.048787601 0.51700002 4282860592
0.0040543098 -0.048787501 0.51700002 4282860078
0.0054476298 -0.048692901 0.51599997 4282860078
0.0068487599 -0.0486927 0.51599997 4282662445
0.0082338899 -0.048597999 0.51499999 4282925617
0.0096322503 -0.048597701 0.51499999 4282728492
0.0110306 -0.048597299 0.51499999 4282991664
0.0124289 -0.048596799 0.51499999 4282991149
0.013854 -0.048690598 0.51599997 4283320114
0.0152549 -0.048689999 0.51599997 4282860078
0.016623501 -0.048595 0.51499999 4282991410
0.0180216 -0.0485943 0.51499999 4282794545
0.019419599 -0.048593599 0.51499999 4282662959
0.0208984 -0.048781499 0.51700002 4282597166
0.0222586 -0.048686299 0.51599997 4283057204
0.023659199 -0.048685402 0.51599997 4282991411
0.0249625 -0.048495699 0.514 4283188538
0.026357399 -0.0484947 0.514 4282925880
0.027752301 -0.048493601 0.514 4282860341
0.029260401 -0.048681099 0.51599997 4283057718
0.030719999 -0.048774298 0.51700002 4282729265
0.0320605 -0.0486787 0.51599997 4282531627
0.033330701 -0.048488799 0.514 4282992178
0.034657501 -0.048393101 0.51300001 4282662959
0.036049001 -0.0483917 0.51300001 4282728752
0.037513401 -0.048484601 0.514 4282991924
0.0388317 -0.048388802 0.51300001 4282794545
0.040222801 -0.0483873 0.51300001 4282860078
0.041613799 -0.048385698 0.51300001 4283122219
0.043004699 -0.0483841 0.51300001 4283254058
0.044395499 -0.048382401 0.51300001 4283057195
0.0456076 -0.048191998 0.51099998 4282860330
0.0470846 -0.048284601 0.51200002 4282466086
0.0484722 -0.048282798 0.51200002 4282926897
0.049957 -0.0483752 0.51300001 4282795056
0.0512469 -0.048278999 0.51200002 4282992435
0.052634001 -0.048277099 0.51200002 4282926131
0.054126501 -0.0483694 0.51300001 4282860338
0.0554078 -0.048273001 0.51200002 4282859564
0.056794502 -0.048271 0.51200002 4282661931
0.058067299 -0.048174601 0.51099998 4282727724
0.059567198 -0.048266701 0.51200002 4283188529
0.060953401 -0.0482645 0.51200002 4283123249
0.062217601 -0.048168 0.51099998 4282860592
0.063476197 -0.048071399 0.50999999 4282597420
0.064602003 -0.047880601 0.50800002 4282991664
0.066106401 -0.0479725 0.509 4282794031
0.0674835 -0.047970202 0.509 4282531373
0.068995804 -0.048062 0.50999999 4282465066
0.070513196 -0.048153799 0.51099998 4282728239
0.0718951 -0.048151299 0.51099998 4282531374
0.0732769 -0.0481488 0.51099998 4282991925
0.074512303 -0.048052002 0.50999999 4282860592
0.075891003 -0.048049401 0.50999999 4282859824
0.077269398 -0.048046801 0.50999999 4282727978
0.078647703 -0.048044201 0.50999999 4282925357
0.079554997 -0.0477589 0.50700003 4283188529
0.081243999 -0.047944602 0.509 4282793517
0.0827813 -0.048036098 0.50999999 4282267687
0.084158704 -0.048033401 0.50999999 4282728238
0.085368298 -0.047936399 0.509 4282465066
0.0865722 -0.0478395 0.50800002 4282728238
0.088116802 -0.047930799 0.509 4282530859
0.0893149 -0.0478338 0.50800002 4282662445
0.090507403 -0.047736801 0.50700003 4282794031
0.092056803 -0.047828101 0.50800002 4282925617
0.093243502 -0.047731102 0.50700003 4282400300
0.094424702 -0.047634002 0.50599998 4282466093
0.0957895 -0.0476311 0.50599998 4282729263
0.097346202 -0.047722299 0.50700003 4282662959
0.098518603 -0.0476253 0.50599998 4282662959
0.10008 -0.047716402 0.50700003 4282728752
0.101447 -0.0477135 0.50700003 4282729006
0.102814 -0.047710501 0.50700003 4282597420
0.10418 -0.047707502 0.50700003 4282465833
0.105338 -0.047610398 0.50599998 4282465833
0.106912 -0.0477015 0.50700003 4282729005
0.108492 -0.047792599 0.50800002 4282662699
0.110725 -0.048165798 0.51200002 4282662184
0.114293 -0.049103498 0.52200001 4282727977
0.120132 -0.0509816 0.542 4282662184
0.127424 -0.0534238 0.56800002 4282662699
0.134175 -0.0555836 0.59100002 4282728491
0.137603 -0.056332398 0.59899998 4282465320
0.139448 -0.0564229 0.60000002 4282727977
0.141063 -0.056419302 0.60000002 4282136869
0.143153 -0.056603801 0.602 4282400298
0.14477199 -0.056600198 0.602 4282992435
0.146878 -0.056784701 0.60399997 4287598461
0.148011 -0.056593101 0.602 4287993733
0.15012801 -0.0567776 0.60399997 4288059526
0.151501 -0.056680001 0.60299999 4288585101
0.153376 -0.0567705 0.60399997 4288059273
0.154487 -0.056579001 0.602 4288454031
0.156883 -0.0568575 0.60500002 4288584849
0.15851 -0.056853998 0.60500002 4288584849
0.160401 -0.056944501 0.60600001 4288651410
0.162029 -0.056941099 0.60600001 4288782998
0.16365799 -0.056937698 0.60600001 4288782998
0.16556001 -0.0570282 0.60699999 4288388754
0.167191 -0.0570249 0.60699999 4288257166
0.16854399 -0.056927599 0.60600001 4288454545
0.17017201 -0.056924298 0.60600001 4287862662
0.17208301 -0.057014901 0.60699999 4288125833
0.17399999 -0.057105601 0.60799998 4288060040
0.175923 -0.0571963 0.60900003 4288652178
0.178142 -0.057381 0.611 4288652178
0.1789 -0.057096101 0.60799998 4288915350
0.18053401 -0.057092998 0.60799998 4288783764
0.181567 -0.0569022 0.60600001 4288783763
0.1838 -0.0570869 0.60799998 4288586384
0.185128 -0.056990098 0.60699999 4288323212
0.186451 -0.0568933 0.60600001 4288323212
0.18745799 -0.0567027 0.60399997 4288125833
0.188767 -0.056605998 0.60299999 4287994247
0.19070201 -0.056697201 0.60399997 4288256905
0.19328 -0.056976099 0.60699999 4288191113
0.194911 -0.056973401 0.60699999 4288256906
0.196541 -0.056970902 0.60699999 4288321931
0.197845 -0.056874499 0.60600001 4288321931
0.19947299 -0.056871999 0.60600001 4288059273
0.20076901 -0.056775801 0.60500002 4288322445
0.20206 -0.056679599 0.60399997 4288256652
0.20401999 -0.0567712 0.60500002 4288322445
0.20564599 -0.056768999 0.60500002 4288387722
0.207957 -0.0569546 0.60699999 4288256391
0.209934 -0.057046399 0.60799998 4288124291
0.211916 -0.057138201 0.60900003 4288519049
0.213553 -0.057136301 0.60900003 4288124291
0.21518999 -0.057134502 0.60900003 4288321670
0.216472 -0.0570389 0.60799998 4288058498
0.218107 -0.057037301 0.60799998 4287664254
0.219742 -0.057035699 0.60799998 4287861633
0.22101399 -0.056940399 0.60699999 4287795838
0.222647 -0.056938998 0.60699999 4287466873
0.22391 -0.056843899 0.60600001 4287532152
0.22628599 -0.057030302 0.60799998 4287729786
0.227548 -0.0569354 0.60699999 4287334773
0.229182 -0.056934401 0.60699999 4287532407
0.23081601 -0.0569335 0.60699999 4287532152
0.232834 -0.057026502 0.60799998 4287137396
0.23447201 -0.057025801 0.60799998 4287400568
0.236111 -0.057025101 0.60799998 4287268727
0.23774999 -0.057024602 0.60799998 4287334520
0.239389 -0.0570243 0.60799998 4287334775
0.24102899 -0.057023998 0.60799998 4287663740
0.242669 -0.057023801 0.60799998 4287795326
0.24431001 -0.057023801 0.60799998 4287268982
0.245142 -0.056836199 0.60600001 4287400568
0.24718501 -0.056930199 0.60699999 4287663740
0.24841499 -0.056836698 0.60600001 4287729020
0.25128999 -0.057118502 0.60900003 4287597434
0.25252101 -0.057025298 0.60799998 4287794813
0.25416499 -0.057025999 0.60799998 4287794813
0.255389 -0.056933001 0.60699999 4287860860
0.25703099 -0.056933999 0.60699999 4287861372
0.25867501 -0.056935102 0.60699999 4287795577
0.26031899 -0.056936301 0.60699999 4287598200
0.26325801 -0.057219099 0.61000001 4287663991
0.264911 -0.057220601 0.61000001 4287927165
0.26612899 -0.0571284 0.60900003 4287663738
0.266462 -0.056848802 0.60600001 4287334773
0.268549 -0.056944501 0.60699999 4288519563
0.27019799 -0.056946602 0.60699999 4289045907
0.27139899 -0.056855101 0.60600001 4288652178
0.27259699 -0.056763601 0.60500002 4288257166
0.27424201 -0.056766201 0.60500002 4288520854
0.27680099 -0.0569566 0.60699999 4288652955
0.27937201 -0.057147101 0.60900003 4288389783
0.28149301 -0.057243999 0.61000001 4288521369
0.28315601 -0.0572473 0.61000001 4288192404
0.28435299 -0.057156801 0.60900003 4288389268
0.285546 -0.057066601 0.60799998 4288520852
0.286735 -0.0569764 0.60699999 4288389520
0.28791901 -0.056886502 0.60600001 4288783249
0.28957701 -0.056890599 0.60600001 4288322698
0.29171601 -0.056988701 0.60699999 4288125320
0.29386199 -0.057087101 0.60799998 4288059012
0.29552901 -0.057091799 0.60799998 4288782221
0.296709 -0.057002701 0.60699999 4288453770
0.29739201 -0.056819901 0.60500002 4288454284
0.29954901 -0.056919001 0.60600001 4288520077
0.30171299 -0.057018399 0.60699999 4288389006
0.30388299 -0.057117999 0.60799998 4288060041
0.30505601 -0.057029899 0.60699999 4288125319
0.30672899 -0.057036001 0.60699999 4288323213
0.30789599 -0.0569482 0.60600001 4288191627
0.310592 -0.057142701 0.60799998 4288257420
0.312273 -0.057149399 0.60799998 4288256654
0.31343901 -0.057062302 0.60699999 4288190598
0.314601 -0.056975398 0.60600001 4286940270
0.31628099 -0.0569827 0.60600001 4287861370
0.318488 -0.0570844 0.60699999 4287664246
0.32070199 -0.057186201 0.60799998 4287137647
0.322393 -0.0571943 0.60799998 4287729786
0.32408601 -0.0572026 0.60799998 4287137898
0.32524499 -0.057117 0.60699999 4287466361
0.32640001 -0.057031699 0.60600001 4287203187
0.32863399 -0.0571348 0.60699999 4288124289
0.329788 -0.057050001 0.60600001 4287795066
0.33148399 -0.0570595 0.60600001 4287795066
0.33318299 -0.057069201 0.60600001 4287203187
0.33599001 -0.057267599 0.60799998 4287860866
0.338254 -0.057372201 0.60900003 4288190084
0.33940899 -0.057288501 0.60799998 4288322184
0.340561 -0.0572052 0.60699999 4288453770
0.34283799 -0.057310499 0.60799998 4287927424
0.34512201 -0.057416201 0.60900003 4288190596
0.34627599 -0.0573336 0.60799998 4287861886
0.347426 -0.057251301 0.60699999 4287269747
0.34972301 -0.0573579 0.60799998 4287993472
0.35145101 -0.057370398 0.60799998 4287993219
0.353181 -0.057383299 0.60799998 4287664768
0.354913 -0.057396401 0.60799998 4287993219
0.356648 -0.057409901 0.60799998 4287663740
0.357207 -0.057234801 0.60600001 4287466361
0.35835001 -0.057154302 0.60500002 4287400568
0.36008501 -0.057168599 0.60500002 4286282348
0.36301899 -0.057372302 0.60699999 4284506451
0.36416399 -0.0572928 0.60600001 4281876013
0.36590999 -0.0573081 0.60600001 4288389520
0.36765999 -0.057323702 0.60600001 4288257419
0.370022 -0.057434302 0.60699999 4287664768
0.37178001 -0.057450701 0.60699999 4287861119
0.37415799 -0.057562102 0.60799998 4287926912
0.375925 -0.0575791 0.60799998 4287663485
0.37769699 -0.057596602 0.60799998 4287729278
0.379471 -0.057614401 0.60799998 4287663485
0.380622 -0.057537701 0.60699999 4287400062
0.38303101 -0.057650998 0.60799998 4287466108
0.38418299 -0.057575099 0.60699999 4287005297
0.38660401 -0.057689201 0.60799998 4287334262
0.38839701 -0.0577088 0.60799998 4287202676
0.39147601 -0.057918798 0.61000001 4287269486
0.393282 -0.057939298 0.61000001 4287400568
0.393796 -0.0577702 0.60799998 4287004797
0.39495301 -0.057696398 0.60699999 4286873717
0.39676201 -0.057718001 0.60699999 4287400568
0.39857501 -0.057739999 0.60699999 4287334775
0.401052 -0.057857599 0.60799998 4287334775
0.403539 -0.057975698 0.60900003 4287532154
0.40470499 -0.057903901 0.60799998 4287466106
0.40653801 -0.057927702 0.60799998 4287466361
0.40837601 -0.057951901 0.60799998 4287926912
0.40954399 -0.057881199 0.60699999 4287597947
0.41071001 -0.057810899 0.60600001 4287532407
0.41255501 -0.057836398 0.60600001 4287269484
0.41508901 -0.057957899 0.60699999 4287466102
0.41763499 -0.058079898 0.60799998 4287466108
0.41812101 -0.057915799 0.60600001 4287466361
0.41998601 -0.057943199 0.60600001 4287466361
-0.199176 -0.0583142 0.60399997 4288649608
-0.197226 -0.0582201 0.60299999 4289768089
-0.195931 -0.0583192 0.60399997 4289439638
-0.194308 -0.0583218 0.60399997 4289637018
-0.192367 -0.0582279 0.60299999 4289571225
-0.190431 -0.058134101 0.602 4289571227
-0.189127 -0.058233399 0.60299999 4289044881
-0.187197 -0.0581397 0.602 4288650123
-0.18588801 -0.058239099 0.60299999 4288583815
-0.18457399 -0.058338702 0.60399997 4288057471
-0.183254 -0.058438201 0.60500002 4287859578
-0.181329 -0.058344699 0.60399997 4287465334
-0.179111 -0.058154602 0.602 4289110159
-0.17719901 -0.058061101 0.60100001 4289637017
-0.175877 -0.0581608 0.602 4289900190
-0.174839 -0.058357298 0.60399997 4289637017
-0.173216 -0.058360498 0.60399997 4289834396
-0.171878 -0.0584604 0.60500002 4289702811
-0.169971 -0.0583671 0.60399997 4289505432
-0.168348 -0.058370501 0.60399997 4289571225
-0.166449 -0.058277201 0.60299999 4289044883
-0.16428199 -0.058087401 0.60100001 4288254851
-0.162937 -0.058187399 0.602 4287794300
-0.161855 -0.058384199 0.60399997 4287465334
-0.160762 -0.058581099 0.60600001 4288255364
-0.159133 -0.058584601 0.60600001 4288716428
-0.157244 -0.058491498 0.60500002 4289769116
-0.155618 -0.058495 0.60500002 4289637530
-0.15373699 -0.058401901 0.60399997 4289637530
-0.152364 -0.058502302 0.60500002 4289966495
-0.150737 -0.0585059 0.60500002 4289769116
-0.14935701 -0.0586062 0.60600001 4289440151
-0.14748301 -0.058513202 0.60500002 4289505431
-0.145614 -0.058420099 0.60399997 4289571225
-0.143751 -0.058327001 0.60299999 4288386953
-0.142364 -0.058427401 0.60399997 4288057988
-0.140738 -0.0584311 0.60399997 4288254851
-0.13934299 -0.0585315 0.60500002 4288189572
-0.137715 -0.0585352 0.60500002 4287729278
-0.136536 -0.058732498 0.60699999 4287926657
-0.134679 -0.0586394 0.60600001 4287795071
-0.132828 -0.058546301 0.60500002 4288189831
-0.130982 -0.058453199 0.60399997 4289045138
-0.129355 -0.058456901 0.60399997 4289571737
-0.127728 -0.058460601 0.60399997 4289637530
-0.126101 -0.0584643 0.60399997 4289571735
-0.124679 -0.0585647 0.60500002 4289440149
-0.123252 -0.058665201 0.60600001 4289505942
-0.121418 -0.058572002 0.60500002 4289308565
-0.119787 -0.0585756 0.60500002 4289571735
-0.117961 -0.058482401 0.60399997 4289308565
-0.116525 -0.058582801 0.60500002 4289308565
-0.114893 -0.0585864 0.60500002 4289308565
-0.113449 -0.0586868 0.60600001 4289045138
-0.111998 -0.058787201 0.60699999 4289439896
-0.110543 -0.058887601 0.60799998 4289242772
-0.108723 -0.058794301 0.60699999 4289044880
-0.106908 -0.058700901 0.60600001 4288386436
-0.105272 -0.058704399 0.60600001 4287727992
-0.103808 -0.058804698 0.60699999 4288582787
-0.102 -0.058711201 0.60600001 4288978060
-0.100033 -0.058520801 0.60399997 4288649355
-0.098238498 -0.0584273 0.60299999 4288189574
-0.096449502 -0.058333699 0.602 4287992452
-0.094980702 -0.058433801 0.60299999 4287794819
-0.093506299 -0.058534 0.60399997 4287729023
-0.0920261 -0.058634099 0.60500002 4288057471
-0.090540402 -0.058734201 0.60600001 4288122750
-0.0887556 -0.058640402 0.60500002 4288451968
-0.087264001 -0.0587405 0.60600001 4288649345
-0.085625499 -0.058743499 0.60600001 4288518529
-0.084125303 -0.058843501 0.60699999 4288650115
-0.0822118 -0.058652598 0.60500002 4288715655
-0.080442101 -0.058558598 0.60399997 4288452229
-0.078938603 -0.058658499 0.60500002 4288254851
-0.077429399 -0.0587583 0.60600001 4288254091
-0.0761647 -0.059052002 0.60900003 4287991172
-0.074883603 -0.0593457 0.61199999 4288057734
-0.074064597 -0.060027301 0.61900002 4287926148
-0.072505802 -0.060127001 0.62 4287729021
-0.0700275 -0.059450801 0.61299998 4287663227
-0.067698501 -0.0588715 0.60699999 4287794814
-0.062681198 -0.055867299 0.57599998 4288387210
-0.058256 -0.0532507 0.54900002 4286873978
-0.0551145 -0.051700901 0.53299999 4289441468
-0.052864999 -0.050926998 0.52499998 4285363062
-0.0510506 -0.050540999 0.52100003 4284638308
-0.0495435 -0.050445899 0.51999998 4284111703
-0.0482269 -0.050544798 0.52100003 4283979086
-0.0468149 -0.050546698 0.52100003 4283846986
-0.045402601 -0.050548501 0.52100003 4283320895
-0.043905899 -0.050453201 0.51999998 4283123770
-0.042414401 -0.050357901 0.51899999 4283255096
-0.040928099 -0.0502625 0.51800001 4283254582
-0.039523501 -0.050264101 0.51800001 4282794545
-0.038192298 -0.050362699 0.51899999 4283057203
-0.036855601 -0.050461199 0.51999998 4283321143
-0.035377 -0.050365601 0.51899999 4282926131
-0.0339038 -0.050269999 0.51800001 4283255096
-0.032435801 -0.050174199 0.51700002 4282926644
-0.031033199 -0.050175499 0.51700002 4282926131
-0.029630501 -0.050176799 0.51700002 4282860851
-0.028282201 -0.050275002 0.51800001 4282860596
-0.026928499 -0.0503732 0.51899999 4283057975
-0.025569201 -0.050471298 0.51999998 4282794805
-0.024018601 -0.050181098 0.51700002 4282926137
-0.0225717 -0.050085001 0.51599997 4283320896
-0.0211301 -0.049988799 0.51499999 4282991931
-0.0197322 -0.0499897 0.51499999 4282794552
-0.0183699 -0.0500875 0.51599997 4283123517
-0.0169691 -0.050088301 0.51599997 4283123263
-0.0156588 -0.0503801 0.51899999 4282860091
-0.0142224 -0.0502837 0.51800001 4282925884
-0.0128408 -0.050381299 0.51899999 4283189057
-0.0113877 -0.050187699 0.51700002 4282860345
-0.0099839596 -0.050188102 0.51700002 4282860851
-0.0085636303 -0.050091401 0.51599997 4282860596
-0.0071625798 -0.050091699 0.51599997 4282795058
-0.0057726698 -0.0501891 0.51700002 4282729265
-0.0043773102 -0.050286401 0.51800001 4282860851
-0.00297077 -0.050286502 0.51800001 4283058483
-0.0015612 -0.050189499 0.51700002 4283057977
-0.000156749 -0.0499954 0.51499999 4282992184
0.00124407 -0.0500925 0.51599997 4283057723
0.0026503201 -0.050189499 0.51700002 4282926137
0.0040698298 -0.050383501 0.51899999 4282597426
0.0054685199 -0.0502862 0.51800001 4282663472
0.00686175 -0.050188899 0.51700002 4282531373
0.0082495399 -0.050091501 0.51599997 4282794545
0.0096318601 -0.0499941 0.51499999 4283057971
0.0110301 -0.049993601 0.51499999 4282860078
0.0124525 -0.050090201 0.51599997 4282596906
0.0138266 -0.049992599 0.51499999 4282662445
0.0152247 -0.049991999 0.51499999 4282794031
0.0165905 -0.049894299 0.514 4283254583
0.018055899 -0.050087702 0.51599997 4282597167
0.019494301 -0.050184 0.51700002 4282860339
0.0209784 -0.050377298 0.51899999 4282859825
0.022300901 -0.050182302 0.51700002 4282925618
0.023658199 -0.0500843 0.51599997 4282597167
0.024961499 -0.049889199 0.514 4282662708
0.026356401 -0.0498881 0.514 4282728758
0.0277512 -0.049887002 0.514 4282992184
0.0292593 -0.050080001 0.51599997 4282926391
0.030718699 -0.050175801 0.51700002 4282992437
0.032121401 -0.050174501 0.51700002 4282663472
0.033329401 -0.049882099 0.514 4282663472
0.034791201 -0.049977802 0.51499999 4282663472
0.0361178 -0.049879301 0.514 4282465581
0.037584901 -0.0499749 0.51499999 4282597166
0.038905799 -0.049876299 0.514 4282597166
0.040221199 -0.049777701 0.51300001 4282926131
0.0416933 -0.049873099 0.514 4282991917
0.043086901 -0.0498714 0.514 4282860331
0.044480301 -0.049869701 0.514 4282531880
0.045605801 -0.049576901 0.51099998 4282926384
0.046990801 -0.049575102 0.51099998 4282729259
0.0484703 -0.049670201 0.51200002 4282663725
0.0499551 -0.0497653 0.51300001 4282926384
0.051344998 -0.0497634 0.51300001 4282860592
0.052837599 -0.049858399 0.514 4282991663
0.054335501 -0.049953301 0.51499999 4282925870
0.0555139 -0.049757201 0.51300001 4282991149
0.0567923 -0.049658101 0.51200002 4283188529
0.058178801 -0.049656 0.51200002 4282728238
0.059681401 -0.049750701 0.51300001 4282991410
0.060951099 -0.0496515 0.51200002 4282794545
0.062337 -0.049649201 0.51200002 4282597420
0.063722797 -0.049646899 0.51200002 4282662959
0.065108299 -0.0496445 0.51200002 4282925364
0.066493697 -0.049642101 0.51200002 4282991410
0.067746297 -0.049542699 0.51099998 4282662959
0.069128603 -0.049540199 0.51099998 4282794031
0.070648603 -0.049634598 0.51200002 4282728239
0.072173998 -0.049729001 0.51300001 4282596653
0.073561102 -0.049726401 0.51300001 4282991410
0.074801899 -0.049626902 0.51200002 4282530859
0.076185897 -0.049624201 0.51200002 4282465319
0.077569798 -0.0496215 0.51200002 4282794791
0.078799203 -0.049521901 0.51099998 4282793771
0.079866096 -0.049325399 0.509 4282596392
0.081400901 -0.0494195 0.50999999 4282793517
0.082940802 -0.049513601 0.51099998 4282859310
0.084155902 -0.049413901 0.50999999 4282596652
0.085365497 -0.049314201 0.509 4282794031
0.086739801 -0.049311299 0.509 4282662445
0.088287003 -0.049405299 0.50999999 4282925357
0.089487799 -0.049305499 0.509 4282530345
0.090861604 -0.0493026 0.509 4282728238
0.092235103 -0.049299698 0.509 4282859824
0.093424499 -0.049199902 0.50800002 4282991924
0.094981603 -0.049293701 0.509 4282728752
0.096165203 -0.0491939 0.50800002 4282662959
0.0975352 -0.049190901 0.50800002 4282399787
0.098710403 -0.049091101 0.50700003 4282728752
0.100077 -0.049088001 0.50700003 4282531373
0.101644 -0.0491818 0.50800002 4282399787
0.103013 -0.049178701 0.50800002 4282531627
0.104382 -0.049175698 0.50800002 4282334760
0.105959 -0.049269401 0.509 4282268454
0.107542 -0.049363099 0.50999999 4282202661
0.109129 -0.049456801 0.51099998 4282465319
0.111587 -0.049937598 0.51599997 4282399526
0.115385 -0.0509989 0.52700001 4282662184
0.121458 -0.053027801 0.54799998 4282399526
0.128094 -0.0552499 0.57099998 4282465319
0.133944 -0.057084799 0.58999997 4282465319
0.13668101 -0.057564899 0.59500003 4282399526
0.13874701 -0.057754699 0.597 4282267940
0.140589 -0.057847898 0.59799999 4282268455
0.142911 -0.058134399 0.60100001 4282795311
0.144288 -0.058033999 0.60000002 4283781953
0.145659 -0.057933699 0.59899998 4288124805
0.14702401 -0.0578334 0.59799999 4287928455
0.14913 -0.058023199 0.60000002 4288322445
0.150995 -0.058116298 0.60100001 4288059020
0.152357 -0.058015998 0.60000002 4288256399
0.154227 -0.058109101 0.60100001 4288387985
0.156102 -0.0582022 0.602 4288322192
0.15772 -0.058198702 0.602 4288519057
0.159338 -0.0581952 0.602 4288519056
0.16122399 -0.058288299 0.60299999 4288584849
0.16311499 -0.058381502 0.60399997 4288388240
0.164738 -0.0583781 0.60399997 4288257168
0.16581 -0.058181401 0.602 4287993994
0.167706 -0.058274601 0.60299999 4288257166
0.169045 -0.058174599 0.602 4287993994
0.170946 -0.058267899 0.60299999 4287796869
0.172566 -0.058264598 0.60299999 4288125834
0.174475 -0.058357999 0.60399997 4288191373
0.17638899 -0.058451399 0.60500002 4288125580
0.17772 -0.058351599 0.60399997 4287928969
0.179343 -0.058348499 0.60399997 4288126348
0.180666 -0.058248799 0.60299999 4287600003
0.182285 -0.0582457 0.60299999 4287797382
0.18421 -0.058339301 0.60399997 4287928454
0.18583199 -0.058336399 0.60399997 4288060040
0.18683399 -0.0581403 0.602 4287797382
0.18782499 -0.057944302 0.60000002 4288520591
0.189437 -0.057941601 0.60000002 4288520591
0.191367 -0.0580354 0.60100001 4288454799
0.192981 -0.058032699 0.60100001 4288322959
0.195243 -0.058223199 0.60299999 4288585617
0.19751599 -0.0584138 0.60500002 4288388238
0.19881199 -0.0583147 0.60399997 4288256652
0.200435 -0.058312301 0.60399997 4287927687
0.20172299 -0.058213402 0.60299999 4288322445
0.203344 -0.058211099 0.60299999 4288190859
0.204624 -0.058112402 0.602 4288256906
0.206585 -0.0582068 0.60299999 4288125319
0.208205 -0.058204699 0.60299999 4288453770
0.210522 -0.058395799 0.60500002 4288453770
0.21214899 -0.058393799 0.60500002 4288519563
0.214129 -0.058488499 0.60600001 4288453515
0.215758 -0.058486801 0.60600001 4288585101
0.217388 -0.058485098 0.60600001 4288585617
0.218656 -0.058387 0.60500002 4288191113
0.21991999 -0.058288999 0.60399997 4288388491
0.221545 -0.058287598 0.60399997 4288322184
0.22317 -0.058286302 0.60399997 4288387977
0.224424 -0.058188599 0.60299999 4288387463
0.22604699 -0.0581875 0.60299999 4288255875
0.227671 -0.058186501 0.60299999 4288124289
0.22967499 -0.0582821 0.60399997 4288321670
0.23130199 -0.058281299 0.60399997 4287597947
0.23331501 -0.058377098 0.60500002 4287926657
0.234557 -0.058279999 0.60399997 4287597694
0.236185 -0.058279499 0.60399997 4287531899
0.23781399 -0.058279101 0.60399997 4287334520
0.239443 -0.0582789 0.60399997 4287532668
0.241072 -0.058278698 0.60399997 4287269496
0.24270201 -0.058278698 0.60399997 4287401082
0.243524 -0.058085799 0.602 4287269496
0.245557 -0.0581825 0.60299999 4287466361
0.24636599 -0.057989899 0.60100001 4287926912
0.248815 -0.058183301 0.60299999 4287729531
0.25003001 -0.058087502 0.602 4287663738
0.25249401 -0.058281198 0.60399997 4287729531
0.25412801 -0.058281999 0.60399997 4287532407
0.25618601 -0.058379501 0.60500002 4287663991
0.25654501 -0.058091201 0.602 4287927165
