# .PCD v0.7 - Point Cloud Data file format
VERSION 0.7
FIELDS x y z rgb
SIZE 4 4 4 4
TYPE F F F U
COUNT 1 1 1 1
WIDTH 1242
HEIGHT 1
VIEWPOINT 0 0 0 1 0 0 0
POINTS 1242
DATA ascii
0.48418999 0.13498899 1.081 4286416000
0.48668301 0.13487101 1.08 4287139726
0.48826399 0.13450301 1.077 4287205519
0.489831 0.13413601 1.074 4287402901
0.490466 0.13351899 1.069 4287797659
0.49199799 0.13315199 1.066 4287929246
0.49305201 0.132661 1.062 4287731610
0.49501899 0.13242 1.0599999 4286876301
0.496508 0.132055 1.057 4288257953
0.497982 0.131689 1.054 4288521379
0.49991801 0.13145 1.052 4284902247
-0.198929 0.136151 1.1109999 4286479223
-0.195755 0.13603599 1.11 4286807933
-0.192586 0.135921 1.109 4287137414
-0.189593 0.135929 1.109 4287006344
-0.186599 0.13593601 1.109 4287532688
-0.183274 0.135699 1.107 4287269516
-0.18028399 0.13570599 1.107 4286545793
-0.177615 0.135959 1.109 4287006344
-0.174777 0.136088 1.11 4287203721
-0.171624 0.13597301 1.109 4287532686
-0.168476 0.135858 1.108 4287730065
-0.165332 0.13574199 1.107 4288125591
-0.162194 0.135626 1.1059999 4287928726
-0.159205 0.13563301 1.1059999 4288257177
-0.156215 0.13564 1.1059999 4288520349
-0.15308601 0.135524 1.105 4288388511
-0.15009899 0.13553099 1.105 4288256925
-0.146844 0.13529199 1.103 4289309099
-0.14373 0.135175 1.102 4288782753
-0.14075001 0.13518199 1.102 4287861651
-0.137768 0.135188 1.102 4288255893
-0.134542 0.134949 1.1 4288059028
-0.131207 0.134587 1.097 4288716960
-0.128004 0.13434701 1.095 4288059032
-0.124926 0.13423 1.094 4288454304
-0.122076 0.134358 1.095 4288454818
-0.119112 0.13436399 1.095 4289178541
-0.116041 0.134247 1.094 4288520356
-0.112872 0.13400701 1.092 4288454565
-0.109713 0.133766 1.09 4288388256
-0.106859 0.133894 1.091 4289177513
-0.103904 0.133899 1.091 4288848546
-0.100856 0.133781 1.09 4288651167
-0.097632997 0.13341799 1.087 4288650399
-0.094513498 0.133177 1.085 4287860883
-0.091404498 0.132936 1.0829999 4287860884
-0.088387802 0.132817 1.082 4287531919
-0.085455097 0.13282099 1.082 4287137675
-0.082446001 0.13270301 1.081 4287203468
-0.079368502 0.132461 1.079 4287730067
-0.076443203 0.132465 1.079 4286743172
-0.073381498 0.132223 1.077 4286611070
-0.070395797 0.13210399 1.076 4286611070
-0.067415297 0.131984 1.075 4287334793
-0.064560004 0.13211 1.076 4287401100
-0.061698999 0.132236 1.077 4287335307
-0.058777899 0.132239 1.077 4286677375
-0.055752799 0.13199601 1.075 4286545530
-0.052787598 0.13187601 1.074 4285361256
-0.049827602 0.13175599 1.073 4285229668
-0.046960399 0.131881 1.074 4285426533
-0.044046499 0.131883 1.074 4285426533
-0.041209102 0.132131 1.076 4285492840
-0.038254 0.13201 1.075 4285492326
-0.035337001 0.13201199 1.075 4285426532
-0.0323596 0.131768 1.073 4284965982
-0.0294753 0.13189299 1.074 4285558119
-0.026610199 0.13214 1.076 4285031774
-0.023690101 0.13214099 1.076 4285031514
-0.0207892 0.132265 1.077 4284176205
-0.0178663 0.132266 1.077 4284505423
-0.0149433 0.132267 1.077 4284505423
-0.0120314 0.13239001 1.0779999 4284176458
-0.0091393404 0.132882 1.082 4283847236
-0.0062198401 0.133251 1.085 4283846466
-0.0032870499 0.133742 1.089 4283714882
-0.00033131201 0.133742 1.089 4283847236
0.00262442 0.133742 1.089 4283847493
0.0055955201 0.13411 1.092 4284834388
0.0085985595 0.13472401 1.097 4283847746
0.0116076 0.13509201 1.1 4283452988
0.0146064 0.135214 1.101 4283913539
0.0176105 0.135336 1.102 4283715905
0.020601301 0.135335 1.102 4284044872
0.023613499 0.13545699 1.103 4284110412
0.026631 0.135579 1.104 4283913033
0.029627001 0.13557699 1.104 4284241741
0.032682002 0.135821 1.1059999 4283452225
0.035715502 0.135942 1.107 4283650114
0.038789298 0.136186 1.109 4283650112
0.041798402 0.13618401 1.109 4284176718
0.044807401 0.136182 1.109 4283584581
0.047859401 0.13630199 1.11 4284241997
0.0509624 0.136545 1.112 4284175947
0.054027598 0.136666 1.113 4283978052
0.057098102 0.136786 1.114 4284109638
0.060065798 0.13665999 1.113 4284372810
0.063084602 0.136657 1.113 4284439120
0.066103198 0.136654 1.113 4284636756
0.069183797 0.13677301 1.114 4284175951
0.0721398 0.136647 1.113 4284504916
0.075157799 0.13664301 1.113 4284834135
0.0781755 0.13664 1.113 4285031513
0.081338897 0.13688099 1.115 4285031514
0.084437199 0.13699999 1.1160001 4284768088
0.087618999 0.137242 1.118 4284965210
0.090649299 0.137237 1.118 4284570706
0.093595497 0.13710999 1.117 4284900181
0.096449398 0.13686 1.115 4284637007
0.099470697 0.13685501 1.115 4284637007
0.102675 0.137096 1.117 4284702802
0.105796 0.137214 1.118 4284570962
0.108825 0.137209 1.118 4285360226
0.111753 0.137081 1.117 4285162847
0.114778 0.13707601 1.117 4285294433
0.117803 0.13707 1.117 4284439123
0.120827 0.13706499 1.117 4285426018
0.123851 0.137059 1.117 4285360739
0.12698799 0.13717601 1.118 4284966751
0.130015 0.13717 1.118 4286085232
0.133159 0.13728701 1.119 4285624426
0.136187 0.137281 1.119 4286019439
0.139091 0.137152 1.118 4285229923
0.14198799 0.137023 1.117 4285624426
0.14500999 0.137017 1.117 4286216310
0.148031 0.13700999 1.117 4285689968
0.150916 0.13688099 1.1160001 4285230184
0.153796 0.13675199 1.115 4285361770
0.15681 0.13674501 1.115 4287006091
0.159968 0.136861 1.1160001 4286480512
0.16313 0.136977 1.117 4286744198
0.16599999 0.136847 1.1160001 4287598993
0.168562 0.136472 1.113 4287665040
0.171415 0.136342 1.112 4286677891
0.174419 0.136335 1.112 4287598479
0.17774101 0.136573 1.114 4287927446
0.180425 0.13632099 1.112 4287664274
0.183263 0.136191 1.1109999 4287861653
0.186095 0.136061 1.11 4287335309
0.188921 0.135931 1.109 4287730581
0.191742 0.135801 1.108 4288454818
0.194205 0.135425 1.105 4287600024
0.19718701 0.135418 1.105 4288849837
0.19998699 0.135287 1.104 4288784301
0.20278101 0.135157 1.103 4288521644
0.205383 0.134904 1.101 4288916918
0.208353 0.134896 1.101 4288983226
0.21132199 0.13488901 1.101 4288983486
0.213706 0.13451301 1.098 4289378244
0.216667 0.134505 1.098 4289246144
0.21942601 0.13437501 1.097 4289575363
0.22238301 0.134367 1.097 4290429643
0.224517 0.13386901 1.0930001 4289705920
0.227254 0.13373899 1.092 4289705920
0.230196 0.13373099 1.092 4290560974
0.23335101 0.133845 1.0930001 4289903560
0.235863 0.13359299 1.091 4290561236
0.238363 0.13334 1.089 4290298834
0.24041 0.132842 1.085 4290298832
0.24310701 0.13271201 1.084 4290562004
0.245344 0.13233601 1.081 4290495697
0.248024 0.13220599 1.08 4290758608
0.25046599 0.131953 1.0779999 4290100678
0.25289801 0.13170099 1.076 4291284952
0.255555 0.13157099 1.075 4290824401
0.258448 0.13156299 1.075 4290495695
0.26133999 0.13155501 1.075 4290758867
0.26374 0.131303 1.073 4291548899
0.26612899 0.13105001 1.071 4291285727
0.26825699 0.130676 1.068 4290889941
0.27087501 0.130546 1.067 4290626769
0.27271801 0.13004901 1.063 4290823374
0.27479899 0.129674 1.0599999 4290428873
0.27660099 0.129178 1.056 4290560460
0.278117 0.12855899 1.051 4291482592
0.27960601 0.12794 1.046 4290759385
0.28079799 0.12719899 1.04 4291351522
0.282502 0.12670299 1.036 4290825692
0.28418499 0.12620699 1.0319999 4290825692
0.28556901 0.125588 1.027 4291087834
0.287487 0.12521499 1.024 4290364109
0.289388 0.124841 1.021 4289640641
0.29127401 0.124468 1.018 4289442748
0.293143 0.124095 1.015 4289902529
0.29499599 0.123722 1.012 4288981681
0.29742101 0.123593 1.011 4287928992
0.30013701 0.123587 1.011 4287402391
0.303453 0.123826 1.013 4286942094
0.306779 0.124064 1.015 4286152578
0.31103101 0.124669 1.02 4285164913
0.31531 0.125275 1.025 4284901741
0.32116699 0.126491 1.035 4284638055
0.32927001 0.128563 1.052 4284769896
0.34188199 0.132346 1.0829999 4284572517
0.35243401 0.13527299 1.107 4284375136
0.35958201 0.136856 1.12 4284375390
0.36388701 0.137339 1.124 4282730048
0.36756101 0.137578 1.126 4282401336
0.37091601 0.137695 1.127 4282204212
0.37328199 0.137446 1.125 4282467382
0.37597099 0.137319 1.124 4282401589
0.37933001 0.137436 1.125 4282401336
0.382355 0.137431 1.125 4282663994
0.38538 0.137427 1.125 4282795582
0.38806 0.137301 1.124 4282532155
0.391431 0.137419 1.125 4282401083
0.39480701 0.137537 1.126 4282466617
0.397836 0.13753299 1.126 4282203445
0.400866 0.13753 1.126 4282598201
0.403896 0.137527 1.126 4282268722
0.40656501 0.137401 1.125 4281742378
0.408865 0.137154 1.123 4282006064
0.41152099 0.13703001 1.122 4282532410
0.41454199 0.137027 1.122 4282465847
0.417564 0.137025 1.122 4282070828
0.419837 0.136779 1.12 4282268207
0.42285401 0.136777 1.12 4282070825
0.425493 0.136654 1.119 4282202409
0.42889199 0.136775 1.12 4281807908
0.431912 0.136774 1.12 4282268459
0.435709 0.137017 1.122 4282466354
0.43834499 0.136895 1.1210001 4282795317
0.44058201 0.13665 1.119 4282597938
0.44161999 0.13604 1.114 4282269489
0.44383001 0.135796 1.112 4282467122
0.44643101 0.135675 1.1109999 4282401329
0.449433 0.135676 1.1109999 4282795835
0.45243499 0.13567699 1.1109999 4283124800
0.45461899 0.135434 1.109 4282663479
0.45679301 0.13519201 1.107 4283518788
0.45854199 0.134827 1.104 4283585349
0.46153 0.13483 1.104 4283716937
0.46325701 0.13446601 1.101 4283849552
0.46496901 0.134103 1.098 4284573021
0.46666601 0.13373999 1.095 4284309849
0.46920601 0.13362101 1.094 4284243287
0.47174099 0.133503 1.0930001 4284506459
0.47383901 0.13326301 1.091 4284967265
0.475927 0.13302401 1.089 4285296998
0.47800499 0.13278399 1.087 4284705375
0.48051599 0.132668 1.086 4285955188
0.48257899 0.132429 1.084 4285692531
0.48463199 0.132191 1.082 4286613379
0.48667601 0.131953 1.08 4287205519
0.487804 0.13147099 1.076 4287337105
0.48936799 0.131111 1.073 4287205523
0.490917 0.130752 1.0700001 4287731867
0.49291301 0.13051599 1.068 4287862942
0.493972 0.130035 1.064 4287665817
0.49547699 0.129677 1.061 4286876301
0.49696901 0.129319 1.058 4288324000
0.497973 0.128839 1.054 4288258205
0.499432 0.128482 1.051 4285560431
-0.199295 0.133387 1.113 4286545275
-0.195939 0.133155 1.1109999 4286611068
-0.19242001 0.13280299 1.108 4287269514
-0.189429 0.13281 1.108 4287401100
-0.18643799 0.132818 1.108 4287598481
-0.183446 0.132825 1.108 4287203721
-0.180455 0.13283201 1.108 4286348412
-0.17762201 0.13295899 1.109 4287005828
-0.174784 0.133086 1.11 4287269000
-0.171786 0.133093 1.11 4287861651
-0.168635 0.132981 1.109 4287466891
-0.165787 0.13310701 1.11 4288125591
-0.162494 0.132874 1.108 4287731347
-0.159355 0.132761 1.107 4288257177
-0.15607999 0.13252801 1.105 4288520349
-0.152954 0.132415 1.104 4288454304
-0.150105 0.132541 1.105 4288388256
-0.146984 0.13242701 1.104 4289177513
-0.143737 0.132194 1.102 4288782755
-0.140628 0.13208 1.101 4287861651
-0.13752399 0.13196599 1.1 4288124307
-0.134426 0.131852 1.099 4288058514
-0.13121299 0.13161799 1.097 4288914337
-0.12801 0.131384 1.095 4288124823
-0.124932 0.13127001 1.094 4288388509
-0.122193 0.131515 1.096 4288651681
-0.119444 0.131761 1.098 4289112232
-0.116258 0.13152599 1.096 4288520097
-0.112877 0.131051 1.092 4288322718
-0.109718 0.130816 1.09 4288387997
-0.106766 0.130821 1.09 4289177511
-0.103909 0.130946 1.091 4288782239
-0.10086 0.130831 1.09 4288519065
-0.097637601 0.130475 1.087 4288321172
-0.094517902 0.13023999 1.085 4287597451
-0.091493197 0.130124 1.084 4287663758
-0.088391997 0.129888 1.082 4287203207
-0.085459203 0.12989201 1.082 4286941063
-0.082450002 0.129776 1.081 4287335821
-0.079445802 0.12966 1.08 4287927958
-0.076517798 0.129664 1.08 4286808963
-0.073453203 0.129427 1.0779999 4286874242
-0.070529997 0.12943099 1.0779999 4286940033
-0.067543902 0.12931401 1.077 4287334791
-0.064683102 0.129437 1.0779999 4287334791
-0.061702002 0.12932 1.077 4287137928
-0.058780801 0.12932301 1.077 4286545789
-0.0558074 0.129206 1.076 4286348151
-0.052888501 0.129208 1.076 4285624428
-0.0498765 0.128971 1.074 4285492326
-0.047006398 0.12909301 1.075 4285294947
-0.044089701 0.129095 1.075 4285623912
-0.041249499 0.129338 1.077 4285360740
-0.038220301 0.128979 1.074 4285294947
-0.0353388 0.12910099 1.075 4285755498
-0.032421499 0.129103 1.075 4284900189
-0.029531701 0.129224 1.076 4285031775
-0.026586801 0.129106 1.075 4285294432
-0.0236472 0.128987 1.074 4284965720
-0.0207517 0.129108 1.075 4284241994
-0.0178506 0.12922899 1.076 4284505163
-0.014944 0.12935001 1.077 4284571214
-0.012032 0.129471 1.0779999 4284110918
-0.0091313496 0.129832 1.081 4283650112
-0.0062258798 0.13043199 1.086 4283518528
-0.0032872099 0.13079301 1.089 4283584064
-0.00033163201 0.130913 1.09 4283847234
0.00262937 0.131033 1.091 4283847493
0.0056009199 0.131273 1.0930001 4284308044
0.0085989898 0.131753 1.097 4284044872
0.0115976 0.131993 1.099 4283650114
0.0145938 0.132112 1.1 4283781698
0.017579401 0.132112 1.1 4284044870
0.020602399 0.132351 1.102 4283979077
0.023636101 0.13259 1.104 4284242251
0.0266564 0.132709 1.105 4284176458
0.0296821 0.132828 1.1059999 4284110408
0.032713201 0.132946 1.107 4283781189
0.035749499 0.133065 1.108 4284110665
0.038791198 0.133183 1.109 4284373578
0.041762799 0.13306101 1.108 4284373835
0.044809598 0.13317899 1.109 4283913286
0.047904801 0.133417 1.1109999 4284307019
0.051010799 0.133654 1.113 4284241226
0.054078799 0.133772 1.114 4283912261
0.057049599 0.13364901 1.113 4284306503
0.060068801 0.133646 1.113 4284372810
0.063087702 0.133643 1.113 4284241740
0.066106498 0.13364001 1.113 4284965464
0.069187097 0.133757 1.114 4284044365
0.072208203 0.133754 1.114 4284373330
0.075161397 0.13362999 1.113 4284965721
0.078249499 0.133746 1.114 4285294685
0.081415802 0.133983 1.1160001 4284965721
0.0844412 0.13397899 1.1160001 4285097053
0.087623201 0.134215 1.118 4285031260
0.090653598 0.134211 1.118 4284702295
0.093683697 0.134206 1.118 4284899927
0.096540503 0.13396201 1.1160001 4285031767
0.099564597 0.133957 1.1160001 4284637009
0.102588 0.13395301 1.1160001 4284834388
0.105706 0.134068 1.117 4284570962
0.10883 0.134183 1.118 4285491811
0.111958 0.134298 1.119 4285426018
0.114886 0.13417301 1.118 4285228639
0.117913 0.134167 1.118 4284702295
0.120724 0.133922 1.1160001 4285426018
0.123857 0.134036 1.117 4285492325
0.126881 0.134031 1.117 4284966496
0.129904 0.13402499 1.117 4286019184
0.132927 0.134019 1.117 4285821807
0.13595 0.134013 1.117 4286019186
0.13884801 0.13388699 1.1160001 4285294947
0.14161301 0.133641 1.114 4285821291
0.144756 0.133755 1.115 4286216049
0.14790501 0.13386799 1.1160001 4286018670
0.151058 0.133982 1.117 4285428312
0.15394001 0.133855 1.1160001 4285560666
0.157098 0.13396899 1.117 4286611837
0.15997501 0.13384201 1.1160001 4286743937
0.162991 0.133835 1.1160001 4286875524
0.16571 0.133589 1.114 4287467661
0.16841701 0.133342 1.112 4287533200
0.171268 0.133215 1.1109999 4286612098
0.174426 0.13332801 1.112 4287730581
0.17743 0.133321 1.112 4287664788
0.180271 0.133194 1.1109999 4287598995
0.182941 0.132947 1.109 4287862165
0.18593501 0.132939 1.109 4287335821
0.18892901 0.13293201 1.109 4287730579
0.191403 0.13256501 1.1059999 4288389025
0.19403701 0.132318 1.104 4288192160
0.197016 0.13231 1.104 4288915884
0.19981299 0.132183 1.103 4288850094
0.20242099 0.131935 1.101 4288192679
0.20520499 0.131808 1.1 4288851639
0.208361 0.13191999 1.101 4288983226
0.211138 0.13179301 1.1 4288983486
0.21352001 0.13142499 1.097 4289246658
0.21647701 0.131418 1.097 4289246912
0.21943399 0.13141 1.097 4289641156
0.222188 0.131282 1.096 4290166985
0.22431999 0.130795 1.092 4289574332
0.22684599 0.130548 1.09 4289772227
0.229783 0.13054 1.09 4290758608
0.232932 0.130652 1.091 4289969353
0.23565499 0.13052499 1.09 4290232525
0.238152 0.13027699 1.0880001 4290298318
0.240639 0.13003001 1.086 4290364109
0.243339 0.129903 1.085 4290627283
0.24580599 0.129655 1.0829999 4290627283
0.248262 0.129408 1.081 4290561488
0.25093901 0.129281 1.08 4290166216
0.25337499 0.129034 1.0779999 4291153111
0.25603801 0.128906 1.077 4290824660
0.25869599 0.12877899 1.076 4290364879
0.26086101 0.12841199 1.073 4290759383
0.26325601 0.12816501 1.071 4291548899
0.26563999 0.127918 1.069 4291219934
0.268013 0.127672 1.067 4290890455
0.27062899 0.127544 1.066 4290560974
0.27272499 0.127178 1.063 4290692045
0.27480599 0.126812 1.0599999 4290560459
0.27660799 0.12632599 1.056 4290758353
0.278124 0.12572099 1.051 4291482592
0.27961299 0.12511601 1.046 4290825176
0.28134501 0.12463 1.0420001 4291285727
0.28278199 0.124025 1.0369999 4290759897
0.284192 0.12342 1.0319999 4291023069
0.285575 0.122816 1.027 4291153625
0.28749299 0.12245 1.024 4290627281
0.28967801 0.122205 1.022 4289574848
0.29128 0.12172 1.018 4289705920
0.29314899 0.121355 1.015 4290100161
0.295293 0.12111 1.013 4288652715
0.298015 0.121103 1.013 4288257700
0.30044001 0.120978 1.012 4287731356
0.30345899 0.121091 1.013 4287072910
0.30678499 0.121325 1.015 4285889406
0.31073201 0.121797 1.0190001 4284967534
0.31500801 0.122389 1.024 4284901743
0.32086301 0.123578 1.034 4284506985
0.32927501 0.125724 1.052 4284572776
0.34188801 0.12942301 1.0829999 4284375397
0.35243899 0.132286 1.107 4284375138
0.359267 0.13371401 1.119 4284441183
0.36389199 0.134306 1.124 4283387980
0.36724001 0.13441999 1.125 4282532922
0.37026301 0.134415 1.125 4282335798
0.37295499 0.13428999 1.124 4282533177
0.375976 0.134285 1.124 4282532922
0.37899801 0.13428099 1.124 4282138166
0.38202 0.134276 1.124 4282598201
0.38504201 0.13427199 1.124 4282664249
0.388064 0.134268 1.124 4282401077
0.391087 0.13426401 1.124 4282137905
0.39445999 0.134379 1.125 4282137903
0.39783999 0.13449501 1.126 4282400307
0.40086901 0.13449199 1.126 4282137650
0.40389901 0.134488 1.126 4282137650
0.40620601 0.13424601 1.124 4281742892
0.408503 0.134005 1.122 4282071857
0.41115701 0.133883 1.1210001 4282400824
0.414175 0.13388 1.1210001 4282663994
0.41719401 0.13387799 1.1210001 4281939757
0.420214 0.133876 1.1210001 4282597173
0.42323399 0.133874 1.1210001 4282070828
0.42587399 0.133753 1.12 4282268461
0.428893 0.133752 1.12 4282202666
0.43152699 0.133632 1.119 4282334252
0.434544 0.13363101 1.119 4282795572
0.437563 0.13363101 1.119 4283256123
0.43979499 0.13339201 1.117 4282992951
0.44161999 0.13303301 1.114 4282335535
0.443829 0.13279501 1.112 4282663986
0.44643101 0.13267601 1.1109999 4282860851
0.44943199 0.132677 1.1109999 4283189563
0.45202699 0.132558 1.11 4283584321
0.453798 0.132202 1.107 4283057977
0.455966 0.131964 1.105 4283518274
0.458125 0.13172799 1.103 4283716421
0.46111 0.13173001 1.103 4283716935
0.462834 0.131374 1.1 4283717966
0.46538901 0.131258 1.099 4284704607
0.46751499 0.13102201 1.097 4284375128
0.46963099 0.130787 1.095 4284177494
0.471306 0.13043199 1.092 4284572252
0.47383401 0.130317 1.091 4284835677
0.475485 0.129963 1.0880001 4285164642
0.47799999 0.129848 1.087 4284573789
0.479626 0.12949499 1.084 4285363305
0.48212799 0.129381 1.0829999 4285560945
0.48417801 0.12914801 1.081 4286218875
0.48621899 0.128915 1.079 4286744966
0.487344 0.128444 1.075 4287337362
0.48936 0.128212 1.073 4287468695
0.491368 0.12797999 1.071 4287929246
0.49336699 0.127749 1.069 4287402648
0.49442801 0.127279 1.0650001 4287600024
0.49593601 0.126928 1.062 4286744715
0.49742901 0.126578 1.059 4288060574
0.49796301 0.12599 1.054 4288192414
0.49894699 0.125521 1.05 4285297519
-0.19948199 0.130495 1.114 4286545530
-0.196123 0.13026799 1.112 4286413944
-0.192775 0.130041 1.11 4287006595
-0.18994901 0.130165 1.1109999 4287598477
-0.186782 0.130055 1.11 4287401098
-0.18361899 0.129945 1.109 4286940547
-0.18062501 0.129953 1.109 4286677375
-0.17779 0.130077 1.11 4287071619
-0.17494901 0.130201 1.1109999 4286874240
-0.171793 0.130091 1.11 4287598477
-0.168642 0.129981 1.109 4287532684
-0.165645 0.129987 1.109 4288125591
-0.16264801 0.129994 1.109 4287665554
-0.159362 0.129766 1.107 4288059798
-0.15622801 0.129656 1.1059999 4288322716
-0.153238 0.12966201 1.1059999 4288388511
-0.15024699 0.129668 1.1059999 4288125339
-0.14712299 0.129557 1.105 4289506478
-0.144004 0.129446 1.104 4289177513
-0.14089 0.129335 1.103 4287927442
-0.13778 0.129224 1.102 4288190100
-0.13467599 0.129113 1.101 4287926928
-0.131458 0.128884 1.099 4288980130
-0.128249 0.128655 1.097 4288124823
-0.125166 0.128543 1.096 4288453790
-0.12231 0.128666 1.097 4288454302
-0.11934 0.12867101 1.097 4289112232
-0.116158 0.128442 1.095 4288520097
-0.112779 0.127978 1.091 4288256925
-0.109723 0.127866 1.09 4288322202
-0.106869 0.127988 1.091 4288716960
-0.104009 0.12811001 1.092 4288650653
-0.100865 0.12788001 1.09 4288715930
-0.097642101 0.12753201 1.087 4288518551
-0.094522297 0.12730201 1.085 4287860621
-0.091413103 0.12707201 1.0829999 4287992207
-0.088396102 0.126959 1.082 4287268998
-0.085384198 0.126845 1.081 4287269514
-0.082377501 0.12673201 1.08 4287598479
-0.079375997 0.126618 1.079 4287533200
-0.076450497 0.12662201 1.079 4287137928
-0.073524803 0.126625 1.079 4286940547
-0.070598803 0.12662899 1.079 4286611068
-0.067672603 0.126632 1.079 4287334791
-0.064746201 0.126635 1.079 4287400584
-0.061705001 0.126403 1.077 4287072135
-0.058783598 0.126406 1.077 4286479996
-0.055861998 0.12640899 1.077 4286347896
-0.052940201 0.126412 1.077 4285690221
-0.049925402 0.12617899 1.075 4285558119
-0.046964999 0.126064 1.074 4285031775
-0.044091899 0.126184 1.075 4285163361
-0.041251499 0.126421 1.077 4285294947
-0.038257699 0.126188 1.075 4285558121
-0.035340499 0.12619001 1.075 4285623914
-0.032423101 0.12619101 1.075 4285097568
-0.029533099 0.12631001 1.076 4285294433
-0.0266128 0.126311 1.076 4285294432
-0.023692399 0.126313 1.076 4284570705
-0.0207913 0.126431 1.077 4284439373
-0.017884601 0.12654901 1.0779999 4284570956
-0.0149586 0.12655 1.0779999 4284373578
-0.0120437 0.12666801 1.079 4284374090
-0.0091318004 0.126904 1.081 4283979077
-0.0062147202 0.12725601 1.084 4283584321
-0.00328133 0.127609 1.087 4283715650
-0.000331649 0.12796099 1.09 4284044613
0.0026319099 0.128196 1.092 4283847493
0.0056063202 0.12842999 1.094 4284308044
0.0085994098 0.128782 1.097 4283913286
0.0115982 0.129016 1.099 4283518274
0.0145813 0.129016 1.099 4284110665
0.0175643 0.129015 1.099 4283979077
0.0206034 0.129366 1.102 4283913284
0.0236372 0.1296 1.104 4284044870
0.0266819 0.129833 1.1059999 4283979079
0.029683599 0.129832 1.1059999 4283912775
0.0327443 0.13006499 1.108 4283583811
0.035751302 0.130064 1.108 4283781446
0.038828101 0.13029701 1.11 4284044872
0.041802499 0.13017701 1.109 4283913284
0.044852201 0.130293 1.11 4283584319
0.047907099 0.130408 1.1109999 4284307017
0.050967399 0.130523 1.112 4284110408
0.054032899 0.130638 1.113 4283978822
0.057001099 0.130518 1.112 4284241224
0.060017701 0.13051499 1.112 4284241224
0.063090697 0.130629 1.113 4284570705
0.066228397 0.130861 1.115 4284702292
0.069252498 0.130858 1.115 4284307791
0.072211601 0.13073701 1.114 4284505170
0.075165004 0.13061599 1.113 4284899927
0.078253202 0.13073 1.114 4285163099
0.081346601 0.130844 1.115 4284636756
0.084445201 0.13095701 1.1160001 4285097053
0.087470599 0.130953 1.1160001 4284833881
0.090576701 0.13106599 1.117 4284965467
0.0936042 0.131062 1.117 4285097306
0.096545003 0.13094001 1.1160001 4284571216
0.099569201 0.130936 1.1160001 4284834388
0.102777 0.131166 1.118 4284834902
0.105901 0.13127799 1.119 4284768855
0.108932 0.131274 1.119 4285491811
0.111963 0.13126899 1.119 4285360226
0.115097 0.13138101 1.12 4285294432
0.11813 0.131376 1.12 4284833881
0.120946 0.131136 1.118 4285031774
0.123973 0.13112999 1.118 4285492325
0.126886 0.131007 1.117 4285295461
0.12991001 0.13100199 1.117 4285821805
0.13293301 0.130996 1.117 4285624428
0.135956 0.13099 1.117 4286479223
0.138854 0.130867 1.1160001 4285426533
0.141619 0.13062599 1.114 4285623912
0.14476299 0.13073801 1.115 4286018670
0.147911 0.130849 1.1160001 4285690472
0.15106399 0.130959 1.117 4285428312
0.154223 0.13107 1.118 4285363285
0.15724599 0.131064 1.118 4286677630
0.16026799 0.13105699 1.118 4286809730
0.16314401 0.130933 1.117 4287336075
0.16571701 0.130575 1.114 4287599247
0.168424 0.130334 1.112 4287138956
0.171275 0.13021 1.1109999 4286612612
0.17443299 0.13032 1.112 4287270542
0.17743701 0.13031299 1.112 4287730579
0.180278 0.130189 1.1109999 4287796372
0.18311299 0.130064 1.11 4287598993
0.18611 0.13005701 1.11 4287401616
0.188766 0.129815 1.108 4287730581
0.191238 0.129457 1.105 4287863196
0.19404399 0.12933201 1.104 4288060575
0.197202 0.12944201 1.105 4288849837
0.200002 0.129317 1.104 4288916402
0.202613 0.129076 1.102 4288193195
0.20539901 0.128951 1.101 4288522674
0.208179 0.12882601 1.1 4288917433
0.211145 0.128819 1.1 4288654775
0.21372201 0.12857699 1.098 4289443777
0.21648499 0.128452 1.097 4289312190
0.219042 0.12820999 1.095 4289312190
0.22179 0.128086 1.094 4290364364
0.224122 0.127727 1.091 4289640127
0.22664601 0.12748501 1.089 4289838020
0.22979 0.12759399 1.09 4290692815
0.23294 0.12770399 1.091 4290034630
0.235879 0.12769599 1.091 4290495695
0.238379 0.127454 1.089 4290232523
0.24042501 0.12697899 1.085 4290429902
0.242898 0.126737 1.0829999 4290627029
0.24558701 0.12661199 1.082 4290495443
0.24781001 0.12625299 1.079 4290495697
0.25048199 0.126129 1.0779999 4289969353
0.25314799 0.126004 1.077 4291350490
0.256046 0.12599701 1.077 4291087318
0.25870401 0.125872 1.076 4290561488
0.261112 0.125631 1.074 4290627797
0.26301801 0.125155 1.0700001 4291548385
0.26564801 0.12503099 1.069 4291285213
0.26802 0.12479 1.067 4290955734
0.27063599 0.124665 1.066 4290823632
0.27247599 0.12419 1.062 4290494666
0.27455401 0.123832 1.059 4290495181
0.276353 0.123357 1.0549999 4290626767
0.27813101 0.122883 1.051 4291351006
0.27961999 0.122291 1.046 4290825176
0.281351 0.121817 1.0420001 4291154655
0.28278899 0.121225 1.0369999 4290891483
0.284199 0.120634 1.0319999 4290825690
0.28558201 0.120043 1.027 4291022039
0.287781 0.119803 1.025 4290560974
0.28996801 0.119562 1.023 4289772227
0.29128599 0.118972 1.018 4289705920
0.29286599 0.118498 1.0140001 4289968575
0.295008 0.118258 1.012 4288850094
0.29802099 0.118369 1.013 4288060578
0.30014899 0.118129 1.011 4287731356
0.30286601 0.118123 1.011 4287073680
0.306187 0.118351 1.013 4285889406
0.310128 0.118813 1.017 4285033327
0.314091 0.119275 1.021 4284835948
0.31993699 0.120437 1.031 4284375397
0.32834199 0.122534 1.049 4284572776
0.340947 0.12615 1.08 4284573031
0.35180801 0.12906399 1.105 4283980892
0.358951 0.130577 1.118 4284243803
0.36389801 0.131273 1.124 4282993990
0.36724499 0.131384 1.125 4282665278
0.37026799 0.13137899 1.125 4282270005
0.372628 0.13113999 1.123 4282598715
0.37631601 0.13136899 1.125 4282269752
0.37933999 0.131364 1.125 4282467131
0.382364 0.13135999 1.125 4282598201
0.38538799 0.131356 1.125 4282795835
0.38841301 0.13135099 1.125 4282401075
0.39143899 0.131347 1.125 4282598454
0.39446399 0.13134401 1.125 4282663731
0.39748999 0.13134 1.125 4282597940
0.400516 0.131336 1.125 4282795065
0.403543 0.13133299 1.125 4282334515
0.40620899 0.13121299 1.124 4281808685
0.40850601 0.130977 1.122 4282269236
0.41115901 0.130858 1.1210001 4282137650
0.414547 0.130972 1.122 4282598201
0.417568 0.13097 1.122 4282071343
0.42021501 0.130851 1.1210001 4282465847
0.422858 0.130733 1.12 4282136621
0.42587599 0.130731 1.12 4281939756
0.42851099 0.130613 1.119 4282005801
0.431142 0.130495 1.118 4282335021
0.433768 0.13037799 1.117 4282861365
0.43678099 0.13037699 1.117 4282796086
0.439401 0.13026001 1.1160001 4282927158
0.44122401 0.12991001 1.113 4282269228
0.44343001 0.129677 1.1109999 4282400300
0.44602799 0.12956101 1.11 4282202921
0.44902599 0.12956101 1.11 4282729012
0.45121101 0.129329 1.108 4283452735
0.45338601 0.129097 1.1059999 4283189563
0.45555201 0.128865 1.104 4283584321
0.45770699 0.12863301 1.102 4283321663
0.46110699 0.12875199 1.103 4283716935
0.46367201 0.128638 1.102 4283849037
0.46623299 0.12852401 1.101 4284770654
0.46793801 0.128177 1.098 4284112470
0.470056 0.127947 1.096 4284309335
0.471302 0.127483 1.092 4284243542
0.47383001 0.127371 1.091 4284178263
0.47591701 0.127141 1.089 4285033826
0.47799501 0.126913 1.087 4284771168
0.47962099 0.12656701 1.084 4285231719
0.482568 0.126573 1.084 4285560431
0.48462 0.12634499 1.082 4286350461
0.48621199 0.126 1.079 4287008137
0.48733699 0.125539 1.075 4286876811
0.48935401 0.125312 1.073 4287534487
0.49136099 0.12508599 1.071 4287797659
0.49289799 0.124743 1.068 4287797660
0.49395499 0.124283 1.064 4287665816
0.49592701 0.124058 1.062 4286744714
0.497421 0.123716 1.059 4287928988
0.497482 0.123023 1.053 4288389023
0.49941301 0.122799 1.051 4287073417
-0.199489 0.127482 1.114 4286413942
-0.196307 0.12737501 1.113 4286414456
-0.193129 0.127268 1.112 4286940802
-0.190128 0.127275 1.112 4287137926
-0.18678901 0.12705299 1.11 4287598477
-0.183792 0.12706 1.11 4286874754
-0.180957 0.12718201 1.1109999 4286874754
-0.178277 0.127418 1.113 4287071619
-0.17511301 0.12730999 1.112 4287268998
-0.171645 0.126973 1.109 4287664270
-0.1688 0.127095 1.11 4287467661
-0.165801 0.127101 1.11 4287993751
-0.162801 0.12710799 1.11 4287862167
-0.159657 0.127 1.109 4287796374
-0.15623499 0.126663 1.1059999 4288322204
-0.153244 0.126669 1.1059999 4288322463
-0.14998201 0.12644599 1.104 4288256670
-0.14699601 0.126453 1.104 4289046186
-0.14401001 0.126459 1.104 4289177772
-0.141023 0.12646499 1.104 4287664788
-0.13791101 0.12635601 1.103 4288124823
-0.134804 0.126247 1.102 4288059030
-0.13146301 0.125909 1.099 4288914337
-0.12825499 0.125686 1.097 4287993237
-0.125286 0.125691 1.097 4288190616
-0.122427 0.125811 1.098 4288256925
-0.119345 0.12570199 1.097 4289178025
-0.116057 0.12536301 1.094 4288520095
-0.11268 0.12491 1.09 4288717476
-0.109829 0.125029 1.091 4288454302
-0.106874 0.125034 1.091 4289177511
-0.103918 0.125039 1.091 4288519067
-0.100777 0.124814 1.089 4288847516
-0.097736403 0.124704 1.0880001 4288189072
-0.094700903 0.124594 1.087 4287596681
-0.091586098 0.124369 1.085 4288123795
-0.088481799 0.124143 1.0829999 4287794830
-0.0854671 0.124033 1.082 4287532688
-0.082457602 0.123922 1.081 4287137928
-0.079453297 0.123811 1.08 4287532684
-0.076454103 0.1237 1.079 4287269512
-0.0735282 0.123703 1.079 4286546044
-0.070667498 0.123821 1.08 4286348665
-0.067738503 0.123824 1.08 4287400839
-0.064749204 0.123713 1.079 4286875009
-0.061765201 0.123601 1.0779999 4286874754
-0.058786299 0.123489 1.077 4286282103
-0.055916499 0.123607 1.0779999 4286479482
-0.052991901 0.123609 1.0779999 4285821038
-0.050020602 0.123497 1.077 4285492326
-0.047054701 0.123385 1.076 4285163360
-0.044135001 0.123387 1.076 4285492065
-0.041291699 0.123618 1.0779999 4285360993
-0.038295198 0.123391 1.076 4285229154
-0.0353751 0.123392 1.076 4285492326
-0.032485001 0.123509 1.077 4285097568
-0.029562 0.12351 1.077 4285360226
-0.0266141 0.123397 1.076 4285031260
-0.023693601 0.123398 1.076 4284834131
-0.020811601 0.123628 1.0779999 4283913027
-0.0179187 0.123859 1.08 4284570442
-0.015001 0.123974 1.081 4284373578
-0.0120666 0.123975 1.081 4284439371
-0.0091491304 0.124205 1.0829999 4283913029
-0.0062264898 0.124549 1.086 4283978568
-0.00328753 0.124893 1.089 4283978568
-0.00033166501 0.125008 1.09 4283781443
0.0026344501 0.125352 1.0930001 4283584067
0.00561172 0.125581 1.095 4284308044
0.0086076697 0.125925 1.098 4283979079
0.0115882 0.125925 1.098 4283781700
0.014582 0.126039 1.099 4283781698
0.0175652 0.126038 1.099 4284110663
0.0206044 0.12638099 1.102 4284110663
0.023616901 0.126495 1.103 4284307787
0.0266349 0.126608 1.104 4284176201
0.0296582 0.12672099 1.105 4283912259
0.0327163 0.126949 1.107 4283781189
0.035720699 0.126948 1.107 4284044872
0.038759999 0.12706099 1.108 4283978820
0.0417668 0.127059 1.108 4284176199
0.044894699 0.12740099 1.1109999 4283715648
0.047952499 0.12751301 1.112 4284109892
0.051015601 0.127626 1.113 4283715648
0.054035399 0.12762301 1.113 4284176201
0.0570038 0.127506 1.112 4284439119
0.060020499 0.12750299 1.112 4284110411
0.062980302 0.127386 1.1109999 4284570962
0.066112697 0.12761199 1.113 4284702548
0.069193602 0.12772299 1.114 4284571216
0.072150096 0.12760501 1.113 4284768595
0.075100899 0.127487 1.112 4285031767
0.078186601 0.127599 1.113 4285031513
0.0812774 0.12771 1.114 4285097307
0.0843734 0.12782 1.115 4285162846
0.087396197 0.12781601 1.115 4284702295
0.090499803 0.12792701 1.1160001 4284899674
0.093524702 0.127923 1.1160001 4285097307
0.096549302 0.127919 1.1160001 4284834134
0.099573702 0.127914 1.1160001 4285294686
0.10269 0.128024 1.117 4285228893
0.105621 0.127905 1.1160001 4285097567
0.108742 0.128015 1.117 4285492325
0.111768 0.12801 1.117 4285228639
0.114999 0.128234 1.119 4285294686
0.118029 0.12822901 1.119 4284768342
0.12106 0.128224 1.119 4285360993
0.12409 0.128218 1.119 4285493093
0.127005 0.128098 1.118 4285559147
0.130032 0.128093 1.118 4285821805
0.133058 0.128087 1.118 4285887598
0.13608301 0.12808099 1.118 4286479223
0.13898399 0.12796099 1.117 4285426535
0.141752 0.127726 1.115 4285887084
0.144769 0.12772 1.115 4285953391
0.147917 0.127828 1.1160001 4285887851
0.151206 0.128051 1.118 4285427300
0.154367 0.128159 1.119 4285493609
0.157252 0.128039 1.118 4286941053
0.16013101 0.127918 1.117 4286678398
0.16285899 0.127682 1.115 4287007110
0.165723 0.127561 1.114 4287599247
0.168431 0.127325 1.112 4287402128
0.171281 0.127204 1.1109999 4286809991
0.174283 0.127197 1.1109999 4287336335
0.17712399 0.127076 1.11 4287862679
0.180122 0.127069 1.11 4287731093
0.182955 0.126947 1.109 4287664786
0.185949 0.12694 1.109 4287401614
0.188603 0.12670401 1.107 4287533200
0.191245 0.126468 1.105 4288191646
0.194051 0.12634701 1.104 4288192161
0.19703101 0.126339 1.104 4288981423
0.199828 0.12621801 1.103 4288981681
0.202804 0.12621 1.103 4288520876
0.205593 0.12608799 1.102 4288785077
0.20837601 0.125967 1.101 4289179835
0.210961 0.12572999 1.099 4288785847
0.21373001 0.125608 1.098 4289443777
0.216492 0.125487 1.097 4289246397
0.219449 0.125479 1.097 4289443776
0.222001 0.12524299 1.095 4290627536
0.224746 0.125121 1.094 4289574334
0.22706901 0.12477 1.091 4289771972
0.230009 0.124763 1.091 4290692815
0.23294801 0.124755 1.091 4290034885
0.23588599 0.124748 1.091 4290693074
0.238168 0.124397 1.0880001 4290298316
0.24065401 0.124161 1.086 4290232523
0.242906 0.12381 1.0829999 4290692822
0.24536701 0.123574 1.081 4290692823
0.24781799 0.123338 1.079 4290363857
0.25025699 0.123102 1.077 4290232525
0.25315499 0.123094 1.077 4291021525
0.25605401 0.123087 1.077 4290889939
0.25847101 0.122851 1.075 4290495695
0.260876 0.122615 1.073 4290561490
0.26302499 0.122265 1.0700001 4291547871
0.26565501 0.122143 1.069 4291021527
0.26777601 0.121793 1.066 4291087320
0.270643 0.121786 1.066 4290626252
0.27248299 0.121322 1.062 4290560713
0.27456099 0.120972 1.059 4290626506
0.27636001 0.120508 1.0549999 4290692815
0.27813801 0.120044 1.051 4291416797
0.279627 0.119466 1.046 4291022555
0.28108799 0.118889 1.041 4291088864
0.28224999 0.118197 1.035 4290628313
0.28393 0.117733 1.031 4291154655
0.28558901 0.11727 1.027 4290956246
0.288068 0.117149 1.026 4290626767
0.29025799 0.116915 1.024 4289903558
0.29157901 0.116338 1.0190001 4289705920
0.292873 0.115761 1.0140001 4289837759
0.29501399 0.115526 1.012 4288719278
0.29802701 0.115634 1.013 4288126371
0.30015501 0.1154 1.011 4287533977
0.30317101 0.115508 1.012 4287205266
0.30619201 0.115617 1.013 4286415750
0.31013399 0.116068 1.017 4285100143
0.31409699 0.116519 1.021 4284508006
0.32025301 0.117769 1.0319999 4284310625
0.328347 0.119703 1.049 4284573797
0.34063599 0.123121 1.079 4284573797
0.35117701 0.125854 1.103 4284244317
0.35831401 0.127332 1.1160001 4284047192
0.36260799 0.127783 1.12 4282993990
0.36627099 0.128006 1.122 4282533438
0.369286 0.128001 1.122 4282467899
0.37196901 0.127882 1.1210001 4282598970
0.37598601 0.12821899 1.124 4282402106
0.37934399 0.12832899 1.125 4282796094
0.382368 0.128324 1.125 4282401591
0.38505 0.128206 1.124 4283059519
0.38807201 0.12820201 1.124 4282598454
0.39109501 0.128198 1.124 4282664500
0.393767 0.12808 1.123 4282467121
0.39678699 0.128076 1.123 4282466607
0.39980799 0.12807301 1.123 4282532145
0.40246999 0.127955 1.122 4282597940
0.40476599 0.12772401 1.12 4281874217
0.40705201 0.12749299 1.118 4282268721
0.41042799 0.12760501 1.119 4282729787
0.41381001 0.127716 1.12 4282926651
0.41682601 0.12771399 1.12 4282269489
0.41946799 0.127598 1.119 4282466354
0.42248201 0.12759601 1.119 4282400559
0.425497 0.12759501 1.119 4282334766
0.42851201 0.127593 1.119 4282203180
0.43114299 0.127478 1.118 4282400814
0.43376899 0.127363 1.117 4282796086
0.436782 0.127363 1.117 4283124537
0.439008 0.127134 1.115 4282992437
0.44082701 0.126792 1.112 4282597679
0.44303 0.126564 1.11 4282663472
0.44522399 0.12633701 1.108 4282663472
0.448621 0.126451 1.109 4282860596
0.45080301 0.126224 1.107 4283321149
0.452975 0.12599701 1.105 4282992182
0.45513701 0.125771 1.103 4283650114
0.45728999 0.125544 1.101 4283321663
0.459851 0.125432 1.1 4283585349
0.46282801 0.12543499 1.1 4283783758
0.46580699 0.12543701 1.1 4284507482
0.467935 0.125212 1.098 4284375642
0.47005299 0.124987 1.096 4284178263
0.47172999 0.124649 1.0930001 4284178263
0.47382599 0.124424 1.091 4284441435
0.475476 0.124086 1.0880001 4285560170
0.47799 0.123977 1.087 4284770654
0.47961599 0.123639 1.084 4285494377
0.482117 0.12353 1.0829999 4285297258
0.484166 0.123308 1.081 4286087289
0.48530501 0.122857 1.077 4286350207
0.48687699 0.122521 1.074 4287271567
0.48889101 0.122299 1.072 4287402901
0.49043599 0.121964 1.069 4287468694
0.49242899 0.121743 1.067 4287731867
0.49348399 0.121294 1.063 4287995035
0.49545199 0.121073 1.061 4287139726
0.49694201 0.120739 1.058 4288060060
0.497473 0.120177 1.053 4288915369
0.49940401 0.119957 1.051 4287072903
-0.199497 0.124469 1.114 4286677114
-0.19649 0.124476 1.114 4285953905
-0.19330999 0.124372 1.113 4286282870
-0.19030599 0.124379 1.113 4287137926
-0.18696401 0.124162 1.1109999 4287335307
-0.183965 0.124169 1.1109999 4286808963
-0.18129 0.1244 1.113 4286545791
-0.178444 0.124518 1.114 4287071619
-0.17527799 0.124413 1.113 4287268998
-0.171652 0.123973 1.109 4287401098
-0.16865499 0.12398 1.109 4287533454
-0.16580699 0.124098 1.11 4287993751
-0.162661 0.123993 1.109 4287664788
-0.15966301 0.123999 1.109 4287664788
-0.156524 0.123893 1.108 4288453790
-0.153666 0.124011 1.109 4287993498
-0.150396 0.123794 1.107 4288388256
-0.147135 0.123576 1.105 4288848807
-0.144016 0.123471 1.104 4288585635
-0.141029 0.123476 1.104 4287730581
-0.138042 0.123482 1.104 4287927444
-0.134932 0.123376 1.103 4288058516
-0.131708 0.123158 1.101 4289045925
-0.12849399 0.12294 1.099 4287927444
-0.125405 0.122833 1.098 4288453788
-0.122432 0.122838 1.098 4288454304
-0.119242 0.12262 1.096 4289046441
-0.116062 0.122401 1.094 4288520097
-0.112892 0.122182 1.092 4288915369
-0.110035 0.122299 1.0930001 4288585888
-0.107074 0.122304 1.0930001 4289506990
-0.104113 0.122308 1.0930001 4288848032
-0.101059 0.122201 1.092 4288781723
-0.098010197 0.122093 1.091 4287729035
-0.094879299 0.121874 1.089 4287531658
-0.091674604 0.121542 1.086 4287926416
-0.088567503 0.121322 1.084 4287926162
-0.085550003 0.121214 1.0829999 4287663504
-0.082537599 0.121106 1.082 4287269000
-0.079530403 0.120998 1.081 4287400584
-0.076386698 0.120665 1.0779999 4287532425
-0.073463403 0.120669 1.0779999 4286348663
-0.070474498 0.12056 1.077 4286085491
-0.067678899 0.120787 1.079 4287269253
-0.0646322 0.120566 1.077 4286677630
-0.061767999 0.120681 1.0779999 4286940033
-0.0587891 0.120572 1.077 4286742654
-0.0559191 0.120687 1.0779999 4286347896
-0.0529943 0.120689 1.0779999 4286084210
-0.0500229 0.120579 1.077 4285360740
-0.047056802 0.12047 1.076 4285229153
-0.044178002 0.120584 1.077 4285294686
-0.041331999 0.12081 1.079 4285163614
-0.038368098 0.1207 1.0779999 4285229153
-0.035442501 0.120701 1.0779999 4285360225
-0.032516699 0.120703 1.0779999 4284899674
-0.0296182 0.120816 1.079 4285228639
-0.0266895 0.120818 1.079 4285228893
-0.023738701 0.120707 1.0779999 4284899924
-0.0208512 0.120932 1.08 4284373578
-0.017936099 0.121045 1.081 4284636235
-0.0150156 0.121157 1.082 4284373064
-0.0120895 0.12127 1.0829999 4284241994
-0.00914957 0.121271 1.0829999 4283781189
-0.0062267799 0.121607 1.086 4283977799
-0.00328768 0.121943 1.089 4283386432
-0.00033168 0.122055 1.09 4283649603
0.00263457 0.122391 1.0930001 4284044618
0.0056119799 0.122615 1.095 4284110665
0.0086159101 0.123062 1.099 4283979077
0.0115993 0.123062 1.099 4283452733
0.0145959 0.123173 1.1 4283715905
0.017581999 0.123172 1.1 4283913027
0.0206053 0.123395 1.102 4284241992
0.0235752 0.123282 1.101 4284175947
0.0265879 0.123393 1.102 4284109640
0.029605901 0.123504 1.103 4284109640
0.032688301 0.123838 1.1059999 4283583810
0.035722401 0.123949 1.107 4284044618
0.038726799 0.123947 1.107 4284241994
0.0418064 0.124169 1.109 4284307784
0.0448968 0.124391 1.1109999 4283781441
0.047954801 0.124501 1.112 4283847234
0.050972201 0.124499 1.112 4284044613
0.053989399 0.124496 1.112 4283978825
0.0569552 0.124382 1.1109999 4284110411
0.059969299 0.124379 1.1109999 4284373583
0.062926501 0.124264 1.11 4284834388
0.066056401 0.124485 1.112 4284702802
0.069072597 0.124482 1.112 4284439628
0.072088599 0.124479 1.112 4284505421
0.075036801 0.124364 1.1109999 4285097558
0.078119896 0.124472 1.112 4284834388
0.081208199 0.12458 1.113 4284965721
0.084301598 0.124689 1.114 4285031514
0.087400101 0.124797 1.115 4285097053
0.090422802 0.124793 1.115 4284702295
0.0934451 0.124789 1.115 4284965721
0.0964671 0.124784 1.115 4284636756
0.099488899 0.12478 1.115 4284965981
0.10251 0.124776 1.115 4284505430
0.105531 0.124771 1.115 4285163360
0.10865 0.124878 1.1160001 4285426532
0.111673 0.124874 1.1160001 4285426018
0.114901 0.125092 1.118 4285360225
0.118035 0.12519901 1.119 4284570963
0.121065 0.125194 1.119 4285097821
0.124095 0.12518901 1.119 4285361507
0.127011 0.125072 1.118 4285295975
0.13003699 0.125066 1.118 4285690733
0.133182 0.125173 1.119 4285887598
0.136089 0.125055 1.118 4286610807
0.13911501 0.125049 1.118 4285558119
0.14214 0.125044 1.118 4285887084
0.145164 0.125038 1.118 4286545014
0.148321 0.12514301 1.119 4285887853
0.151347 0.125137 1.119 4285558888
0.154374 0.125131 1.119 4285493609
0.15711799 0.124901 1.117 4287006848
0.15999401 0.124783 1.1160001 4286809214
0.162865 0.124665 1.115 4286809731
0.16573 0.124547 1.114 4287598993
0.168438 0.124316 1.112 4287599507
0.171134 0.124086 1.11 4286744198
0.173976 0.123968 1.109 4287336589
0.177131 0.124073 1.11 4287928726
0.18012901 0.124066 1.11 4287862419
0.182962 0.123947 1.109 4287796626
0.185789 0.123829 1.108 4287204235
0.18861 0.12371 1.107 4287533200
0.191425 0.123591 1.1059999 4288783267
0.194234 0.123472 1.105 4288059805
0.19703799 0.123353 1.104 4288784044
0.199836 0.123234 1.103 4289047216
0.202627 0.123116 1.102 4288323751
0.205787 0.12322 1.103 4288719284
0.20838299 0.122989 1.101 4288916665
0.21116 0.12287 1.1 4288654261
0.21393199 0.122751 1.099 4289377984
0.2165 0.122521 1.097 4289312190
0.219457 0.122513 1.097 4289246397
0.222211 0.122394 1.096 4290692815
0.224959 0.122275 1.095 4289574332
0.227285 0.121933 1.092 4290100678
0.23001599 0.121814 1.091 4290758606
0.232528 0.121583 1.089 4290100678
0.235461 0.121575 1.089 4290890708
0.238175 0.121456 1.0880001 4290298316
0.24066199 0.121226 1.086 4290100937
0.242689 0.120772 1.082 4290561490
0.244921 0.12043 1.079 4290429650
0.247366 0.120199 1.077 4290232525
0.25026399 0.120192 1.077 4289903560
0.25316301 0.120184 1.077 4291021525
0.25606099 0.120177 1.077 4291153111
0.25847799 0.119947 1.075 4290298316
0.261127 0.119828 1.074 4290561490
0.263033 0.119374 1.0700001 4291351006
0.26566201 0.119255 1.069 4290824662
0.267784 0.118914 1.066 4290824146
0.270904 0.119018 1.067 4290363595
0.27274701 0.118565 1.063 4290494663
0.27430901 0.118 1.058 4290429127
0.27610499 0.117547 1.054 4290560713
0.27814499 0.117206 1.051 4291351004
0.27963299 0.116641 1.046 4290759383
0.281095 0.116077 1.041 4291220450
0.282529 0.115513 1.036 4290694106
0.28421199 0.115061 1.0319999 4291023071
0.285873 0.114608 1.028 4291087834
0.28779301 0.114267 1.025 4290693076
0.28969699 0.113927 1.022 4289640386
0.291013 0.113363 1.017 4289640127
0.292301 0.1128 1.012 4290100161
0.29443699 0.112571 1.01 4288587692
0.29685599 0.112454 1.0089999 4287731613
0.29986399 0.112559 1.01 4287797406
0.30287701 0.112665 1.011 4287007633
0.306198 0.112882 1.013 4286152835
0.310139 0.113323 1.017 4284968557
0.31471699 0.113986 1.023 4284639592
0.32056901 0.115094 1.033 4283850074
0.328666 0.116983 1.05 4284310625
0.34032601 0.120097 1.0779999 4284508004
0.35086399 0.122766 1.102 4284112731
0.357678 0.124097 1.114 4283915606
0.36228999 0.124649 1.119 4282599746
0.365623 0.124755 1.12 4282467645
0.36896199 0.124861 1.1210001 4282204727
0.37197399 0.124856 1.1210001 4282401589
0.37565601 0.125074 1.123 4282598970
0.37934899 0.125293 1.125 4282533177
0.38203299 0.125177 1.124 4282598970
0.38436899 0.12495 1.122 4282664763
0.38738599 0.124946 1.122 4282533175
0.39040199 0.124942 1.122 4282796087
0.39342001 0.124938 1.122 4282598707
0.39608401 0.124823 1.1210001 4282729779
0.39909899 0.12482 1.1210001 4282795572
0.40175599 0.124705 1.12 4282532145
0.40440801 0.124591 1.119 4282005803
0.40705499 0.124476 1.118 4282202928
0.410431 0.124585 1.119 4282729272
0.413443 0.124583 1.119 4282926651
0.41608399 0.124469 1.118 4282532147
0.41872001 0.124356 1.117 4282466352
0.42172799 0.124354 1.117 4282269228
0.425118 0.124464 1.118 4282137387
0.42813101 0.124462 1.118 4282137389
0.430758 0.12435 1.117 4282005803
0.43377 0.124349 1.117 4282860858
0.436391 0.124237 1.1160001 4283124284
0.43940201 0.124237 1.1160001 4282794805
0.44082701 0.123791 1.112 4282597426
0.44303 0.123568 1.11 4282794546
0.445223 0.123346 1.108 4282794546
0.44861999 0.123458 1.109 4282728753
0.450802 0.123236 1.107 4283255609
0.453794 0.123237 1.107 4282860851
0.45596099 0.123016 1.105 4283387709
0.458119 0.122795 1.103 4283190591
0.46068501 0.122686 1.102 4283585863
0.463247 0.122576 1.101 4283520586
0.464957 0.122245 1.098 4284638298
0.46707901 0.122025 1.096 4284506459
0.469192 0.121805 1.094 4284375643
0.471726 0.121697 1.0930001 4284441436
0.473822 0.121478 1.091 4284441436
0.47590899 0.12126 1.089 4285428331
0.47798601 0.121041 1.087 4284704608
0.48005301 0.120823 1.085 4285165159
0.48211199 0.120605 1.0829999 4285363052
0.48416099 0.120388 1.081 4286086775
0.48574999 0.120059 1.0779999 4286416254
0.486871 0.119619 1.074 4287402895
0.488884 0.119403 1.072 4287732120
0.48997101 0.118964 1.068 4287732120
0.49149901 0.118636 1.0650001 4287995038
0.49254799 0.118198 1.061 4287929242
0.49451101 0.117983 1.059 4286679432
0.49599499 0.117656 1.056 4287797402
0.49699199 0.117219 1.052 4288323747
0.49987 0.117227 1.052 4287204749
-0.199504 0.121456 1.114 4286545528
-0.196321 0.121354 1.113 4286216565
-0.193317 0.121361 1.113 4286742909
-0.19014201 0.121259 1.112 4287006342
-0.18714 0.121266 1.112 4287466893
-0.183971 0.121163 1.1109999 4286808963
-0.181297 0.121388 1.113 4286611582
-0.178611 0.121613 1.115 4287005826
-0.175284 0.121402 1.113 4287137926
-0.171968 0.12119 1.1109999 4287467409
-0.168662 0.120979 1.109 4287598995
-0.165665 0.120985 1.109 4287796119
-0.16281401 0.1211 1.11 4287532947
-0.159813 0.121107 1.11 4288388256
-0.156812 0.121113 1.11 4288519583
-0.153534 0.120901 1.108 4288322718
