# .PCD v0.7 - Point Cloud Data file format
VERSION 0.7
FIELDS x y z rgb
SIZE 4 4 4 4
TYPE F F F U
COUNT 1 1 1 1
WIDTH 1105
HEIGHT 1
VIEWPOINT 0 0 0 1 0 0 0
POINTS 1105
DATA ascii
-0.0506185 -0.14261401 0.74400002 4283779120
-0.0486692 -0.142809 0.745 4283779374
-0.046714399 -0.143004 0.74599999 4283713579
-0.0446941 -0.143007 0.74599999 4283845165
-0.042730901 -0.14320099 0.74699998 4283910958
-0.040707599 -0.143204 0.74699998 4283713579
-0.038684301 -0.143206 0.74699998 4283976751
-0.036709901 -0.143401 0.74800003 4283779372
-0.034729999 -0.143595 0.74900001 4283713581
-0.032701001 -0.14359701 0.74900001 4283648304
-0.0306718 -0.143599 0.74900001 4283582256
-0.028604301 -0.143409 0.74800003 4283713842
-0.0265777 -0.143411 0.74800003 4283779890
-0.024518199 -0.14322101 0.74699998 4283846195
-0.022554399 -0.14360601 0.74900001 4283911474
-0.0205523 -0.14379901 0.75 4284042544
-0.018495301 -0.143609 0.74900001 4283910958
-0.0164218 -0.143226 0.74699998 4283911727
-0.0143975 -0.143227 0.74699998 4283911728
-0.0124395 -0.143995 0.75099999 4284109107
-0.0105151 -0.14553 0.759 4284043314
-0.00863655 -0.148598 0.77499998 4284043314
-0.0067640101 -0.153776 0.80199999 4283977521
-0.00488248 -0.163555 0.85299999 4284043314
-0.00267629 -0.170266 0.88800001 4284043314
-0.00026853601 -0.16949899 0.884 4283714349
0.00209588 -0.167007 0.87099999 4284042544
0.00632184 -0.115044 0.60000002 4285295716
0.0077093998 -0.111592 0.58200002 4284836708
0.0092227701 -0.110825 0.57800001 4285690733
0.0107518 -0.110441 0.57599998 4283387202
0.0122913 -0.110248 0.57499999 4283452988
0.0138253 -0.110055 0.574 4282926131
0.0153539 -0.109863 0.57300001 4282860338
0.0169065 -0.109862 0.57300001 4282662959
0.018426901 -0.109669 0.57200003 4282662445
0.0200116 -0.109859 0.57300001 4282662445
0.0216018 -0.11005 0.574 4282333994
0.023237601 -0.110432 0.57599998 4281808163
0.024711899 -0.110047 0.574 4281742370
0.026221201 -0.109853 0.57300001 4281610784
0.027724899 -0.10966 0.57200003 4281741597
0.0293255 -0.10985 0.57300001 4282333987
0.030877599 -0.109848 0.57300001 4282662698
0.032542799 -0.110229 0.57499999 4282662699
0.0341594 -0.110419 0.57599998 4282070308
0.035657302 -0.110225 0.57499999 4281478688
0.037149701 -0.110031 0.574 4281544227
0.038771398 -0.11022 0.57499999 4280952344
0.040328398 -0.110217 0.57499999 4281807137
0.041812301 -0.110023 0.574 4282399527
0.0432152 -0.109637 0.57200003 4282004769
0.044763699 -0.109634 0.57200003 4282136354
0.046393 -0.109823 0.57300001 4281938975
0.047860298 -0.109628 0.57200003 4281413146
0.049408399 -0.109625 0.57200003 4281281560
0.050956398 -0.109622 0.57200003 4281347353
0.052595999 -0.109811 0.57300001 4281215767
0.054051999 -0.109616 0.57200003 4282465320
0.0554052 -0.109229 0.56999999 4282531113
0.056747399 -0.108842 0.56800002 4282531112
0.058386501 -0.109031 0.56900001 4282794284
0.060136199 -0.10941 0.57099998 4282794284
0.0617886 -0.109598 0.57200003 4282267941
0.063335501 -0.109594 0.57200003 4282464806
0.064882196 -0.109591 0.57200003 4282333220
0.066312701 -0.109395 0.57099998 4282333219
0.068212897 -0.109966 0.574 4282399012
0.069764599 -0.109962 0.574 4282333734
0.073552601 -0.113406 0.59200001 4282333734
0.080738299 -0.12183 0.63599998 4282267426
0.092569701 -0.136766 0.71399999 4282333220
0.098072603 -0.14193299 0.741 4282333220
0.10048 -0.14250199 0.74400002 4282399013
0.102628 -0.14268699 0.745 4282333219
0.105061 -0.14325599 0.74800003 4282596391
0.107082 -0.14325 0.74800003 4282005283
0.109394 -0.143627 0.75 4280623629
0.111271 -0.14342999 0.74900001 4281479192
0.113142 -0.143232 0.74800003 4282268707
0.115007 -0.14303499 0.74699998 4283122725
0.117024 -0.143029 0.74699998 4283056416
0.118881 -0.142831 0.74599999 4283385384
0.120894 -0.14282501 0.74599999 4283977521
0.123072 -0.14301001 0.74699998 4283648556
0.12508801 -0.143003 0.74699998 4283516718
0.126763 -0.14261401 0.745 4284108855
0.128427 -0.142225 0.74299997 4283450409
0.130081 -0.141835 0.741 4283713579
0.13207901 -0.141829 0.741 4283910958
0.13389701 -0.14163101 0.74000001 4283647786
0.135892 -0.141624 0.74000001 4283845420
0.138447 -0.14219201 0.74299997 4283911211
0.14196201 -0.14371599 0.75099999 4284042797
0.14628699 -0.146006 0.76300001 4283977006
0.151455 -0.14906099 0.77899998 4283845935
0.157694 -0.153072 0.80000001 4283780656
0.156453 -0.149812 0.78299999 4284175928
0.15268999 -0.14425699 0.75400001 4282794537
0.151233 -0.14099801 0.73699999 4282136868
0.15072399 -0.138695 0.72500002 4282005542
0.14825501 -0.134672 0.704 4283718227
0.13586099 -0.121849 0.63700002 4284244064
0.127858 -0.113236 0.59200001 4282664249
0.12333 -0.107875 0.56400001 4287403416
0.122192 -0.105575 0.55199999 4288127402
0.121886 -0.10404 0.54400003 4286218117
0.122898 -0.103653 0.542 4284375913
0.124586 -0.103839 0.54299998 4283979866
0.125816 -0.103643 0.542 4283124553
0.12751 -0.10383 0.54299998 4283387466
0.12897199 -0.103825 0.54299998 4283321673
0.13067301 -0.104011 0.54400003 4283190085
0.13189501 -0.103815 0.54299998 4283650122
0.133356 -0.103811 0.54299998 4283386950
0.134569 -0.103615 0.542 4283255364
0.135776 -0.103419 0.54100001 4283190085
0.136978 -0.103224 0.54000002 4283256133
0.138688 -0.10341 0.54100001 4283320896
0.140402 -0.103597 0.542 4283320895
0.141599 -0.103401 0.54100001 4283189561
0.142526 -0.103015 0.53899997 4282992182
0.143709 -0.10282 0.53799999 4283189563
0.145696 -0.103198 0.54000002 4283189563
0.147148 -0.103193 0.54000002 4283386688
0.14832599 -0.102998 0.53899997 4283584068
0.149498 -0.102803 0.53799999 4283913547
0.15094499 -0.102799 0.53799999 4283452995
0.152959 -0.103178 0.54000002 4283584067
0.154983 -0.103556 0.542 4283386942
0.15961701 -0.105654 0.55299997 4282926651
0.170718 -0.111955 0.58600003 4283584581
0.214223 -0.13792799 0.722 4283189824
0.21856099 -0.139452 0.73000002 4283321410
0.221129 -0.13982999 0.73199999 4283847500
0.22340301 -0.140016 0.73299998 4283782477
0.225991 -0.140394 0.73500001 4283452995
0.228589 -0.140772 0.73699999 4283584581
0.230572 -0.14076801 0.73699999 4282729272
0.232871 -0.140956 0.73799998 4282992698
0.235176 -0.14114299 0.73900002 4282926389
0.237486 -0.141331 0.74000001 4283387195
0.239154 -0.14113601 0.73900002 4283781694
0.240817 -0.14094201 0.73799998 4284110398
0.242475 -0.14074799 0.73699999 4284044858
0.244792 -0.140937 0.73799998 4284241467
0.24677899 -0.14093401 0.73799998 4284241467
0.24910399 -0.141123 0.73900002 4284504639
0.25143501 -0.141311 0.74000001 4284570179
0.25274301 -0.140927 0.73799998 4283978558
0.25473201 -0.140926 0.73799998 4284175937
0.25637299 -0.140733 0.73699999 4284373316
0.25871 -0.14092299 0.73799998 4284307523
0.25999299 -0.14054 0.736 4284373316
0.26162201 -0.140348 0.73500001 4284439109
0.263246 -0.140156 0.73400003 4284438593
0.26522601 -0.140156 0.73400003 4284635972
0.26756999 -0.14034601 0.73500001 4284439362
0.269921 -0.14053699 0.736 4284636225
0.27264601 -0.140919 0.73799998 4284636227
0.27463901 -0.14092 0.73799998 4284504639
0.27475801 -0.139966 0.73299998 4284307777
0.274095 -0.13863 0.72600001 4282794538
0.27453601 -0.137868 0.722 4282531366
0.27495599 -0.137105 0.71799999 4282268454
0.27458301 -0.135961 0.71200001 4282531627
0.27417901 -0.134817 0.70599997 4282333994
0.27413401 -0.133865 0.70099998 4282202408
0.27445599 -0.133104 0.69700003 4282202408
0.27436101 -0.13215099 0.69199997 4282466093
0.274638 -0.131391 0.68800002 4282466093
0.27449301 -0.130439 0.68300003 4282335021
0.27513 -0.12987 0.68000001 4282598705
0.274937 -0.12891801 0.67500001 4282861877
0.27471799 -0.127968 0.67000002 4282664498
0.27364701 -0.126635 0.66299999 4283190328
0.27253899 -0.125302 0.65600002 4283519040
0.27181101 -0.124161 0.64999998 4284111179
0.27189401 -0.123402 0.64600003 4284704093
0.271108 -0.122261 0.63999999 4284902501
0.270717 -0.121312 0.63499999 4285626487
0.26944199 -0.11998 0.62800002 4286548109
0.269425 -0.119222 0.62400001 4287535263
0.26895201 -0.118273 0.61900002 4287601572
0.26888999 -0.117516 0.61500001 4287602086
0.26792699 -0.116376 0.60900003 4288457395
0.267818 -0.115619 0.60500002 4288194223
0.267243 -0.114671 0.60000002 4288786874
0.26708901 -0.113914 0.59600002 4288721081
0.26691499 -0.113158 0.59200001 4288852667
0.26581201 -0.112019 0.58600003 4288720567
0.26513401 -0.111072 0.58099997 4288786361
0.263971 -0.109933 0.57499999 4289049533
0.26231399 -0.108604 0.56800002 4289181633
0.25922599 -0.106701 0.55800003 4288721082
0.254682 -0.104225 0.54500002 4289444291
0.25053799 -0.101939 0.53299999 4289575363
0.242074 -0.097932003 0.51200002 4289444551
0.28000799 -0.0981289 0.51099998 4283848015
0.3145 -0.109673 0.57099998 4283584581
0.34878099 -0.121031 0.63 4282860598
0.361696 -0.1249 0.64999998 4282860598
0.36689699 -0.126081 0.65600002 4282992184
0.37325901 -0.127647 0.66399997 4283058491
0.383059 -0.13036799 0.67799997 4283650374
0.392373 -0.132899 0.69099998 4283781961
0.398341 -0.134278 0.69800001 4283715915
0.40263101 -0.13507999 0.70200002 4283782222
0.406371 -0.135692 0.70499998 4283913810
0.408972 -0.135919 0.70599997 4283650636
0.412747 -0.13653199 0.70899999 4283717196
0.41712701 -0.137339 0.713 4284177486
0.421534 -0.138147 0.71700001 4286809963
0.42478499 -0.13857 0.71899998 4286941035
0.42686501 -0.13861001 0.71899998 4287466865
0.429544 -0.138842 0.72000003 4287072105
0.432832 -0.13926899 0.722 4287137898
0.43613601 -0.139697 0.72399998 4287072613
0.440061 -0.140319 0.727 4287730035
0.44157401 -0.14016899 0.72600001 4287729786
0.44491801 -0.1406 0.72799999 4287137900
0.44705001 -0.140646 0.72799999 4286808935
0.449186 -0.140692 0.72799999 4286874726
0.45070699 -0.14054599 0.727 4287335277
0.45347199 -0.140788 0.72799999 4287072105
0.456247 -0.14103 0.72899997 4287203691
0.459032 -0.14127401 0.73000002 4287203693
0.46182701 -0.141519 0.73100001 4287268461
0.464634 -0.141765 0.73199999 4286609501
0.466813 -0.141818 0.73199999 4286280276
0.46835601 -0.141679 0.73100001 4286016587
0.47118601 -0.141928 0.73199999 4286280528
0.47402599 -0.142178 0.73299998 4286215249
0.47752801 -0.14262401 0.73500001 4286807386
0.47974101 -0.142682 0.73500001 4286347349
0.48326999 -0.143131 0.73699999 4285953106
0.48681799 -0.14358 0.73900002 4286742108
0.49038199 -0.144031 0.741 4286741854
0.49263501 -0.144095 0.741 4286676315
0.49289 -0.143576 0.73799998 4285820491
0.49380401 -0.143252 0.736 4286676054
0.49538499 -0.143124 0.73500001 4286281296
0.49899599 -0.143581 0.73699999 4286806872
-0.19966701 -0.140301 0.72399998 4287729533
-0.19881099 -0.14108101 0.72799999 4286939005
-0.196582 -0.140893 0.727 4289900700
-0.194359 -0.140705 0.72600001 4289571988
-0.19160999 -0.140129 0.72299999 4289900702
-0.189403 -0.13994101 0.722 4289769114
-0.18772 -0.140141 0.72299999 4289703321
-0.186288 -0.140534 0.72500002 4289900700
-0.18459199 -0.140734 0.72600001 4289703321
-0.18238699 -0.14054599 0.72500002 4290163872
-0.180685 -0.140746 0.72600001 4289440151
-0.17848501 -0.140558 0.72500002 4289769116
-0.17629001 -0.14037099 0.72399998 4290821804
-0.17386 -0.139989 0.722 4290295201
-0.17239299 -0.14038301 0.72399998 4289637271
-0.171856 -0.141553 0.73000002 4289899929
-0.173382 -0.14446799 0.745 4289768343
-0.176897 -0.149129 0.76899999 4289768343
-0.127471 -0.115612 0.59600002 4288583056
-0.125021 -0.114841 0.59200001 4284636249
-0.123635 -0.11504 0.59299999 4283912780
-0.121831 -0.114852 0.59200001 4283912775
-0.120033 -0.114663 0.59100002 4283715650
-0.118441 -0.114668 0.59100002 4283912512
-0.116848 -0.114674 0.59100002 4283780926
-0.115255 -0.114679 0.59100002 4283847226
-0.11347 -0.11449 0.58999997 4283715386
-0.111879 -0.114496 0.58999997 4283583547
-0.110289 -0.114501 0.58999997 4283255097
-0.108698 -0.114506 0.58999997 4283386685
-0.107107 -0.114511 0.58999997 4283715650
-0.105337 -0.114322 0.58899999 4283452478
-0.103924 -0.114522 0.58999997 4283518269
-0.102333 -0.114527 0.58999997 4283255096
-0.100741 -0.114532 0.58999997 4283452475
-0.098813497 -0.114149 0.588 4283188790
-0.097226903 -0.114154 0.588 4283451961
-0.095477402 -0.113965 0.58700001 4283320375
-0.094053201 -0.114164 0.588 4283254582
-0.092623301 -0.114363 0.58899999 4283188789
-0.091033399 -0.114368 0.58899999 4283452214
-0.0900506 -0.115149 0.59299999 4283254836
-0.090239398 -0.117485 0.60500002 4282399527
-0.091974199 -0.121956 0.62800002 4282399527
-0.092721999 -0.12526301 0.64499998 4282399527
-0.091403097 -0.12585001 0.648 4282860338
-0.090482898 -0.127021 0.65399998 4282729012
-0.089801297 -0.12858 0.662 4282728505
-0.0894752 -0.130721 0.67299998 4284768603
-0.088568501 -0.13208599 0.68000001 4285361001
-0.087496199 -0.133257 0.68599999 4285164399
-0.0863913 -0.134427 0.69199997 4284310120
-0.085253797 -0.135598 0.69800001 4284178534
-0.084202997 -0.13696299 0.70499998 4284573292
-0.082880802 -0.13793901 0.70999998 4284506983
-0.081759401 -0.139304 0.71700001 4284637794
-0.080488697 -0.14047401 0.72299999 4283847501
-0.078859396 -0.14106201 0.72600001 4282266920
-0.076790102 -0.140872 0.72500002 4282529317
-0.074726 -0.140683 0.72399998 4282594847
-0.072968602 -0.141076 0.72600001 4282858272
-0.0711025 -0.14127401 0.727 4283187237
-0.069230802 -0.141473 0.72799999 4283121444
-0.0674458 -0.141866 0.73000002 4283253028
-0.065470599 -0.14187001 0.73000002 4283121442
-0.0634951 -0.141874 0.73000002 4283121444
-0.061603799 -0.14207201 0.73100001 4283647788
-0.059870001 -0.14265899 0.73400003 4283581995
-0.058040999 -0.143052 0.736 4284042292
-0.056201 -0.143444 0.73799998 4284173879
-0.054203201 -0.143448 0.73799998 4284042292
-0.0522759 -0.143645 0.73900002 4284108085
-0.050275099 -0.143649 0.73900002 4283976499
-0.048404802 -0.144041 0.741 4284174130
-0.046398301 -0.144044 0.741 4284108337
-0.044451602 -0.14424101 0.74199998 4283845935
-0.0424993 -0.144438 0.74299997 4284174130
-0.040486999 -0.14444099 0.74299997 4284306486
-0.038422901 -0.14424901 0.74199998 4284372278
-0.0364131 -0.144252 0.74199998 4284503350
-0.0344496 -0.144448 0.74299997 4284897853
-0.032480501 -0.14464501 0.74400002 4284635451
-0.030506 -0.144841 0.745 4284503613
-0.0284495 -0.144649 0.74400002 4284766785
-0.026398299 -0.144456 0.74299997 4284701244
-0.0243525 -0.144264 0.74199998 4284372279
-0.0223723 -0.14445899 0.74299997 4284503864
-0.0203318 -0.14426599 0.74199998 4284438071
-0.0183213 -0.14426801 0.74199998 4284503862
-0.0163108 -0.144269 0.74199998 4284174899
-0.0143002 -0.14427 0.74199998 4283977520
-0.0123227 -0.14466 0.74400002 4284109106
-0.0104036 -0.14602099 0.75099999 4283911727
-0.0085134003 -0.14855 0.764 4283780142
-0.0066707898 -0.1538 0.79100001 4283780142
-0.0047848499 -0.16255 0.83600003 4283780142
-0.0026459701 -0.170717 0.87800002 4283911727
-0.00026699901 -0.170911 0.87900001 4283780142
0.00209093 -0.16896699 0.86900002 4283779372
0.0064162398 -0.118412 0.60900003 4284439891
0.00776187 -0.11394 0.58600003 4285823866
0.0092062 -0.112189 0.57700002 4283914314
0.010751 -0.111994 0.57599998 4283519293
0.0122904 -0.111799 0.57499999 4283057717
0.0138485 -0.111798 0.57499999 4283189303
0.0153529 -0.111408 0.57300001 4283189303
0.0168464 -0.111018 0.57099998 4282991924
0.0183935 -0.111017 0.57099998 4282728238
0.0199754 -0.11121 0.57200003 4282662699
0.0216003 -0.111598 0.574 4282005283
0.023236001 -0.111985 0.57599998 4281873954
0.024710299 -0.111595 0.574 4281479196
0.0262652 -0.111593 0.574 4281873954
0.027674699 -0.111008 0.57099998 4282596905
0.0292725 -0.111201 0.57200003 4282399526
0.0308217 -0.111199 0.57200003 4282202148
0.032540701 -0.11178 0.57499999 4282136101
0.034097899 -0.111778 0.57499999 4282596652
0.035530999 -0.111387 0.57300001 4282663217
0.0370179 -0.11119 0.57200003 4282465840
0.038634099 -0.111382 0.57300001 4282399274
0.0401855 -0.111379 0.57300001 4281872929
0.0417368 -0.111377 0.57300001 4282662185
0.043061402 -0.110791 0.56999999 4282399012
0.0445261 -0.110594 0.56900001 4281938461
0.0459853 -0.110396 0.56800002 4281873182
0.047606301 -0.110588 0.56900001 4282465319
0.049146201 -0.110585 0.56900001 4281610011
0.0507751 -0.110776 0.56999999 4282004769
0.052501 -0.111162 0.57200003 4282333734
0.054048698 -0.111158 0.57200003 4282465320
0.055498999 -0.110961 0.57099998 4282333734
0.056843899 -0.110568 0.56900001 4282399527
0.058382999 -0.110565 0.56900001 4282333734
0.060027301 -0.110756 0.56999999 4282596906
0.061568901 -0.110752 0.56999999 4282136355
0.063221 -0.110942 0.57099998 4282465320
0.064764999 -0.110939 0.57099998 4282333220
0.066192701 -0.110741 0.56999999 4282399012
0.068090104 -0.111319 0.57300001 4282399012
0.069882102 -0.111704 0.57499999 4282267940
0.074169502 -0.115973 0.597 4282136354
0.081749097 -0.125099 0.64399999 4282399012
0.092564397 -0.13869099 0.71399999 4282333734
0.097272903 -0.142765 0.73500001 4282333734
0.099933997 -0.143731 0.74000001 4282333219
0.101933 -0.14372499 0.74000001 4282333219
0.104353 -0.144302 0.74299997 4282399012
0.10636 -0.14429601 0.74299997 4282071075
0.108658 -0.144678 0.745 4281610778
0.11067 -0.14467201 0.745 4281281812
0.112228 -0.14408401 0.74199998 4282202654
0.114231 -0.144078 0.74199998 4283254312
0.116078 -0.143877 0.741 4283385383
0.118237 -0.14406499 0.74199998 4283516970
0.120078 -0.143865 0.741 4283780142
0.122242 -0.144053 0.74199998 4283845681
0.123909 -0.143658 0.74000001 4283779890
0.12556601 -0.143264 0.73799998 4283976753
0.127211 -0.142869 0.736 4283647786
0.129196 -0.14286201 0.736 4283779372
0.13100301 -0.142662 0.73500001 4283713579
0.132985 -0.142655 0.73500001 4283779372
0.134967 -0.14264899 0.73500001 4283384614
0.137695 -0.143419 0.73900002 4283713834
0.14101 -0.14477 0.74599999 4283582763
0.145705 -0.14748099 0.75999999 4283780142
0.15086401 -0.15057801 0.77600002 4283714349
0.15650401 -0.154064 0.79400003 4283649070
0.15464801 -0.150176 0.77399999 4283649330
0.15126599 -0.144931 0.74699998 4282662952
0.15020099 -0.142014 0.73199999 4281873696
0.14947 -0.139485 0.71899998 4281611043
0.145722 -0.134241 0.69199997 4283849813
0.13287 -0.12085 0.62300003 4283651413
0.126341 -0.113474 0.58499998 4283125829
0.122669 -0.108813 0.56099999 4287008407
0.121966 -0.106869 0.551 4288192679
0.122106 -0.1057 0.54500002 4285823359
0.123346 -0.105501 0.54400003 4283652444
0.124811 -0.105497 0.54400003 4283782485
0.12604301 -0.105298 0.54299998 4283650638
0.127505 -0.105293 0.54299998 4283584843
0.128967 -0.105288 0.54299998 4283519050
0.130188 -0.10509 0.542 4283584843
0.13164701 -0.105085 0.542 4283584329
0.13310599 -0.10508 0.542 4283387464
0.134564 -0.105076 0.542 4283058754
0.135772 -0.104877 0.54100001 4283387719
0.13697401 -0.104679 0.54000002 4283190340
0.138427 -0.104675 0.54000002 4283452995
0.13988 -0.10467 0.54000002 4283255102
0.14159501 -0.10486 0.54100001 4283189561
0.14252099 -0.104468 0.53899997 4283321402
0.143971 -0.104464 0.53899997 4282926389
0.145422 -0.104459 0.53899997 4283123768
0.146872 -0.104455 0.53899997 4283321149
0.147771 -0.104064 0.537 4283452735
0.148938 -0.103866 0.53600001 4283584067
0.15066101 -0.104056 0.537 4283321149
0.152955 -0.104633 0.54000002 4283321149
0.15498 -0.105017 0.542 4283255356
0.160767 -0.10792 0.55699998 4283255356
0.175375 -0.116635 0.602 4283321149
0.201398 -0.13271099 0.685 4283452735
0.21392199 -0.139681 0.72100002 4283321149
0.21706 -0.140451 0.72500002 4283452735
0.219614 -0.140835 0.727 4283649860
0.22217999 -0.14121801 0.72899997 4283386942
0.224757 -0.141601 0.73100001 4283321149
0.22734401 -0.141985 0.73299998 4283255356
0.22931699 -0.14198101 0.73299998 4283189561
0.231921 -0.14236499 0.73500001 4282926644
0.23358101 -0.142167 0.73400003 4282926385
0.235557 -0.14216401 0.73400003 4282860592
0.23688599 -0.141774 0.73199999 4283320112
0.238857 -0.141771 0.73199999 4283451953
0.241157 -0.14196099 0.73299998 4283517232
0.243462 -0.142152 0.73400003 4283319853
0.245774 -0.142344 0.73500001 4283583025
0.248091 -0.142535 0.736 4283780149
0.25007299 -0.142533 0.736 4283714870
0.25171399 -0.14233699 0.73500001 4283583284
0.25369501 -0.142336 0.73500001 4283912249
0.25498 -0.141947 0.73299998 4284109628
0.25695601 -0.141946 0.73299998 4283846456
0.25822601 -0.14155699 0.73100001 4284043837
0.26019701 -0.14155599 0.73100001 4284174907
0.262169 -0.14155599 0.73100001 4284241214
0.26414099 -0.14155599 0.73100001 4284109628
0.266114 -0.141555 0.73100001 4283978042
0.26845399 -0.14174899 0.73199999 4284109628
0.27079999 -0.14194299 0.73299998 4284307010
0.27277899 -0.14194401 0.73299998 4284043838
0.27326 -0.14117 0.72899997 4283978045
0.272964 -0.140009 0.72299999 4282728492
0.27301699 -0.139042 0.71799999 4282728492
0.27380899 -0.13846301 0.71499997 4282400041
0.27381399 -0.13749699 0.70999998 4282465320
0.27379301 -0.13653 0.70499998 4282333734
0.27335399 -0.135371 0.699 4282399526
0.273671 -0.134599 0.69499999 4282399526
0.27357101 -0.133633 0.69 4282400041
0.27384299 -0.132862 0.68599999 4282466091
0.27369201 -0.131897 0.68099999 4282466091
0.27351499 -0.130932 0.676 4282663984
0.27290499 -0.129774 0.67000002 4282861365
0.27226201 -0.12861601 0.66399997 4282795317
0.27241299 -0.127846 0.66000003 4283124284
0.27171201 -0.126688 0.65399998 4283321663
0.27181599 -0.125919 0.64999998 4284045900
0.271478 -0.124955 0.64499998 4284572760
0.27026701 -0.123605 0.63800001 4284902500
0.26944399 -0.122448 0.63200003 4285758070
0.268161 -0.121098 0.625 4286481799
0.26813599 -0.120329 0.62099999 4286943381
0.268089 -0.119561 0.61699998 4287338914
0.268022 -0.118792 0.61299998 4287733672
0.267055 -0.117637 0.60699999 4287865258
0.266498 -0.116675 0.602 4288128430
0.26591399 -0.115714 0.597 4288852153
0.26620099 -0.11514 0.59399998 4288852154
0.26557001 -0.114179 0.58899999 4288917693
0.26446 -0.113024 0.583 4288983486
0.26377401 -0.112064 0.57800001 4288720054
0.263062 -0.111103 0.57300001 4288983740
0.261861 -0.109949 0.56699997 4289115840
0.25784099 -0.107631 0.55500001 4289050047
0.25329 -0.10512 0.542 4289312965
0.248197 -0.102414 0.528 4289181379
0.240665 -0.098738201 0.509 4289707209
0.28276899 -0.100497 0.51599997 4283848017
0.32058299 -0.113375 0.58200002 4283584835
0.35212901 -0.12392 0.63599998 4282992184
0.363949 -0.127455 0.65399998 4282992184
0.36804399 -0.128263 0.65799999 4282861112
0.37160099 -0.128876 0.66100001 4283979339
0.37856901 -0.130661 0.67000002 4283913547
0.38843 -0.133423 0.68400002 4283781961
0.39552 -0.13521101 0.69300002 4283782477
0.40094399 -0.136416 0.699 4283913808
0.40467599 -0.137035 0.70200002 4283979601
0.40784901 -0.13746101 0.704 4284374359
0.411037 -0.137888 0.70599997 4283716937
0.41482401 -0.138511 0.70899999 4285625186
0.417456 -0.138744 0.70999998 4287007091
0.42068899 -0.139174 0.71200001 4287072623
0.42393601 -0.139604 0.71399999 4286874728
0.42719799 -0.140036 0.71600002 4287072105
0.429876 -0.140273 0.71700001 4286808933
0.43376899 -0.140902 0.72000003 4287006312
0.437078 -0.14133701 0.722 4286940521
0.43918499 -0.14138199 0.722 4287400821
0.44129601 -0.141427 0.722 4287466612
0.44341201 -0.141473 0.722 4287137647
0.44614801 -0.141716 0.72299999 4286611556
0.44765499 -0.14156801 0.722 4287072105
0.449783 -0.141616 0.722 4287006312
0.45254099 -0.141862 0.72299999 4287203691
0.45530999 -0.14210901 0.72399998 4287137900
0.45808899 -0.14235701 0.72500002 4287005803
0.46151301 -0.142803 0.727 4287135594
0.46431601 -0.143053 0.72799999 4286412376
0.46648899 -0.14310899 0.72799999 4285952067
0.469311 -0.143361 0.72899997 4286214976
0.47214299 -0.14361501 0.73000002 4286346572
0.47628701 -0.144264 0.73299998 4286610260
0.477842 -0.144126 0.73199999 4286281296
0.480708 -0.144384 0.73299998 4286544729
0.48292699 -0.144446 0.73299998 4285952339
0.48581299 -0.144706 0.73400003 4286741855
0.48804599 -0.14477 0.73400003 4286413142
0.48894799 -0.14444 0.73199999 4286083917
0.49185699 -0.144704 0.73299998 4285623365
0.494104 -0.14477099 0.73299998 4286477905
0.49703401 -0.14503799 0.73400003 4286806611
0.49861601 -0.14490999 0.73299998 4286740563
-0.19911 -0.14185899 0.722 4285492328
-0.19744 -0.142061 0.72299999 4289571241
-0.19495399 -0.141674 0.72100002 4289769883
-0.192747 -0.14148299 0.72000003 4290098587
-0.19080999 -0.141488 0.72000003 4289966493
-0.18887199 -0.14149401 0.72000003 4290032286
-0.187195 -0.14169601 0.72100002 4289900702
-0.18551201 -0.141899 0.722 4289966495
-0.183823 -0.142101 0.72299999 4290558632
-0.181374 -0.14171401 0.72100002 4289703323
-0.179932 -0.142113 0.72299999 4289900447
-0.177494 -0.141726 0.72100002 4290558891
-0.17531 -0.141536 0.72000003 4290558632
-0.17288999 -0.141149 0.71799999 4289965982
-0.171434 -0.14154799 0.72000003 4289505431
-0.170908 -0.14273401 0.72600001 4289768343
-0.171514 -0.144903 0.73699999 4290359965
-0.17343999 -0.148252 0.75400001 4290820516
-0.12810799 -0.117808 0.59899998 4288321157
-0.12564901 -0.117027 0.59500003 4284899670
-0.123838 -0.116835 0.59399998 4283715401
-0.121826 -0.116447 0.59200001 4283583811
-0.120434 -0.116649 0.59299999 4283386431
-0.118836 -0.116655 0.59299999 4283320892
-0.117436 -0.116857 0.59399998 4283846719
-0.11564 -0.116665 0.59299999 4283846719
-0.114041 -0.116671 0.59299999 4283518522
-0.112253 -0.116479 0.59200001 4283846719
-0.110657 -0.116485 0.59200001 4283518269
-0.109061 -0.11649 0.59200001 4283255099
-0.107465 -0.116495 0.59200001 4283320892
-0.105689 -0.116304 0.59100002 4283649857
-0.104095 -0.116309 0.59100002 4283386940
-0.102848 -0.116708 0.59299999 4283386682
-0.101078 -0.116516 0.59200001 4283386682
-0.099312499 -0.116324 0.59100002 4283320889
-0.097552501 -0.116133 0.58999997 4283583548
-0.096123002 -0.116334 0.59100002 4283451961
-0.0943681 -0.116143 0.58999997 4283188789
-0.092932902 -0.116344 0.59100002 4283123510
-0.091028497 -0.115956 0.58899999 4283584315
-0.090349503 -0.117142 0.59500003 4283320629
-0.090383597 -0.119312 0.60600001 4282267941
-0.092115603 -0.123846 0.62900001 4282267941
-0.092860602 -0.127198 0.64600003 4282267941
-0.0915391 -0.127794 0.64899999 4282597167
-0.090477802 -0.128784 0.65399998 4282662708
-0.089796297 -0.130364 0.662 4282662712
-0.089470103 -0.13253599 0.67299998 4284965214
-0.088563398 -0.133919 0.68000001 4285361003
-0.087491199 -0.135106 0.68599999 4284835434
-0.086261399 -0.136096 0.69099998 4284507499
-0.085126601 -0.137282 0.69700003 4284770671
-0.084198102 -0.138863 0.70499998 4284507753
-0.082992598 -0.14004999 0.71100003 4284638310
-0.081640497 -0.14104 0.71600002 4284703326
-0.080149896 -0.14183301 0.72000003 4282004778
-0.0783116 -0.14203399 0.72100002 4281937694
-0.076255903 -0.14184199 0.72000003 4282528800
-0.074308597 -0.141847 0.72000003 4282726433
-0.072562203 -0.14224499 0.722 4282989604
-0.070706896 -0.14244699 0.72299999 4283055651
-0.068941198 -0.142845 0.72500002 4283187751
-0.067072101 -0.14304601 0.72600001 4283187235
-0.065107703 -0.14305 0.72600001 4283253028
-0.063230202 -0.143251 0.727 4283384616
-0.0614314 -0.143649 0.72899997 4283581741
-0.0597031 -0.144244 0.73199999 4283713327
-0.057721902 -0.14424799 0.73199999 4283581488
-0.0558929 -0.144646 0.73400003 4283778867
-0.053906001 -0.144649 0.73400003 4284042293
-0.0519896 -0.14485 0.73500001 4283910706
-0.050067801 -0.14505 0.736 4284042546
-0.048075099 -0.145053 0.736 4283977521
-0.046082199 -0.14505599 0.736 4284240693
-0.044089299 -0.145059 0.736 4284372279
-0.042153399 -0.14525899 0.73699999 4284174900
-0.040266398 -0.145656 0.73900002 4284240692
-0.038161401 -0.145264 0.73699999 4284174899
-0.0362144 -0.145464 0.73799998 4284503350
-0.034261901 -0.14566299 0.73900002 4284239923
-0.0323474 -0.14606 0.741 4284240693
-0.030381201 -0.14625899 0.74199998 4284306234
-0.028294699 -0.145867 0.74000001 4284372027
-0.026289999 -0.145868 0.74000001 4284569658
-0.0242525 -0.14567301 0.73900002 4284306486
-0.022280499 -0.145872 0.74000001 4284372276
-0.020248201 -0.145676 0.73900002 4284503864
-0.018246001 -0.145677 0.73900002 4284503864
-0.0162657 -0.14587601 0.74000001 4284701757
-0.0142414 -0.145679 0.73900002 4284636208
-0.0122722 -0.146075 0.741 4285095999
-0.0103336 -0.14706101 0.74599999 4284898623
-0.00844598 -0.149427 0.75800002 4284767037
-0.0065860199 -0.153962 0.78100002 4284832576
-0.00469869 -0.16184799 0.82099998 4284767037
-0.0026126499 -0.17091601 0.86699998 4284767037
-0.00026455201 -0.17170499 0.87099999 4284569404
0.0020739399 -0.16993 0.86199999 4284766267
0.0064790202 -0.121237 0.61500001 4283453765
0.0078275697 -0.116506 0.59100002 4287270552
0.0092693996 -0.114534 0.58099997 4284703850
0.0107877 -0.113942 0.57800001 4283321402
0.0123537 -0.113941 0.57800001 4283189816
0.0138957 -0.113743 0.57700002 4283320629
0.0153787 -0.11315 0.574 4283386422
0.0169043 -0.112952 0.57300001 4283123250
0.0184245 -0.112754 0.57200003 4282662699
0.019974099 -0.112753 0.57200003 4282925871
0.021636499 -0.113343 0.57499999 4281610011
0.0232345 -0.113538 0.57599998 4281347353
0.0247948 -0.113537 0.57599998 4281478938
0.026355 -0.113535 0.57599998 4281611037
0.027866701 -0.113336 0.57499999 4281939743
0.029424099 -0.113334 0.57499999 4281938975
0.0310352 -0.113529 0.57599998 4282333734
0.032708298 -0.113921 0.57800001 4282201894
0.034332801 -0.114116 0.579 4280622862
0.035714701 -0.113523 0.57599998 4282136615
0.037274301 -0.113521 0.57599998 4281676064
0.0387665 -0.113321 0.57499999 4281675804
0.040323202 -0.113318 0.57499999 4281675289
0.041807 -0.113119 0.574 4282793254
0.043285299 -0.112919 0.57300001 4282464289
0.044757999 -0.112719 0.57200003 4282727977
0.0463062 -0.112716 0.57200003 4282662185
0.047854301 -0.112713 0.57200003 4282333994
0.049575001 -0.113104 0.574 4282399787
0.0510391 -0.112904 0.57300001 4282530859
0.052681301 -0.113098 0.574 4282136355
0.0541398 -0.112897 0.57300001 4282399527
0.055689901 -0.112894 0.57300001 4282399527
0.056940299 -0.1123 0.56999999 4282399527
0.058584601 -0.112493 0.57099998 4282399527
0.060234301 -0.112686 0.57200003 4282333734
0.061997201 -0.113077 0.574 4282202148
0.063327901 -0.112679 0.57200003 4282399527
0.0648745 -0.112675 0.57200003 4282531113
0.066304803 -0.112474 0.57099998 4282596905
0.068204902 -0.113061 0.574 4282267940
0.069999501 -0.113451 0.57599998 4282399526
0.074413598 -0.117977 0.59899998 4282399526
0.0822521 -0.12762301 0.648 4282596905
0.092429496 -0.14041901 0.713 4282333734
0.096870303 -0.14415599 0.73199999 4282531113
0.099253103 -0.144741 0.73500001 4282267941
0.101239 -0.14473499 0.73500001 4282267940
0.103645 -0.14532 0.73799998 4282399526
0.105639 -0.14531399 0.73799998 4281413145
0.107923 -0.145702 0.74000001 4281610524
0.109624 -0.145303 0.73799998 4280821262
0.111466 -0.1451 0.73699999 4282202400
0.113455 -0.14509401 0.73699999 4283057195
0.115445 -0.145087 0.73699999 4283254058
0.117434 -0.145081 0.73699999 4283188265
0.119423 -0.14507499 0.73699999 4283648818
0.121577 -0.145266 0.73799998 4283582509
0.123233 -0.14486501 0.736 4283253544
0.125049 -0.14466199 0.73500001 4283582763
0.126513 -0.14406499 0.73199999 4283451690
0.128488 -0.144059 0.73199999 4283385383
0.13064 -0.14424901 0.73299998 4283582763
0.132798 -0.14444 0.73400003 4283385384
0.13459399 -0.144236 0.73299998 4283451177
0.13712899 -0.14482 0.736 4283648556
0.14043599 -0.146191 0.74299997 4283516970
0.144932 -0.14874201 0.75599998 4283517484
0.15027399 -0.15208 0.773 4283517484
0.15492 -0.15463001 0.78600001 4283583277
0.15244301 -0.15009899 0.76300001 4283648563
0.149639 -0.145371 0.73900002 4282201633
0.148963 -0.14280701 0.72600001 4281873697
0.148425 -0.14044 0.71399999 4281479963
0.143399 -0.13394301 0.68099999 4283717722
0.131798 -0.121546 0.61799997 4282269238
0.12590399 -0.114657 0.583 4282994243
0.122882 -0.110522 0.56199998 4286416521
0.122183 -0.108551 0.55199999 4287798176
0.122325 -0.107366 0.546 4284639085
0.123568 -0.107164 0.54500002 4283388755
0.124806 -0.106963 0.54400003 4283321671
0.12627099 -0.106958 0.54400003 4283518536
0.12797 -0.10715 0.54500002 4283321671
0.129675 -0.107342 0.546 4283387464
0.130904 -0.10714 0.54500002 4283387464
0.13237099 -0.107136 0.54500002 4283190338
0.133838 -0.107131 0.54500002 4283256131
0.135305 -0.107126 0.54500002 4283321926
0.136269 -0.106729 0.54299998 4283453510
0.13697 -0.106135 0.54000002 4283321410
0.138423 -0.10613 0.54000002 4283452995
0.140394 -0.106519 0.542 4283255616
0.142114 -0.106711 0.54299998 4283058491
0.14331 -0.10651 0.542 4283321402
0.144501 -0.106309 0.54100001 4283386940
0.145687 -0.106109 0.54000002 4283123768
0.14714 -0.106105 0.54000002 4282860598
0.14859299 -0.106101 0.54000002 4283847493
0.14976799 -0.1059 0.53899997 4283386688
0.15093701 -0.1057 0.53799999 4283057977
0.152951 -0.106089 0.54000002 4282992184
0.155834 -0.107068 0.54500002 4283255356
0.162784 -0.110796 0.56400001 4283255356
0.182363 -0.122972 0.62599999 4283386688
0.20433401 -0.136522 0.69499999 4282860598
0.21362101 -0.14142799 0.72000003 4282860598
0.216157 -0.141817 0.722 4283847493
0.218704 -0.142205 0.72399998 4283518274
0.22126199 -0.14259399 0.72600001 4283123770
0.22383 -0.142983 0.72799999 4282992184
0.2261 -0.14317501 0.72899997 4283321147
0.228062 -0.143172 0.72899997 4283124023
0.230655 -0.14356101 0.73100001 4282860851
0.23230501 -0.143361 0.73000002 4283057970
0.23459101 -0.143554 0.73100001 4282860591
0.236559 -0.14355101 0.73100001 4283254574
0.238527 -0.143548 0.73100001 4283188781
0.240825 -0.143742 0.73199999 4283385646
0.243128 -0.14393599 0.73299998 4283319853
0.245103 -0.143933 0.73299998 4283648304
0.247077 -0.143931 0.73299998 4283648304
0.249052 -0.143929 0.73299998 4283385646
0.25068501 -0.143731 0.73199999 4283188267
0.25265801 -0.143729 0.73199999 4283253546
0.25428301 -0.14353199 0.73100001 4283516718
0.25590301 -0.143334 0.73000002 4282990888
0.25751901 -0.14313699 0.72899997 4283122219
0.25912899 -0.14294 0.72799999 4283122474
0.26109299 -0.142939 0.72799999 4283385391
0.26305699 -0.142939 0.72799999 4283319598
0.26538599 -0.14313599 0.72899997 4283122219
0.26735401 -0.14313599 0.72899997 4283582772
0.26932201 -0.14313599 0.72899997 4283648310
0.270919 -0.142941 0.72799999 4283451701
0.271761 -0.142353 0.72500002 4283122736
0.271833 -0.141372 0.72000003 4282596906
0.27225801 -0.140588 0.71600002 4282465580
0.273045 -0.140001 0.713 4282400300
0.273431 -0.139218 0.70899999 4282531373
0.27379501 -0.13843399 0.70499998 4282334248
0.27374801 -0.137455 0.69999999 4282334247
0.27367401 -0.136476 0.69499999 4282136608
0.273177 -0.13530099 0.68900001 4282465833
0.27304801 -0.134323 0.68400002 4282137381
0.272892 -0.13334399 0.67900002 4282795056
0.27311501 -0.13256299 0.67500001 4282729265
0.27290899 -0.131585 0.67000002 4282992437
0.272677 -0.13060699 0.66500002 4282729524
0.27241799 -0.12963 0.66000003 4283255870
0.27213299 -0.128653 0.65499997 4283584835
0.27224001 -0.12787201 0.65100002 4283716937
0.271905 -0.12689599 0.64600003 4284309588
0.27027199 -0.12533 0.63800001 4284639068
0.26945001 -0.124157 0.63200003 4285692531
0.26859599 -0.122985 0.62599999 4286153088
0.26900601 -0.122402 0.62300003 4286614416
0.26853099 -0.121426 0.61799997 4287338653
0.268904 -0.120844 0.61500001 4287470754
0.26750201 -0.119476 0.60799998 4288260270
0.267391 -0.118698 0.60399997 4288194223
0.266368 -0.117526 0.59799999 4288260016
0.26710501 -0.117141 0.59600002 4288852154
0.26648101 -0.116167 0.59100002 4288917693
0.26628301 -0.11539 0.58700001 4288917693
0.26515201 -0.114219 0.58099997 4288983226
0.26444799 -0.113245 0.57599998 4288983226
0.26325601 -0.112075 0.56999999 4288983739
0.25831601 -0.109332 0.55599999 4288984254
0.25470099 -0.107179 0.54500002 4289312965
0.248677 -0.104042 0.52899998 4289444553
0.241621 -0.100512 0.51099998 4289838795
0.28772199 -0.103682 0.52499998 4283848015
0.32721701 -0.117334 0.59399998 4283058491
0.35437 -0.12644701 0.63999999 4283386940
0.36509001 -0.129636 0.65600002 4283321661
0.36919099 -0.130456 0.66000003 4283058491
0.37106901 -0.130485 0.66000003 4283584582
0.375774 -0.131504 0.66500002 4283979340
0.38562301 -0.134305 0.67900002 4283914063
0.393841 -0.13651399 0.69 4283914063
0.39925799 -0.13773499 0.69599998 4283913294
0.40240499 -0.138166 0.69800001 4283650636
0.406726 -0.138993 0.70200002 4283716429
0.40990901 -0.13942599 0.704 4283651142
0.412521 -0.139662 0.70499998 4286283116
0.41514301 -0.139898 0.70599997 4286941043
0.41836399 -0.140334 0.708 4286940782
0.421601 -0.14077 0.70999998 4286808937
0.42545 -0.141406 0.713 4286743142
0.42811999 -0.141647 0.71399999 4286940262
0.431402 -0.142087 0.71600002 4286677092
0.43470001 -0.142528 0.71799999 4286808424
0.43740499 -0.14277101 0.71899998 4286611558
0.439509 -0.14281701 0.71899998 4287532407
0.441616 -0.142864 0.71899998 4287335540
0.444345 -0.14311001 0.72000003 4286809196
0.446464 -0.143159 0.72000003 4286611556
0.44796401 -0.14300901 0.71899998 4286808933
0.45008799 -0.14306 0.71899998 4287071848
0.453475 -0.143509 0.72100002 4286940264
0.45624599 -0.14376099 0.722 4287137643
0.45902699 -0.144013 0.72299999 4287334506
0.46182001 -0.14426699 0.72399998 4286413404
0.464623 -0.144522 0.72500002 4285557319
0.466793 -0.14457899 0.72500002 4286082886
0.468321 -0.144438 0.72399998 4286017347
0.47179699 -0.144896 0.72600001 4286083402
0.47398499 -0.14495599 0.72600001 4286281296
0.47749001 -0.14541601 0.72799999 4286149971
0.47969499 -0.14547899 0.72799999 4285754960
0.48322901 -0.145942 0.73000002 4285820752
0.48412099 -0.14560699 0.72799999 4286149970
0.48634201 -0.14567301 0.72799999 4286676053
0.48923999 -0.14594001 0.72899997 4286412881
0.49215001 -0.146209 0.73000002 4285688644
0.49439499 -0.14627799 0.73000002 4286280781
0.49664599 -0.146349 0.73000002 4286807123
-0.19993301 -0.143003 0.71799999 4286084969
-0.197726 -0.142809 0.71700001 4288255379
-0.194977 -0.142217 0.71399999 4289835423
-0.193056 -0.142223 0.71399999 4290164127
-0.191135 -0.14222801 0.71399999 4290229920
-0.18947899 -0.142433 0.71499997 4290098334
-0.187555 -0.14243799 0.71499997 4290032029
-0.185891 -0.142643 0.71600002 4290294947
-0.183964 -0.14264899 0.71600002 4290492839
-0.182292 -0.14285401 0.71700001 4290163874
-0.18011101 -0.14266101 0.71600002 4290098081
-0.178433 -0.142866 0.71700001 4290624425
-0.176257 -0.142673 0.71600002 4290098081
-0.174086 -0.14248 0.71499997 4290887337
-0.171921 -0.142287 0.71399999 4290097307
-0.17047501 -0.142691 0.71600002 4289834650
-0.16996001 -0.143893 0.722 4290031514
-0.16987801 -0.145494 0.73000002 4290359965
-0.171363 -0.14849 0.745 4290886310
-0.128102 -0.119422 0.59899998 4288386437
-0.125433 -0.118431 0.59399998 4284307791
-0.123833 -0.118436 0.59399998 4283583814
-0.122027 -0.118242 0.59299999 4283846982
-0.120429 -0.118247 0.59299999 4283912261
-0.11863 -0.118053 0.59200001 4283780675
-0.117035 -0.118059 0.59200001 4283780673
-0.115635 -0.118264 0.59299999 4283714880
-0.114036 -0.118269 0.59299999 4283780927
-0.112248 -0.118075 0.59200001 4283715133
-0.110652 -0.11808 0.59200001 4283715134
-0.109056 -0.118085 0.59200001 4283386168
-0.10746 -0.118091 0.59200001 4283649340
-0.105505 -0.117697 0.58999997 4283780926
-0.103914 -0.117702 0.58999997 4283452475
-0.102496 -0.117907 0.59100002 4283320889
-0.100902 -0.117912 0.59100002 4283584061
-0.099307403 -0.117917 0.59100002 4283452475
-0.097547501 -0.117723 0.58999997 4283386169
-0.096118003 -0.117927 0.59100002 4283320376
-0.094363101 -0.117733 0.58999997 4283189304
-0.092770703 -0.117738 0.58999997 4283189304
-0.091023602 -0.117543 0.58899999 4284044612
-0.090192698 -0.118546 0.59399998 4282925617
-0.090229496 -0.120746 0.60500002 4282136101
-0.091817603 -0.12514199 0.62699997 4282136101
-0.092568003 -0.12853999 0.64399999 4282267688
-0.091251902 -0.129144 0.64700001 4282399790
-0.090195999 -0.130147 0.65200001 4282531123
-0.089519903 -0.131749 0.66000003 4282860092
-0.089199103 -0.13395 0.671 4285425766
-0.088297904 -0.135353 0.67799997 4285557614
-0.087358497 -0.136755 0.685 4284900715
-0.086131603 -0.137759 0.69 4284704364
-0.085243799 -0.13936099 0.69800001 4284770155
-0.084312499 -0.140963 0.70599997 4284835434
-0.083104402 -0.142166 0.71200001 4284637533
-0.0817497 -0.14317 0.71700001 4282202161
-0.0799224 -0.143374 0.71799999 4282464552
-0.077872403 -0.143179 0.71700001 4282266398
-0.075827599 -0.142984 0.71600002 4282726686
-0.073994502 -0.143188 0.71700001 4282989858
-0.0722562 -0.143592 0.71899998 4282858270
-0.070506997 -0.143996 0.72100002 4282924063
-0.068746798 -0.1444 0.72299999 4283121442
-0.066790797 -0.14440399 0.72299999 4283187235
-0.064834699 -0.144408 0.72299999 4283187235
-0.063052297 -0.144812 0.72500002 4283450409
-0.061259001 -0.145215 0.727 4283450409
-0.059454702 -0.14561801 0.72899997 4283515948
-0.0575606 -0.145822 0.73000002 4283779120
-0.0556609 -0.146025 0.73100001 4284042293
-0.0537556 -0.146229 0.73199999 4283647788
-0.051774099 -0.14623199 0.73199999 4283910958
-0.049792498 -0.146235 0.73199999 4284305716
-0.0478107 -0.146238 0.73199999 4283976751
-0.045828801 -0.14624199 0.73199999 4283977521
-0.043846801 -0.146244 0.73199999 4284109107
-0.041979 -0.14664701 0.73400003 4284109107
-0.040045898 -0.14684901 0.73500001 4284371509
-0.038003601 -0.146652 0.73400003 4284240693
-0.036015801 -0.14665499 0.73400003 4284306486
-0.034166899 -0.147256 0.73699999 4284503865
-0.032214399 -0.147458 0.73799998 4284503865
-0.030174499 -0.14726 0.73699999 4284240693
-0.028101601 -0.146863 0.73500001 4284568898
-0.0261462 -0.147064 0.736 4284437050
-0.0241524 -0.147066 0.736 4284701244
-0.0221586 -0.14706799 0.736 4284438072
-0.020109899 -0.146669 0.73400003 4284832830
-0.0180966 -0.14647099 0.73299998 4284569658
-0.016088801 -0.146272 0.73199999 4284504125
-0.0140863 -0.146073 0.73100001 4284438332
-0.0121389 -0.146474 0.73299998 4284504125
-0.0102498 -0.147873 0.74000001 4284372541
-0.0083562797 -0.149872 0.75 4284109367
-0.0065181199 -0.154469 0.773 4284109367
-0.00462397 -0.16146301 0.80800003 4284109367
-0.00258234 -0.17125501 0.85699999 4284240955
-0.00026180001 -0.17225499 0.86199999 4284569404
0.00205456 -0.170656 0.85399997 4284767037
0.0064680502 -0.122696 0.61400002 4283387717
0.0078138104 -0.117899 0.58999997 4287270046
0.0092528304 -0.1159 0.57999998 4284375399
0.0107683 -0.1153 0.57700002 4283256376
0.0123102 -0.1151 0.57599998 4282794545
0.0138707 -0.115099 0.57599998 4283320629
0.0154044 -0.114898 0.57499999 4283189043
0.016903199 -0.114497 0.57300001 4282925871
0.018455399 -0.114496 0.57300001 4283122736
0.0200077 -0.114495 0.57300001 4282728492
0.021748001 -0.115492 0.57800001 4282465319
0.0234346 -0.11609 0.58099997 4281807389
0.0249223 -0.115689 0.579 4282071075
0.0264905 -0.115687 0.579 4282071329
0.027864899 -0.114886 0.57499999 4282268708
0.029422101 -0.114885 0.57499999 4282333733
0.030925401 -0.114683 0.574 4282794285
0.032706201 -0.11548 0.57800001 4282333480
0.034389898 -0.115877 0.57999998 4280162825
0.035836399 -0.115475 0.57800001 4281347100
0.037336599 -0.115273 0.57700002 4280887061
0.038831402 -0.115071 0.57599998 4281412632
0.040250499 -0.114669 0.574 4281543703
0.041804299 -0.114666 0.574 4282727461
0.043282501 -0.114464 0.57300001 4282661670
0.044833399 -0.114461 0.57300001 4282333220
0.0463842 -0.114458 0.57300001 4281478171
0.047934901 -0.114455 0.57300001 4281412892
0.049571801 -0.114652 0.574 4281347099
0.050946899 -0.114249 0.57200003 4281544478
0.0524945 -0.114246 0.57200003 4282333734
0.054042 -0.114242 0.57200003 4282399527
0.055492099 -0.114039 0.57099998 4282267941
0.0569368 -0.113836 0.56999999 4282596391
0.058478501 -0.113833 0.56999999 4282596391
0.060125299 -0.114029 0.57099998 4282531112
0.061777402 -0.114225 0.57200003 4282202148
0.063213401 -0.114021 0.57099998 4282465320
0.064757198 -0.114017 0.57099998 4282728492
0.066300899 -0.114013 0.57099998 4282070562
0.068200901 -0.114608 0.574 4282399527
0.0701169 -0.115203 0.57700002 4282267940
0.0745335 -0.119791 0.60000002 4282267940
0.082374297 -0.12956899 0.64899999 4282070562
0.092164896 -0.14194199 0.71100003 4282596906
0.0963355 -0.14533 0.72799999 4282728492
0.098707303 -0.145924 0.73100001 4282202148
0.10082 -0.146118 0.73199999 4282267941
0.102937 -0.146311 0.73299998 4282267940
0.104774 -0.146106 0.73199999 4281610525
0.106896 -0.1463 0.73299998 4281413403
0.108876 -0.146294 0.73299998 4280821266
0.110855 -0.14628799 0.73299998 4282202915
0.112834 -0.146282 0.73299998 4282794538
0.114812 -0.146276 0.73299998 4282991400
0.11695 -0.146469 0.73400003 4283385644
0.118931 -0.14646301 0.73400003 4283582509
0.120582 -0.14605699 0.73199999 4283845681
0.122222 -0.145652 0.73000002 4283451177
0.124192 -0.14564601 0.73000002 4283188005
0.125816 -0.14523999 0.72799999 4283320104
0.127955 -0.14543299 0.72899997 4283451690
0.12974299 -0.145228 0.72799999 4283254312
0.13206799 -0.14562 0.73000002 4283385898
0.133669 -0.145215 0.72799999 4283583277
0.136191 -0.145806 0.73100001 4283319851
0.139107 -0.146797 0.736 4282990886
0.143583 -0.14938299 0.74900001 4283056679
0.14871199 -0.152568 0.76499999 4283122472
0.15373001 -0.155552 0.77999997 4283056679
0.151437 -0.151158 0.75800002 4283451698
0.14861999 -0.146365 0.73400003 4282004768
0.14793099 -0.143766 0.72100002 4281742110
0.147379 -0.141367 0.70899999 4281545503
0.140866 -0.133386 0.66900003 4283521111
0.1303 -0.121816 0.611 4282137397
0.124387 -0.114833 0.57599998 4284441689
0.122222 -0.111439 0.55900002 4286548106
0.121956 -0.109839 0.551 4287008660
0.122768 -0.109236 0.54799998 4285296763
0.12379 -0.108832 0.546 4283191116
0.12503099 -0.108628 0.54500002 4283387717
0.126498 -0.108623 0.54500002 4283650375
0.127965 -0.108619 0.54500002 4283452996
0.12943199 -0.108614 0.54500002 4283452742
0.130659 -0.10841 0.54400003 4283453510
0.13163801 -0.108007 0.542 4283256386
0.13309599 -0.108002 0.542 4283190338
0.134555 -0.107997 0.542 4283058752
0.136014 -0.107993 0.542 4282795580
0.13696501 -0.10759 0.54000002 4283321410
0.138418 -0.107585 0.54000002 4283124031
0.14013 -0.10778 0.54100001 4283387203
0.141848 -0.107975 0.542 4283124030
0.143306 -0.107971 0.542 4283255102
0.14449701 -0.107768 0.54100001 4282991930
0.14568301 -0.107564 0.54000002 4283123516
0.146864 -0.107361 0.53899997 4283057723
0.148039 -0.107158 0.53799999 4283584067
0.14948601 -0.107154 0.53799999 4282992445
0.150934 -0.10715 0.53799999 4282992445
0.15294801 -0.107545 0.54000002 4283320896
0.15611599 -0.108736 0.546 4283320895
0.164801 -0.113711 0.57099998 4283386688
0.187894 -0.128443 0.64499998 4283584067
0.206681 -0.139989 0.70300001 4282926137
0.21302301 -0.14297099 0.71799999 4283057723
0.21525501 -0.14316601 0.71899998 4283584067
0.217189 -0.143162 0.71899998 4282992445
0.219734 -0.143556 0.72100002 4282992445
0.222289 -0.14395 0.72299999 4283320896
0.224545 -0.144146 0.72399998 4283255102
0.226494 -0.144142 0.72399998 4282860598
0.229074 -0.144537 0.72600001 4283057971
0.23071 -0.144334 0.72500002 4283452214
0.23298299 -0.14453 0.72600001 4283517746
0.234614 -0.144328 0.72500002 4283715377
0.23656701 -0.144325 0.72500002 4283714609
0.238848 -0.144522 0.72600001 4283780402
0.241467 -0.144917 0.72799999 4283320105
0.243094 -0.14471599 0.727 4283582763
0.24505299 -0.144714 0.727 4283910958
0.246672 -0.144513 0.72600001 4283780142
0.248971 -0.14471 0.727 4283780142
0.25127599 -0.144908 0.72799999 4283122212
0.252891 -0.14470799 0.727 4283121958
0.25415 -0.144309 0.72500002 4283319339
0.255752 -0.144109 0.72399998 4283450670
