# .PCD v0.7 - Point Cloud Data file format
VERSION 0.7
FIELDS x y z rgb
SIZE 4 4 4 4
TYPE F F F U
COUNT 1 1 1 1
WIDTH 1219
HEIGHT 1
VIEWPOINT 0 0 0 1 0 0 0
POINTS 1219
DATA ascii
-0.136748 0.34932399 1.4 4279836703
-0.134009 0.35207701 1.411 4279902496
-0.136932 0.37030101 1.484 4279968289
-0.16896901 0.341773 1.385 4280033828
-0.16654 0.34449801 1.396 4279902242
-0.163352 0.345741 1.401 4279902496
-0.158884 0.34426999 1.395 4279902496
-0.156339 0.34699401 1.406 4279836703
-0.15297399 0.34799099 1.41 4279705117
-0.14810599 0.345532 1.4 4279705117
-0.143911 0.34455401 1.396 4279705117
-0.139737 0.343575 1.392 4279770910
-0.136464 0.344818 1.397 4279770656
-0.134588 0.34976301 1.4170001 4279902242
-0.132603 0.35470799 1.437 4279770656
-0.131854 0.36335599 1.472 4279902242
-0.171663 0.34341699 1.4069999 4279836703
-0.166788 0.34123099 1.398 4279968289
-0.16324501 0.34172899 1.4 4279902496
-0.15855201 0.33978501 1.392 4279902496
-0.154458 0.33906299 1.3890001 4279836703
-0.152766 0.34371001 1.408 4279770910
-0.148433 0.34249899 1.403 4279770910
-0.14433201 0.341775 1.4 4279705117
-0.139947 0.34031901 1.3940001 4279507738
-0.136374 0.34081599 1.396 4279639324
-0.134216 0.34497499 1.413 4279770656
-0.133258 0.352552 1.444 4279836449
-0.130787 0.35646701 1.46 4279968289
-0.12875199 0.361846 1.482 4280034082
-0.181694 0.34419799 1.426 4279902496
-0.177967 0.34444901 1.427 4279770910
-0.174845 0.34590799 1.433 4279967519
-0.167395 0.33867699 1.403 4279901726
-0.162672 0.33675501 1.395 4279901726
-0.158106 0.33507499 1.388 4280033312
-0.154467 0.33532599 1.3890001 4279770908
-0.152667 0.339681 1.4069999 4279836701
-0.148865 0.33969 1.4069999 4279705115
-0.14475399 0.33897501 1.404 4279836701
-0.140457 0.33777601 1.399 4279770910
-0.13609 0.33633599 1.393 4279705117
-0.13260999 0.337069 1.396 4279705117
-0.13142 0.34383801 1.424 4279902496
-0.130437 0.35157299 1.456 4280034080
-0.12876 0.35786 1.482 4280165666
-0.125595 0.36028299 1.492 4280297251
-0.12205 0.36173901 1.498 4280626216
-0.192461 0.34582901 1.449 4279770908
-0.19193099 0.352045 1.475 4279902494
-0.19011401 0.356114 1.492 4279902494
-0.181345 0.34705499 1.454 4279770908
-0.174733 0.34181401 1.432 4279967519
-0.16644999 0.33299199 1.395 4279836187
-0.161282 0.33013701 1.383 4279835933
-0.157546 0.330147 1.383 4279967519
-0.154588 0.331828 1.39 4279901980
-0.15235101 0.335179 1.404 4279770908
-0.148874 0.335904 1.4069999 4279573529
-0.144969 0.335675 1.406 4279770908
-0.14096799 0.335206 1.404 4279705115
-0.136489 0.33354399 1.397 4279902494
-0.132808 0.33379099 1.398 4279770908
-0.13096701 0.33881301 1.419 4279968287
-0.129729 0.34574601 1.448 4280034080
-0.12824699 0.35244 1.476 4280297252
-0.12543499 0.355791 1.49 4280428837
-0.089404501 0.35680899 1.494 4283389272
-0.18936101 0.350683 1.4859999 4279705115
-0.17315701 0.334892 1.419 4279901726
-0.16502801 0.326406 1.383 4279835933
-0.160942 0.325708 1.38 4279705117
-0.15732799 0.32595399 1.381 4279770908
-0.15482 0.32855901 1.392 4279705115
-0.152252 0.33116499 1.403 4279639321
-0.148672 0.33164701 1.405 4279770907
-0.144875 0.33165601 1.405 4279770907
-0.141178 0.33190101 1.406 4279638807
-0.137279 0.331673 1.405 4279639321
-0.133671 0.33215401 1.4069999 4280165151
-0.13125201 0.33570299 1.4220001 4279968286
-0.12982699 0.34208599 1.449 4280165665
-0.12808099 0.347996 1.474 4280296737
-0.125274 0.35131001 1.488 4280559909
-0.1987 0.341984 1.466 4279705115
-0.192214 0.34457299 1.477 4279705115
-0.187842 0.34388399 1.474 4279902496
-0.18011899 0.336896 1.444 4279836703
-0.17097101 0.32687399 1.401 4279901726
-0.164442 0.321518 1.378 4279836187
-0.160135 0.32036099 1.373 4279901980
-0.15676799 0.32106999 1.376 4279770394
-0.15393899 0.322947 1.3839999 4279770394
-0.151719 0.32622299 1.398 4279639321
-0.147835 0.32599899 1.397 4279705114
-0.14385299 0.32554099 1.395 4279836186
-0.14058401 0.32671699 1.4 4279836186
-0.137777 0.329059 1.41 4280033565
-0.13425 0.329768 1.413 4280033565
-0.131814 0.33327699 1.428 4280165151
-0.130193 0.33912 1.4529999 4280230944
-0.128263 0.344497 1.476 4280165151
-0.125367 0.34753901 1.489 4280428323
-0.19066299 0.33783099 1.465 4279573531
-0.18785401 0.339917 1.474 4279836703
-0.180005 0.33277899 1.443 4280164898
-0.170615 0.32241201 1.398 4280296738
-0.164929 0.31873199 1.382 4280230945
-0.160145 0.31666601 1.373 4280033565
-0.157461 0.31875101 1.382 4280033565
-0.154616 0.32060599 1.39 4279967772
-0.152162 0.323383 1.402 4279901979
-0.14794999 0.32247001 1.398 4279901979
-0.14344899 0.32086399 1.391 4279967772
-0.13999 0.321565 1.3940001 4280099358
-0.137688 0.32503399 1.409 4279967772
-0.133973 0.32527301 1.41 4280033565
-0.13126899 0.32804999 1.4220001 4280165151
-0.129843 0.33428699 1.449 4280362016
-0.128967 0.34237 1.484 4280427809
-0.125375 0.343532 1.489 4280690981
-0.19067401 0.33388701 1.465 4279639324
-0.18811899 0.33640501 1.476 4279902496
-0.178643 0.326388 1.432 4280362277
-0.170259 0.317965 1.395 4280559910
-0.165177 0.315467 1.3839999 4280691495
-0.160621 0.31388199 1.377 4280559909
-0.158268 0.316627 1.3890001 4280296737
-0.15495899 0.31754801 1.393 4280296737
-0.15184601 0.31892499 1.399 4280230944
-0.14795899 0.31870699 1.398 4280165151
-0.143664 0.31757599 1.393 4280099612
-0.139798 0.317357 1.392 4280099358
-0.13759901 0.321013 1.408 4280099358
-0.13331699 0.31988201 1.403 4280099358
-0.130354 0.321942 1.4119999 4280362016
-0.130389 0.33175501 1.455 4280493602
-0.129062 0.33860299 1.485 4280493602
-0.125467 0.33975199 1.49 4280690981
-0.191597 0.33151999 1.472 4279573531
-0.187748 0.331756 1.473 4279902496
-0.17703199 0.31960499 1.419 4280493863
-0.168927 0.31173199 1.3839999 4280625703
-0.165665 0.31264299 1.388 4280823082
-0.16156401 0.311977 1.385 4280691496
-0.159759 0.31581599 1.402 4280691495
-0.15585899 0.31560001 1.401 4280625702
-0.152289 0.31606001 1.403 4280625442
-0.148497 0.31606999 1.403 4280625442
-0.14449801 0.31562799 1.401 4280625442
-0.14060999 0.31541201 1.4 4280493856
-0.137412 0.31677201 1.406 4280493856
-0.133325 0.31610501 1.403 4280559649
-0.13008501 0.31746501 1.409 4280428063
-0.13192099 0.33166799 1.472 4280362270
-0.130026 0.337084 1.4960001 4280559649
-0.190697 0.32599899 1.465 4279573531
-0.186994 0.326455 1.467 4279836703
-0.17591999 0.31378099 1.41 4280955184
-0.167716 0.30577999 1.374 4281020207
-0.165078 0.30779299 1.383 4280823082
-0.161691 0.30847001 1.386 4280954668
-0.160338 0.31315401 1.4069999 4280954667
-0.15686999 0.31383201 1.41 4281217325
-0.15295 0.313618 1.409 4281151786
-0.14861199 0.31251499 1.404 4280954407
-0.144714 0.31230101 1.403 4280954407
-0.140921 0.31231001 1.403 4280888614
-0.13761599 0.31343201 1.408 4280888614
-0.133239 0.312105 1.402 4280691235
-0.13074 0.31523001 1.416 4280691235
-0.133274 0.331045 1.487 4280691235
-0.17592999 0.30998501 1.41 4280362793
-0.167238 0.30120099 1.37 4281415735
-0.164252 0.30252999 1.376 4281480758
-0.16041701 0.30232 1.375 4281086254
-0.160234 0.30914599 1.406 4281152047
-0.157435 0.31113401 1.415 4281348911
-0.153394 0.31070399 1.413 4281414704
-0.14883301 0.309174 1.406 4281217579
-0.144619 0.30830401 1.402 4281349165
-0.14052799 0.30765301 1.399 4281282602
-0.13703801 0.308321 1.402 4281151786
-0.133342 0.30855 1.403 4281216809
-0.130564 0.31097701 1.414 4280953637
-0.13265499 0.32550099 1.48 4280953637
-0.130217 0.32946801 1.498 4281019430
-0.17644 0.30705601 1.414 4280164898
-0.166393 0.295991 1.363 4280822828
-0.163426 0.297304 1.369 4281678137
-0.15972701 0.29731399 1.369 4282007356
-0.159218 0.30340499 1.397 4281481012
-0.156666 0.305803 1.408 4281283633
-0.152643 0.30537799 1.406 4281414704
-0.148525 0.30473599 1.403 4281612337
-0.143906 0.30300701 1.395 4281677360
-0.139833 0.30236501 1.392 4281808946
-0.13704699 0.304546 1.402 4281743153
-0.13344499 0.30498901 1.404 4281743153
-0.130757 0.30760401 1.416 4281479467
-0.128988 0.312608 1.439 4281413674
-0.12996399 0.32478201 1.495 4281347881
-0.17607599 0.30260399 1.411 4280296486
-0.16689099 0.29317799 1.367 4280493863
-0.163675 0.29404601 1.3710001 4280888621
-0.15962 0.293412 1.368 4281612598
-0.159228 0.299642 1.397 4282204735
-0.156342 0.301368 1.405 4282007356
-0.15254401 0.301377 1.405 4281481011
-0.14779299 0.299456 1.396 4281546290
-0.143399 0.29817799 1.39 4281743153
-0.13944 0.297757 1.388 4281940532
-0.13676199 0.30012599 1.399 4282006325
-0.133074 0.300349 1.4 4281940018
-0.130395 0.30293199 1.4119999 4281874225
-0.130252 0.31173599 1.4529999 4281940018
-0.174963 0.29689801 1.402 4280230693
-0.166779 0.28928399 1.3660001 4280493863
-0.164162 0.29120001 1.375 4280494633
-0.160096 0.29057401 1.372 4280955182
-0.15992101 0.29714999 1.403 4281481526
-0.15790901 0.30054799 1.419 4282007870
-0.15277 0.29801601 1.4069999 4282073148
-0.147378 0.294848 1.392 4281612597
-0.143305 0.294222 1.3890001 4281941302
-0.139147 0.293383 1.385 4281941302
-0.136966 0.296781 1.401 4282137911
-0.132892 0.29615399 1.398 4282400824
-0.13105001 0.30061099 1.419 4282400824
-0.13142499 0.31057599 1.466 4282335031
-0.17609701 0.29500201 1.411 4280099105
-0.16764399 0.28706801 1.373 4280493863
-0.16536599 0.28958699 1.385 4280428840
-0.161156 0.28876001 1.381 4280560424
-0.16072901 0.29483399 1.41 4280955182
-0.15803 0.29693401 1.42 4281284147
-0.153106 0.294853 1.41 4281876283
-0.147493 0.291307 1.393 4282796871
-0.14321101 0.29027 1.388 4282072888
-0.139156 0.28965199 1.385 4282138681
-0.13648599 0.29196101 1.396 4282269497
-0.13252001 0.29155099 1.3940001 4282401338
-0.131705 0.29825199 1.426 4282598203
-0.12946101 0.30202499 1.444 4282598203
-0.17723 0.29305801 1.42 4279704863
-0.167532 0.283162 1.372 4280034082
-0.16597299 0.28688699 1.39 4280231461
-0.161166 0.28503901 1.381 4280494631
-0.160283 0.290209 1.406 4280626217
-0.15770601 0.29248899 1.4170001 4280823596
-0.152463 0.28981501 1.404 4281547318
-0.147291 0.287141 1.391 4282336834
-0.143013 0.286118 1.386 4282928457
-0.138863 0.285301 1.382 4282796357
-0.136299 0.28778601 1.3940001 4282270267
-0.132623 0.288001 1.395 4282466876
-0.131806 0.29461601 1.427 4282795327
-0.12947001 0.298134 1.444 4282795582
-0.177366 0.289435 1.421 4279835933
-0.167542 0.27946499 1.372 4279902496
-0.16622201 0.28354901 1.392 4279902494
-0.16105901 0.28111401 1.38 4280099873
-0.159152 0.284383 1.396 4280363045
-0.156937 0.28724501 1.41 4280823596
-0.15138701 0.28399399 1.3940001 4280889388
-0.1473 0.28339201 1.391 4281415732
-0.14281601 0.281975 1.3839999 4282204735
-0.139475 0.28279901 1.388 4282994250
-0.136307 0.28402999 1.3940001 4283059529
-0.132917 0.28485301 1.398 4282862404
-0.131814 0.29077101 1.427 4282730048
-0.13028499 0.29607701 1.4529999 4282598462
-0.176627 0.28439999 1.415 4279835933
-0.16681901 0.27456099 1.3660001 4279770910
-0.164799 0.277385 1.38 4279770908
-0.160018 0.27558601 1.3710001 4279836701
-0.155628 0.274389 1.365 4279968287
-0.15572201 0.28123301 1.399 4280165666
-0.15085299 0.279232 1.3890001 4280428838
-0.14688499 0.27883899 1.387 4280888875
-0.142515 0.27764201 1.381 4281415219
-0.139182 0.27845499 1.385 4281809977
-0.136316 0.28027299 1.3940001 4282796358
-0.132735 0.28068301 1.396 4282993737
-0.13154501 0.28632101 1.424 4283191115
-0.13056201 0.29276401 1.456 4282927427
-0.17813499 0.282965 1.427 4279704347
-0.16756099 0.27206901 1.372 4279835933
-0.165047 0.27406201 1.382 4279835933
-0.15991101 0.27169201 1.37 4279902494
-0.155865 0.271106 1.367 4279705115
-0.15472899 0.275677 1.39 4279770908
-0.15075301 0.27529001 1.388 4280165666
-0.147212 0.275695 1.39 4280363045
-0.142627 0.27411801 1.382 4280625703
-0.13959201 0.27551499 1.3890001 4280954668
-0.136618 0.27711001 1.397 4281481012
-0.13312399 0.277713 1.4 4282270014
-0.13164601 0.28268099 1.425 4282598978
-0.131915 0.291814 1.471 4282730818
-0.180518 0.28283501 1.446 4279704347
-0.16928101 0.27110901 1.386 4279770140
-0.164818 0.269945 1.38 4279705117
-0.159804 0.26780301 1.369 4279770910
-0.155184 0.27271199 1.3940001 4279836703
-0.15076301 0.271548 1.388 4279705117
-0.14690299 0.27136099 1.387 4280034082
-0.14242899 0.27000001 1.38 4280428324
-0.1393 0.27118301 1.386 4280691242
-0.136528 0.273148 1.396 4280888621
-0.132752 0.27315599 1.396 4281349426
-0.131377 0.27825201 1.4220001 4281546805
-0.131834 0.287653 1.47 4281809976
-0.181402 0.280287 1.4529999 4279704347
-0.17038999 0.269108 1.395 4279705117
-0.164111 0.26506701 1.374 4279836703
-0.16028 0.264884 1.373 4279836703
-0.15542699 0.26296401 1.363 4279705117
-0.156195 0.27068999 1.403 4279770910
-0.15153199 0.26915601 1.395 4279705117
-0.14733601 0.26839301 1.391 4279705117
-0.143057 0.26743701 1.386 4280033566
-0.13961001 0.26802501 1.3890001 4280296484
-0.13692801 0.270156 1.4 4280493863
-0.13266499 0.26919901 1.395 4280691496
-0.131108 0.273839 1.419 4280823082
-0.13085601 0.28156599 1.459 4281086253
-0.17039999 0.265347 1.395 4279573531
-0.164599 0.26212299 1.378 4279968289
-0.16099 0.26232299 1.3789999 4279836703
-0.155665 0.25966901 1.365 4279902496
-0.155982 0.26652601 1.401 4279836703
-0.15208399 0.26634499 1.4 4279836703
-0.147874 0.26559299 1.396 4279770910
-0.143582 0.264651 1.391 4279705115
-0.140121 0.26523 1.3940001 4279705117
-0.137034 0.26657099 1.401 4280034082
-0.13248301 0.265057 1.393 4280362531
-0.130931 0.269631 1.4170001 4280428838
-0.12924901 0.27420601 1.441 4280625703
-0.170532 0.26177201 1.396 4279639322
-0.164847 0.258782 1.38 4279770910
-0.161466 0.259354 1.383 4279836703
-0.15544599 0.25561199 1.363 4280034082
-0.15654799 0.263686 1.406 4280034082
-0.152528 0.26332 1.404 4279968289
-0.148201 0.262391 1.399 4279770910
-0.143591 0.26089901 1.391 4279705115
-0.140129 0.26146999 1.3940001 4279770908
-0.137629 0.263917 1.4069999 4279705115
-0.133442 0.26317501 1.403 4279770908
-0.131401 0.266747 1.4220001 4279836701
-0.127912 0.267506 1.426 4280165152
-0.121309 0.278972 1.487 4280888360
-0.17115299 0.25893101 1.401 4279507736
-0.163662 0.25321099 1.37 4279639322
-0.16089199 0.25469899 1.378 4279639324
-0.154999 0.25119701 1.359 4279705117
-0.155889 0.258784 1.4 4279968289
-0.151994 0.25860801 1.399 4280034082
-0.14757399 0.25750801 1.393 4279968289
-0.143186 0.25640801 1.387 4279836703
-0.140238 0.25789499 1.395 4279770910
-0.137638 0.260122 1.4069999 4279836701
-0.133735 0.25994501 1.406 4279770908
-0.131409 0.26291099 1.4220001 4279836187
-0.12693299 0.26162499 1.415 4279836187
-0.123066 0.269961 1.46 4280230431
-0.119766 0.27144799 1.4680001 4280164637
-0.171896 0.256244 1.4069999 4279639321
-0.162477 0.247694 1.36 4279507736
-0.15985 0.24934299 1.369 4279507736
-0.15409499 0.24607299 1.351 4279573529
-0.15567499 0.25464299 1.398 4279705115
-0.151677 0.25428799 1.396 4279836703
-0.14737099 0.25338599 1.391 4280099875
-0.142782 0.251937 1.383 4280034082
-0.139945 0.25358501 1.392 4279968289
-0.13744999 0.25596201 1.405 4279968289
-0.133553 0.25578699 1.404 4279901980
-0.130585 0.25743499 1.413 4279836187
-0.126312 0.25653201 1.408 4279770394
-0.120376 0.26019099 1.428 4280164637
-0.11292 0.25218099 1.3839999 4280230430
-0.172272 0.252987 1.41 4279441942
-0.163203 0.245101 1.3660001 4279376149
-0.15986 0.245649 1.369 4279638807
-0.15490299 0.24368399 1.358 4279704600
-0.155239 0.25015301 1.3940001 4279573528
-0.15146799 0.25016201 1.3940001 4279639322
-0.147062 0.24909399 1.388 4279836701
-0.142997 0.248564 1.385 4280231461
-0.139752 0.24947 1.39 4279968289
-0.13706701 0.251452 1.401 4279968289
-0.13260999 0.250204 1.3940001 4279902494
-0.13013101 0.25272501 1.408 4279770394
-0.125871 0.25183499 1.403 4279638807
-0.126946 0.261895 1.459 4279836186
-0.115578 0.246106 1.3710001 4280099098
-0.108603 0.238932 1.331 4280296477
-0.17277101 0.249889 1.414 4279441942
-0.164049 0.242653 1.373 4279507735
-0.159869 0.241955 1.369 4279507221
-0.15525401 0.24055 1.3609999 4279573014
-0.156361 0.24815901 1.404 4279573014
-0.152455 0.247991 1.403 4279507736
-0.14802399 0.246939 1.397 4279573529
-0.143934 0.246418 1.3940001 4279770910
-0.139961 0.24607199 1.392 4280165668
-0.136977 0.247495 1.4 4280165668
-0.132713 0.246619 1.395 4280034080
-0.129862 0.248395 1.405 4280033566
-0.12560999 0.247518 1.4 4279836186
-0.124343 0.252653 1.429 4279638807
-0.17229199 0.245377 1.41 4279376150
-0.164775 0.23999099 1.3789999 4279507221
-0.159995 0.238434 1.37 4279573014
-0.15606099 0.238095 1.368 4279573014
-0.157039 0.245414 1.41 4279573014
-0.153116 0.245249 1.409 4279638808
-0.148562 0.244039 1.402 4279441943
-0.14445899 0.243525 1.399 4279507736
-0.13997 0.24231499 1.392 4279639324
-0.136985 0.243716 1.4 4280034082
-0.13253 0.242505 1.393 4280165668
-0.130054 0.24495 1.4069999 4280099105
-0.125348 0.24321701 1.397 4279967773
-0.122785 0.245662 1.411 4279836186
-0.17374 0.238306 1.391 4279376150
-0.17169 0.240714 1.405 4279441943
-0.165382 0.23712599 1.3839999 4279507736
-0.16012 0.234908 1.3710001 4279376149
-0.15686899 0.23560201 1.375 4279507221
-0.1556 0.239381 1.397 4279573014
-0.15334199 0.241788 1.411 4279573529
-0.14888901 0.240769 1.405 4279507736
-0.144364 0.23957799 1.398 4279507736
-0.139777 0.238215 1.39 4279573531
-0.137189 0.240279 1.402 4279705117
-0.133109 0.23977301 1.399 4280099873
-0.130154 0.24132299 1.408 4280362531
-0.12508599 0.238931 1.3940001 4279901980
-0.121225 0.238767 1.393 4279902233
-0.107643 0.226097 1.319 4279967512
-0.171333 0.236416 1.402 4279441943
-0.165749 0.233896 1.387 4279441943
-0.16001301 0.231038 1.37 4279573529
-0.156763 0.231721 1.374 4279507736
-0.15415999 0.233417 1.3839999 4279507736
-0.152481 0.23662999 1.403 4279507736
-0.148155 0.23579501 1.398 4279573529
-0.14334001 0.234117 1.388 4279441943
-0.139181 0.23345 1.3839999 4279507736
-0.136904 0.23598801 1.399 4279507736
-0.132927 0.235659 1.397 4279573529
-0.129885 0.23701601 1.405 4279836187
-0.124825 0.234661 1.391 4280165152
-0.12071 0.23399401 1.387 4279967772
-0.115774 0.231639 1.373 4279968026
-0.16528 0.229487 1.383 4279507222
-0.158503 0.225182 1.357 4279507736
-0.155403 0.22601999 1.362 4279638808
-0.15238699 0.227024 1.368 4279441943
-0.151077 0.230684 1.39 4279507736
-0.147104 0.23036 1.388 4279441943
-0.14252201 0.229041 1.38 4279507736
-0.138686 0.228883 1.3789999 4279376149
-0.136226 0.231049 1.392 4279639322
-0.132458 0.231056 1.392 4279441942
-0.129152 0.231894 1.397 4279507221
-0.124473 0.230241 1.387 4279638807
-0.122284 0.233236 1.405 4279967772
-0.107656 0.218973 1.319 4280099098
-0.16573 0.22133601 1.3559999 4279573014
-0.164333 0.224447 1.375 4279573015
-0.157694 0.220375 1.35 4279638808
-0.154385 0.220873 1.353 4279573015
-0.15161601 0.222187 1.3609999 4279638807
-0.14999799 0.225298 1.38 4279573528
-0.146264 0.225306 1.38 4279507735
-0.14252999 0.22531401 1.38 4279507735
-0.138795 0.22532199 1.38 4279507735
-0.135745 0.226473 1.387 4279573528
-0.131419 0.225501 1.381 4279638807
-0.12869801 0.227304 1.392 4279507475
-0.124121 0.225842 1.383 4279573268
-0.11968 0.22454201 1.375 4279704340
-0.11874 0.229938 1.408 4279967512
-0.162683 0.213661 1.331 4279507221
-0.164223 0.22057299 1.374 4279573014
-0.15817 0.217371 1.354 4279507222
-0.15405101 0.216737 1.35 4279638808
-0.152292 0.219475 1.367 4279507221
-0.14913701 0.220286 1.372 4279638807
-0.14584801 0.220936 1.376 4279704600
-0.14222801 0.22110499 1.377 4279638807
-0.13870201 0.221434 1.3789999 4279573014
-0.13545901 0.22224499 1.3839999 4279573014
-0.131332 0.22160999 1.38 4279638807
-0.12907501 0.224187 1.396 4279441682
-0.124128 0.22210599 1.383 4279441682
-0.118991 0.219543 1.367 4279704340
-0.108566 0.213614 1.33 4280230684
-0.1067 0.217154 1.352 4280164121
-0.16513599 0.213223 1.351 4279638807
-0.16459 0.217335 1.377 4279573014
-0.158529 0.214187 1.357 4279573014
-0.15405899 0.213091 1.35 4279507221
-0.152301 0.215782 1.367 4279573014
-0.14958 0.21721099 1.376 4279638807
-0.146175 0.217693 1.3789999 4279573014
-0.142029 0.21707 1.375 4279638807
-0.13850901 0.217393 1.377 4279573014
-0.135271 0.21819 1.382 4279638807
-0.13172001 0.218513 1.3839999 4279507221
-0.129637 0.22136299 1.402 4279507221
-0.123776 0.217738 1.3789999 4279507475
-0.118997 0.21585 1.367 4279506961
-0.115801 0.216804 1.373 4279770133
-0.113062 0.218706 1.385 4279704340
-0.168201 0.213452 1.376 4279639061
-0.164001 0.21284001 1.372 4279704854
-0.159238 0.21145201 1.363 4279704600
-0.153725 0.208978 1.347 4279573014
-0.15186299 0.21146899 1.363 4279441428
-0.148719 0.212253 1.368 4279573014
-0.146395 0.214278 1.381 4279507221
-0.141624 0.212734 1.3710001 4279638807
-0.138818 0.214138 1.38 4279638807
-0.136159 0.21585301 1.391 4279638807
-0.132964 0.216791 1.397 4279573014
-0.130199 0.21850599 1.408 4279375635
-0.123873 0.214167 1.38 4279441682
-0.118422 0.217906 1.404 4279638547
-0.114048 0.21682601 1.397 4279704340
-0.163173 0.208066 1.365 4279573268
-0.159013 0.20746499 1.3609999 4279704854
-0.153961 0.205644 1.349 4279704854
-0.15131401 0.20702399 1.358 4279770133
-0.14829201 0.207947 1.364 4279704086
-0.14619 0.210241 1.3789999 4279835672
-0.14245801 0.21024901 1.3789999 4279769879
-0.14003301 0.212239 1.392 4279573014
-0.13675401 0.213009 1.397 4279573268
-0.13287599 0.212864 1.396 4279507475
-0.129651 0.21378601 1.402 4279507475
-0.123341 0.20952301 1.374 4279441682
-0.11632 0.210299 1.3789999 4279638547
-0.16150799 0.202281 1.351 4279836186
-0.158788 0.20348801 1.359 4279836186
-0.154312 0.202448 1.352 4279704854
-0.150654 0.202456 1.352 4279770647
-0.14764699 0.203362 1.358 4279704340
-0.14534999 0.20531701 1.3710001 4279770133
-0.14256901 0.206672 1.38 4279770133
-0.141248 0.210274 1.404 4279770133
-0.137251 0.20998199 1.402 4279770133
-0.133169 0.20953999 1.399 4279638547
-0.129751 0.210146 1.403 4279638547
-0.122899 0.20506001 1.369 4279638547
-0.120497 0.207314 1.3839999 4279638547
-0.116749 0.20732 1.3839999 4279572754
-0.111693 0.20492999 1.368 4279900949
-0.157332 0.19348399 1.316 4279901979
-0.158913 0.19996201 1.36 4279967772
-0.154434 0.19894101 1.353 4279836186
-0.14977001 0.197625 1.344 4279968026
-0.146568 0.198221 1.348 4280033305
-0.144085 0.199846 1.359 4279770133
-0.142267 0.202501 1.377 4279770133
-0.141155 0.206332 1.403 4279704340
-0.13696399 0.205751 1.399 4279770133
-0.13355701 0.206347 1.403 4279704340
-0.12948 0.20591199 1.4 4279572754
-0.122367 0.200477 1.363 4279638547
-0.118588 0.20033699 1.362 4279638547
-0.111693 0.19475301 1.324 4279703570
-0.112271 0.202261 1.375 4279703570
-0.15903801 0.19643 1.3609999 4279638807
-0.154442 0.195283 1.353 4279967772
-0.14910901 0.19312599 1.3380001 4279901979
-0.14603201 0.193856 1.3430001 4280033565
-0.143987 0.19602799 1.358 4279836440
-0.142997 0.199789 1.3839999 4279967512
-0.14086001 0.202106 1.4 4279835926
-0.136678 0.201536 1.396 4279704340
-0.13365901 0.20269801 1.404 4279638547
-0.129117 0.20155001 1.396 4279638547
-0.121925 0.19607 1.358 4279506961
-0.118508 0.19651 1.3609999 4279506961
-0.105499 0.18655901 1.2920001 4279703570
-0.15741 0.190768 1.347 4279507221
-0.155249 0.192617 1.36 4279704600
-0.15000799 0.190642 1.346 4279901979
-0.14669199 0.191075 1.349 4280033565
-0.144949 0.19363201 1.367 4279968026
-0.142901 0.195905 1.383 4279902233
-0.14076699 0.19817901 1.399 4280033305
-0.13629401 0.19719499 1.392 4279835926
-0.13338099 0.198477 1.401 4279704340
-0.128107 0.196217 1.385 4279572754
-0.121303 0.191406 1.351 4279441168
-0.119123 0.193821 1.368 4279441168
-0.109934 0.184618 1.303 4279441168
-0.155782 0.18518101 1.3329999 4279244563
-0.156398 0.190329 1.37 4279244564
-0.151465 0.18880901 1.359 4279573529
-0.14833 0.189511 1.364 4279705115
-0.145698 0.190908 1.374 4279836701
-0.143115 0.192444 1.385 4279836701
-0.14047199 0.193979 1.396 4279967773
-0.136007 0.193014 1.3890001 4279770393
-0.132817 0.193854 1.395 4279704340
-0.127281 0.191221 1.376 4279638547
-0.126607 0.195952 1.41 4279572754
-0.110361 0.181789 1.308 4279441168
-0.15651999 0.18676101 1.3710001 4279178771
-0.15191799 0.185679 1.363 4279441943
-0.148338 0.18582299 1.364 4279507736
-0.145282 0.186647 1.37 4279705115
-0.14250299 0.18788099 1.3789999 4279836701
-0.140278 0.18993101 1.3940001 4280033566
-0.135524 0.188576 1.3839999 4279901979
-0.13225199 0.189264 1.3890001 4279638807
-0.12664001 0.186545 1.369 4279704340
-0.12867901 0.195273 1.433 4279572754
-0.123664 0.193508 1.42 4279375375
-0.115767 0.18697301 1.372 4279375374
-0.155615 0.18198501 1.363 4279244564
-0.151703 0.18172599 1.3609999 4279244564
-0.14769199 0.18133201 1.358 4279310357
-0.144334 0.18174 1.3609999 4279441943
-0.14189 0.18335 1.373 4279441945
-0.140084 0.185894 1.392 4279639324
-0.135433 0.184699 1.383 4279770908
-0.131878 0.184973 1.385 4279705115
-0.12590601 0.18177401 1.3609999 4279507221
-0.1228 0.18833099 1.41 4279244303
-0.113157 0.17912 1.341 4279375374
-0.153681 0.176075 1.346 4279047185
-0.15081801 0.176998 1.353 4279047185
-0.146394 0.176089 1.346 4279244564
-0.143493 0.177012 1.353 4279310357
-0.14148299 0.179112 1.369 4279376150
-0.139789 0.18173601 1.3890001 4279507736
-0.135048 0.180434 1.3789999 4279507736
-0.131313 0.18044101 1.3789999 4279573529
-0.125172 0.177045 1.353 4279507735
-0.129859 0.18922099 1.446 4279507735
-0.121761 0.182946 1.398 4279375889
-0.113416 0.17588501 1.344 4279309582
-0.15300301 0.171665 1.34 4278981391
-0.15082499 0.173337 1.353 4278981392
-0.146184 0.17219099 1.344 4279112978
-0.14339399 0.173223 1.352 4279112978
-0.141077 0.174896 1.365 4279310357
-0.139393 0.17746501 1.385 4279244564
-0.134565 0.176062 1.374 4279376150
-0.13046201 0.175556 1.37 4279441943
-0.124253 0.172102 1.3430001 4279376150
-0.127351 0.18172 1.418 4279376149
-0.120635 0.177497 1.385 4279375889
-0.114856 0.174427 1.3609999 4279244303
-0.196841 0.159398 1.272 4280493086
-0.193556 0.159532 1.273 4280953637
-0.190266 0.159665 1.274 4281216809
-0.18579701 0.158796 1.267 4280690465
-0.17862999 0.155545 1.2410001 4280164891
-0.153239 0.16829 1.342 4279047184
-0.150833 0.169677 1.353 4278915598
-0.14640801 0.168806 1.346 4279047185
-0.14329401 0.16944 1.351 4279112978
-0.141187 0.17132799 1.3660001 4279310357
-0.138796 0.17296501 1.3789999 4279178771
-0.13388599 0.17146599 1.367 4279047185
-0.12951601 0.17059401 1.36 4279178770
-0.123057 0.16683701 1.33 4279047184
-0.126638 0.176879 1.41 4279047184
-0.119508 0.17211799 1.372 4279179024
-0.116381 0.173002 1.3789999 4279113231
-0.104089 0.16535901 1.318 4279243789
-0.098152503 0.161475 1.2869999 4279243788
-0.199789 0.158288 1.291 4279573014
-0.197366 0.159154 1.298 4279770393
-0.194307 0.159531 1.301 4280230945
-0.18947101 0.158435 1.2920001 4280296738
-0.183244 0.156113 1.273 4279967773
-0.18149801 0.157592 1.285 4279704600
-0.15335999 0.164782 1.3430001 4278915598
-0.15117399 0.166384 1.3559999 4278915598
-0.146415 0.165163 1.346 4278981391
-0.14277101 0.16517 1.346 4279047185
-0.14067601 0.167017 1.3609999 4279112978
-0.137997 0.16825099 1.3710001 4279178771
-0.133696 0.167521 1.365 4279112977
-0.129427 0.16679101 1.359 4279047184
-0.123525 0.16385099 1.335 4279047184
-0.125477 0.17146701 1.397 4279047184
-0.118904 0.16754501 1.365 4279113231
-0.116302 0.169146 1.378 4279244303
-0.110444 0.16596 1.352 4278981131
-0.102988 0.160073 1.304 4279243789
-0.100979 0.162533 1.324 4279309582
-0.099596798 0.16622099 1.354 4279309581
-0.096209399 0.16671699 1.358 4279177995
-0.197678 0.155883 1.3 4279376149
-0.194315 0.156011 1.301 4279376150
-0.18962499 0.15505999 1.293 4279178771
-0.186131 0.155068 1.293 4279178771
-0.1945 0.16515 1.377 4279178771
-0.19230101 0.16647799 1.388 4279441943
-0.153938 0.16174699 1.348 4279112717
-0.15073501 0.16223399 1.352 4278915598
-0.14620399 0.161281 1.344 4278915598
-0.141929 0.160567 1.3380001 4278981391
-0.14078601 0.163454 1.362 4278981391
-0.137601 0.16406 1.367 4279047184
-0.134094 0.164307 1.369 4278915598
-0.1301 0.16395301 1.3660001 4278981645
-0.124456 0.161438 1.345 4278981645
-0.122878 0.164204 1.368 4278850059
-0.118387 0.16313 1.359 4279047438
-0.116645 0.165896 1.382 4279046924
-0.109877 0.16146 1.345 4279046924
-0.103941 0.15798301 1.316 4278981131
-0.102357 0.16111 1.342 4279112203
-0.099086598 0.161715 1.347 4278980616
-0.096355699 0.16328 1.36 4279112202
-0.093076997 0.164005 1.3660001 4279112202
-0.0902889 0.16569 1.38 4278980616
-0.19996101 0.151421 1.2920001 4278849805
-0.196926 0.15178099 1.295 4279112977
-0.19357599 0.151906 1.296 4279047185
-0.189193 0.15121 1.29 4279047185
-0.187002 0.152273 1.299 4278981392
-0.190695 0.158259 1.35 4279047185
-0.18884601 0.15979099 1.363 4279112978
-0.172951 0.158767 1.354 4279112977
-0.17178801 0.161119 1.374 4279112977
-0.16672499 0.15983699 1.363 4279047438
-0.154973 0.159154 1.357 4279046924
-0.150519 0.15834001 1.35 4279046924
-0.145667 0.157056 1.339 4278981131
-0.14151099 0.15647601 1.334 4278849805
-0.140689 0.15965 1.3609999 4278849805
-0.13730501 0.160008 1.364 4278981645
-0.134296 0.160835 1.3710001 4278915852
-0.130201 0.160372 1.367 4278915852
-0.124925 0.158383 1.35 4278784266
-0.121536 0.158741 1.353 4278850059
-0.117347 0.158042 1.347 4279046924
-0.1153 0.16027699 1.3660001 4278981131
-0.110046 0.158053 1.347 4278981131
-0.105763 0.15711901 1.339 4278915338
-0.102209 0.157241 1.34 4278915338
-0.0976936 0.155838 1.3279999 4279046409
-0.0943055 0.156194 1.331 4278980616
-0.091786698 0.158076 1.347 4278980616
-0.089704297 0.160897 1.3710001 4278980616
-0.082724899 0.154799 1.319 4279046410
-0.078967497 0.15445 1.316 4278980617
-0.074175403 0.159504 1.359 4278914823
-0.196934 0.148277 1.295 4279047184
-0.19373301 0.148514 1.2970001 4278981391
-0.18832099 0.14703301 1.284 4279047184
-0.186722 0.14852899 1.2970001 4278915598
-0.18816 0.15254501 1.332 4278915598
-0.187052 0.154614 1.35 4278915598
-0.18611901 0.156913 1.37 4278981391
-0.174142 0.15291899 1.335 4278981391
-0.16950899 0.15200999 1.327 4279047184
-0.169295 0.15511 1.354 4279047438
-0.16807701 0.157408 1.374 4279113231
-0.161488 0.15466499 1.35 4279179024
-0.15748399 0.154329 1.347 4279244303
-0.15497901 0.155481 1.357 4279112717
-0.150414 0.154571 1.349 4278981131
-0.14578199 0.15354601 1.34 4278981131
-0.141305 0.15263601 1.332 4278981131
-0.140385 0.15562101 1.358 4278981131
-0.13680799 0.155742 1.359 4279046924
-0.13430201 0.157123 1.3710001 4279046924
-0.129921 0.15632699 1.364 4278981131
-0.12456 0.15426999 1.346 4279046924
-0.120553 0.153817 1.342 4278981131
-0.115697 0.152217 1.3279999 4278981645
-0.114377 0.15531699 1.355 4279046924
-0.109887 0.154176 1.345 4278915338
-0.106873 0.15509801 1.353 4278915338
-0.102443 0.15395699 1.3430001 4278915338
-0.097256698 0.151554 1.322 4279112203
-0.093388803 0.15109999 1.318 4278915337
-0.0902237 0.151792 1.324 4278980616
-0.087614603 0.153515 1.339 4278980616
-0.084484898 0.15443701 1.347 4278915337
-0.081251599 0.15524299 1.354 4278849544
-0.077808097 0.155705 1.358 4279046409
-0.073742203 0.154906 1.351 4278980617
-0.068261698 0.150896 1.316 4279046410
-0.19876701 0.14611501 1.307 4278784266
-0.19493601 0.145899 1.3049999 4278915598
-0.189355 0.14434101 1.291 4278849805
-0.185146 0.14379001 1.286 4278849805
-0.185624 0.146928 1.314 4278784012
-0.18456601 0.148948 1.332 4278784012
-0.183681 0.15119199 1.352 4278849805
-0.178693 0.15008099 1.342 4278784012
-0.17545401 0.150424 1.345 4278784266
-0.17041001 0.14920101 1.334 4278784266
-0.165426 0.14797699 1.323 4278850059
-0.166005 0.151787 1.357 4278981645
-0.160897 0.150452 1.345 4279178510
-0.158309 0.151465 1.354 4279244303
-0.154301 0.151136 1.351 4279112717
-0.150309 0.15080699 1.348 4279112717
-0.14568 0.14980599 1.339 4279046924
-0.14109901 0.14880601 1.33 4278981131
-0.140288 0.151833 1.357 4278981131
-0.136613 0.151839 1.357 4278915338
-0.134014 0.15307499 1.368 4278915338
-0.129356 0.151962 1.358 4278915338
-0.123825 0.14973 1.3380001 4278915338
-0.119391 0.148728 1.329 4278915338
-0.11335 0.14559899 1.301 4278784266
-0.113369 0.150305 1.3430001 4278784266
-0.109484 0.149974 1.34 4278981131
-0.107194 0.15188199 1.357 4278849545
-0.102905 0.15099099 1.349 4278783752
-0.097849697 0.14886899 1.33 4278914824
-0.093322098 0.14741801 1.317 4278849544
-0.089955203 0.14775801 1.3200001 4278980616
-0.086768001 0.148433 1.326 4278915337
-0.084049799 0.150004 1.34 4278783751
-0.080655202 0.150456 1.344 4278849544
-0.077009499 0.15046 1.344 4278980617
-0.073527299 0.15079901 1.347 4278980617
-0.070028499 0.15113799 1.35 4278980617
-0.066759102 0.15203699 1.358 4278980617
-0.063724697 0.153607 1.372 4279046409
-0.19923 0.142905 1.3099999 4278783752
-0.19509301 0.14247601 1.306 4278915338
-0.19038901 0.14161099 1.298 4278849545
-0.186161 0.141073 1.293 4278981131
-0.18181799 0.140425 1.2869999 4278850059
-0.183465 0.14447001 1.324 4278850059
-0.182466 0.14655 1.3430001 4278718473
-0.179765 0.147321 1.35 4278652680
-0.17624401 0.147438 1.351 4278784266
-0.170928 0.146026 1.3380001 4278915338
-0.164932 0.143959 1.319 4278915338
-0.16552199 0.147677 1.353 4278981131
-0.15994699 0.145937 1.337 4278981131
-0.157731 0.14725401 1.349 4279046924
-0.152822 0.14605901 1.3380001 4279046924
-0.150203 0.147048 1.347 4278915338
-0.145686 0.146181 1.339 4278981131
-0.140999 0.14509501 1.329 4278849545
-0.139777 0.14761201 1.352 4278915338
-0.135914 0.14740001 1.35 4278849545
-0.133628 0.14893401 1.364 4279046924
-0.128694 0.14752001 1.351 4278981131
-0.12346 0.145669 1.334 4278783752
-0.118677 0.144255 1.321 4278915338
-0.112745 0.141311 1.294 4278915338
-0.111686 0.144483 1.323 4278849545
-0.10859 0.145143 1.329 4278981131
-0.106962 0.14787801 1.354 4278981131
-0.103215 0.147774 1.353 4278783752
-0.098810501 0.146686 1.3430001 4278914824
-0.093751498 0.14450601 1.323 4278914824
-0.089822903 0.14396399 1.318 4278914824
-0.086444698 0.14429501 1.321 4278914824
-0.083614498 0.14561 1.3329999 4278980617
-0.080358803 0.14626899 1.339 4278849545
-0.076955698 0.146709 1.3430001 4278914824
-0.073257603 0.146603 1.342 4278849031
-0.069564797 0.146497 1.341 4278914824
-0.066073902 0.146828 1.344 4279045640
-0.062519901 0.14704999 1.346 4279045640
-0.059261099 0.148036 1.355 4279177226
-0.055748101 0.14847501 1.359 4279177481
-0.052251499 0.14902399 1.364 4279045895
-0.048620801 0.14924499 1.3660001 4279309067
-0.19832499 0.138722 1.304 4278783752
-0.194204 0.138303 1.3 4278915338
-0.190837 0.13841701 1.301 4278849545
-0.18731999 0.13842399 1.301 4278981131
-0.185074 0.13938899 1.3099999 4278915338
-0.18180899 0.13960899 1.312 4278850059
-0.17989101 0.140893 1.324 4278784266
-0.181903 0.14537001 1.3660001 4278850059
-0.178599 0.145696 1.369 4278915852
-0.172085 0.143361 1.347 4278915338
-0.16568901 0.141027 1.325 4278981131
-0.164795 0.14337499 1.347 4278915338
-0.159355 0.141785 1.332 4279046924
-0.157153 0.143069 1.344 4278981131
-0.15180101 0.141478 1.329 4278915338
-0.14931799 0.14254899 1.339 4278915338
-0.14514799 0.142022 1.334 4279046924
-0.14068601 0.141177 1.326 4278849545
-0.13968 0.14384399 1.351 4278915338
-0.135315 0.143105 1.344 4278915338
-0.13285001 0.14438801 1.3559999 4278915338
-0.127652 0.14269 1.34 4278849545
-0.122448 0.140885 1.323 4278849545
-0.118772 0.140783 1.322 4278849545
-0.113795 0.139084 1.306 4278915338
-0.111269 0.140367 1.318 4278915338
-0.107859 0.14058501 1.3200001 4278981131
-0.106888 0.144104 1.353 4278914824
-0.103448 0.144428 1.3559999 4278980617
-0.099844903 0.144539 1.357 4278914824
-0.0946768 0.142306 1.336 4278849031
-0.090167597 0.140926 1.323 4278849031
-0.086383 0.14060999 1.3200001 4278849031
-0.0831163 0.141146 1.325 4278914824
-0.080122203 0.142215 1.335 4278914824
-0.076729797 0.142644 1.339 4278914824
-0.0731517 0.142754 1.34 4278914824
-0.069360398 0.14243799 1.337 4278849031
-0.066125996 0.14329299 1.345 4278979847
-0.062383398 0.14308301 1.3430001 4278914054
-0.059132501 0.144044 1.352 4278979847
-0.0554634 0.14404701 1.352 4279111688
-0.051870801 0.144262 1.354 4279177481
-0.048338301 0.14469101 1.358 4279111688
-0.044619501 0.144586 1.357 4279440137
-0.041147299 0.14533401 1.364 4279440137
-0.0374448 0.145336 1.364 4279571723
-0.033816401 0.145657 1.367 4279834380
-0.0300395 0.145339 1.364 4280229392
-0.0265877 0.146725 1.377 4280426771
-0.198485 0.135296 1.3049999 4278783752
-0.19406199 0.134681 1.299 4278849545
-0.191137 0.135103 1.303 4278783752
-0.188623 0.13583601 1.3099999 4278915338
-0.186211 0.13667201 1.318 4278849545
-0.182647 0.13667899 1.318 4278915338
-0.17921899 0.13679001 1.319 4278915338
-0.179646 0.139908 1.349 4278849545
-0.17717101 0.140848 1.358 4278915338
-0.172986 0.14044 1.354 4278981131
-0.167822 0.139202 1.342 4278981131
-0.164802 0.139727 1.347 4279046924
-0.1596 0.138385 1.334 4279046924
-0.156691 0.13901401 1.34 4278915338
-0.15112101 0.137256 1.323 4279112203
-0.148655 0.1383 1.3329999 4279046410
-0.144936 0.138202 1.332 4278915338
-0.140374 0.137274 1.323 4278915338
-0.139272 0.13977 1.347 4278981131
-0.134717 0.138842 1.3380001 4278849545
-0.13217001 0.13998801 1.349 4278849545
-0.12699001 0.13833299 1.3329999 4278915338
-0.122453 0.137301 1.323 4278915338
-0.119676 0.13823999 1.332 4278915338
-0.114584 0.13648 1.3150001 4278915338
-0.111358 0.13689999 1.319 4278783752
-0.107292 0.136282 1.313 4278849545
-0.106181 0.139504 1.344 4278980617
-0.1033 0.14054701 1.354 4278914824
-0.100732 0.14210799 1.369 4278914824
-0.095460497 0.139828 1.347 4278914824
-0.090239704 0.137445 1.324 4278980617
-0.086255901 0.13682599 1.318 4278849031
-0.082869001 0.137141 1.321 4278849031
-0.080005698 0.13839 1.3329999 4278849031
-0.076733202 0.139016 1.339 4278914824
-0.073318698 0.13943499 1.3430001 4278914824
-0.069519103 0.139126 1.34 4278979847
-0.066227198 0.139856 1.347 4278914054
-0.062571898 0.13985901 1.347 4278914054
-0.059310101 0.14079601 1.3559999 4278979847
-0.0555069 0.140487 1.353 4279111688
-0.051949698 0.140801 1.3559999 4279111688
-0.048162401 0.14049099 1.353 4279177481
-0.044621501 0.140909 1.357 4279308551
-0.0409078 0.140807 1.3559999 4279571209
-0.0372543 0.140912 1.357 4279571209
-0.033521101 0.140706 1.355 4279702794
-0.029952699 0.14122701 1.36 4279965966
-0.0265116 0.14257801 1.373 4280294671
-0.022784101 0.142579 1.373 4280623636
-0.018959399 0.141853 1.3660001 4280821013
-0.0152061 0.14143801 1.362 4281149978
-0.0115336 0.14175101 1.365 4281347099
-0.198644 0.131864 1.306 4279046924
-0.19481599 0.131669 1.304 4279046410
-0.191438 0.131777 1.3049999 4279046410
-0.18834201 0.13208701 1.308 4278783752
-0.187066 0.13371 1.324 4278849545
-0.18417899 0.134222 1.329 4278915338
-0.17908999 0.133118 1.318 4278849545
-0.178987 0.13575 1.344 4278915338
-0.176526 0.136666 1.353 4278981131
-0.174909 0.138289 1.369 4278915338
-0.169204 0.13667899 1.353 4278981131
-0.165664 0.136787 1.354 4278981131
-0.15996601 0.135076 1.337 4279177996
-0.15587901 0.13467801 1.3329999 4278915338
-0.15009899 0.132764 1.314 4279112203
-0.147991 0.134083 1.327 4279046410
-0.14450701 0.13418999 1.3279999 4279177996
-0.139955 0.133286 1.319 4279046409
-0.13876 0.135616 1.342 4278980617
-0.13452099 0.135015 1.336 4279112203
-0.131685 0.135829 1.344 4278849031
-0.12651899 0.13421699 1.3279999 4278783752
-0.121717 0.132908 1.3150001 4278849545
-0.119591 0.13452999 1.331 4278783752
-0.114328 0.132614 1.312 4278849545
-0.111869 0.13393299 1.325 4278849545
-0.107541 0.133028 1.316 4278783752
-0.105474 0.13495301 1.335 4278980617
-0.102999 0.136473 1.35 4278980617
-0.100883 0.13860001 1.3710001 4278914824
-0.096102297 0.137088 1.3559999 4278849031
-0.090720601 0.134564 1.331 4278914824
-0.086194098 0.13315301 1.317 4278914824
-0.082935199 0.133662 1.322 4278849031
-0.079709001 0.13427199 1.3279999 4278914824
-0.076679103 0.135286 1.3380001 4278849031
-0.073431 0.135997 1.345 4278849031
-0.069677703 0.13579801 1.3430001 4278783238
-0.066229999 0.136205 1.347 4279111433
-0.062667497 0.13641 1.349 4278979847
-0.0594001 0.13732301 1.358 4279045640
-0.055755399 0.137426 1.359 4279111688
-0.0521052 0.13753 1.36 4279309067
-0.048413701 0.137532 1.36 4279177481
-0.0448207 0.13783699 1.363 4279440137
-0.041030198 0.137536 1.36 4279571209
-0.037200999 0.137032 1.355 4279571209
-0.033522502 0.137033 1.355 4279571209
-0.02991 0.137338 1.358 4279833866
-0.026416199 0.13835099 1.368 4280031245
-0.022635801 0.13794699 1.364 4280360464
-0.018835301 0.13723999 1.357 4280623634
-0.0150616 0.13643201 1.349 4281018392
-0.0114158 0.13663501 1.351 4281083927
-0.0077189198 0.13612901 1.346 4281215513
-0.19926 0.128722 1.3099999 4279309582
-0.194823 0.128139 1.304 4279177996
-0.19071101 0.127753 1.3 4279046410
-0.18834899 0.128546 1.308 4278717959
-0.191594 0.13327 1.3559999 4278849545
-0.18792699 0.133277 1.3559999 4278849545
-0.183173 0.132497 1.348 4278849545
-0.18152399 0.13397799 1.363 4278783752
-0.17692401 0.133297 1.3559999 4279046410
-0.17414901 0.133992 1.363 4278849545
-0.169585 0.13331001 1.3559999 4278915338
-0.16567101 0.133119 1.354 4278915338
-0.160331 0.131749 1.34 4278915338
-0.15530001 0.130575 1.3279999 4278981131
-0.149305 0.128516 1.307 4279112202
-0.147439 0.129997 1.322 4279243788
-0.144621 0.13069101 1.329 4279177995
-0.13974801 0.12951601 1.317 4279243788
-0.138042 0.131292 1.335 4279112202
-0.134425 0.13129701 1.335 4279112202
-0.13188601 0.132384 1.346 4279112203
-0.126048 0.130127 1.323 4278914824
-0.121629 0.12924699 1.314 4278980617
-0.119057 0.13033301 1.325 4278849545
-0.114245 0.128961 1.311 4278915338
-0.111873 0.13034201 1.325 4278849545
-0.107219 0.129068 1.312 4278915338
-0.104531 0.130154 1.323 4278783752
-0.102698 0.132421 1.346 4278849545
-0.100667 0.13459 1.368 4278914824
-0.096673198 0.13420001 1.364 4278980617
-0.091542199 0.132138 1.3430001 4278849031
-0.086655803 0.130272 1.324 4278914824
-0.083064102 0.13027599 1.324 4278914824
-0.0798923 0.130968 1.331 4278849031
-0.076739602 0.131758 1.339 4279045640
-0.073379397 0.13225301 1.344 4279045640
-0.069628701 0.13205899 1.342 4278979847
-0.0662819 0.132653 1.348 4278979847
-0.062855899 0.133147 1.353 4278979847
-0.059664998 0.134232 1.364 4278979847
-0.055962902 0.13423499 1.364 4279242760
-0.0523756 0.134532 1.367 4279308553
-0.048558101 0.134239 1.364 4279308553
-0.044954099 0.134536 1.367 4279374344
-0.041032001 0.13384899 1.36 4279571209
-0.0373399 0.13385101 1.36 4279505416
-0.0337466 0.13424601 1.364 4279636488
-0.030087501 0.134444 1.3660001 4279768074
-0.026475299 0.134937 1.3710001 4279768073
-0.022603501 0.13405301 1.362 4280031245
-0.018933199 0.13425 1.364 4280294671
-0.0151069 0.133168 1.353 4280557841
-0.0114163 0.132972 1.351 4280821013
-0.0076676402 0.131594 1.337 4280952854
-0.19881 0.124888 1.307 4279638547
-0.194381 0.124322 1.301 4279309582
-0.18969101 0.123564 1.293 4278915338
-0.187923 0.124717 1.3049999 4278981131
-0.193297 0.13074499 1.368 4278981131
-0.18932 0.13056099 1.3660001 4278915338
-0.186033 0.130854 1.369 4278981131
-0.183529 0.131721 1.378 4278915338
-0.179931 0.131823 1.3789999 4278980617
-0.175689 0.131447 1.375 4278914824
-0.17084201 0.130593 1.3660001 4278914824
-0.16543201 0.129261 1.352 4278980617
-0.160217 0.128024 1.339 4278849545
-0.154487 0.12630799 1.321 4278981130
-0.148397 0.12421 1.299 4279309581
-0.147891 0.126798 1.326 4279243788
-0.1443 0.126803 1.326 4279243788
-0.141027 0.127096 1.329 4279440653
-0.13856401 0.128153 1.34 4279506446
-0.13503499 0.128254 1.341 4279374860
-0.132479 0.129311 1.352 4279112202
-0.125957 0.12644599 1.322 4278980617
-0.120894 0.124921 1.306 4279046410
-0.118612 0.12626401 1.3200001 4278915338
-0.114075 0.12521701 1.309 4278849545
-0.112047 0.12694301 1.327 4278915338
-0.10755 0.12589499 1.316 4279112203
-0.104851 0.12695099 1.327 4279112203
-0.102168 0.128104 1.339 4279177996
-0.100082 0.130117 1.36 4279046410
-0.097102404 0.13107701 1.37 4279112203
-0.092704698 0.130124 1.36 4279046410
-0.0875756 0.128023 1.3380001 4278980617
-0.0831929 0.12687799 1.326 4278914824
-0.079775497 0.127168 1.329 4279111433
-0.076341502 0.127459 1.332 4279111433
-0.072890997 0.127749 1.335 4278979847
-0.069527797 0.12823001 1.34 4279045640
-0.066137098 0.128711 1.345 4279045640
-0.062812097 0.129384 1.352 4279045640
-0.059492499 0.130152 1.36 4279242760
-0.055842102 0.13025001 1.3609999 4279176967
-0.052147798 0.130252 1.3609999 4279176967
-0.048275299 0.129775 1.3559999 4279308553
-0.0446271 0.12987299 1.357 4279374346
-0.040973298 0.12997 1.358 4279570955
-0.037423801 0.13045099 1.363 4279571209
-0.033995401 0.131505 1.374 4279571209
-0.0301768 0.13112301 1.37 4279768074
-0.0263991 0.13083699 1.367 4279768073
-0.022538099 0.129977 1.358 4279899659
-0.018934 0.13055199 1.364 4279965706
-0.0152415 0.130648 1.365 4280426257
-0.0115773 0.131128 1.37 4280557841
-0.0077941301 0.13007499 1.359 4280623634
-0.199426 0.121721 1.311 4279835926
-0.19423901 0.120706 1.3 4279375889
-0.18896399 0.119598 1.288 4279112717
-0.187498 0.120905 1.302 4278981131
-0.194858 0.12806199 1.3789999 4278981131
-0.190713 0.12779 1.376 4278981131
-0.187806 0.128354 1.382 4278981131
-0.182336 0.12715299 1.369 4278915338
-0.180981 0.128831 1.387 4278980617
-0.176589 0.128373 1.382 4279046410
-0.172224 0.127914 1.377 4278980617
-0.16605 0.126063 1.357 4278980617
-0.16070101 0.124768 1.3430001 4278915338
-0.154025 0.122358 1.317 4278981130
-0.14885999 0.121063 1.303 4279243788
-0.148008 0.123298 1.327 4279375374
-0.14241201 0.124702 1.342 4279703825
-0.13919 0.12507901 1.346 4279703825
-0.135141 0.124713 1.342 4279572239
-0.132974 0.126112 1.357 4279506446
-0.127868 0.124722 1.342 4279309067
-0.123583 0.124077 1.335 4279111688
-0.118616 0.122687 1.3200001 4278980616
-0.113382 0.120925 1.301 4278980616
-0.111629 0.122882 1.322 4279177995
-0.107799 0.122607 1.319 4279177995
-0.104855 0.123355 1.327 4279440653
-0.10179 0.124009 1.334 4279374860
-0.099644497 0.125872 1.354 4279506446
-0.097035304 0.127271 1.369 4279374860
-0.093321897 0.12727401 1.369 4279309067
-0.088626303 0.125883 1.354 4279243274
-0.083635397 0.123934 1.3329999 4279243274
-0.080018803 0.123937 1.3329999 4279111688
-0.076115303 0.123476 1.3279999 4279242760
-0.072839297 0.124036 1.334 4279176967
-0.069634303 0.124783 1.342 4279111174
-0.066631503 0.125994 1.355 4279176967
-0.062907502 0.12590399 1.354 4279111174
-0.0593636 0.126185 1.357 4279176967
-0.055475101 0.125723 1.352 4279439369
-0.0519583 0.12609699 1.3559999 4279241990
-0.047992401 0.12535501 1.348 4279373576
-0.044464398 0.12572899 1.352 4279439369
-0.040793899 0.12572999 1.352 4279637002
-0.037397798 0.126662 1.362 4279702281
-0.033996802 0.12777901 1.374 4279768074
-0.030244101 0.12768701 1.373 4279702281
-0.026458099 0.12740999 1.37 4279833866
-0.022505799 0.126109 1.3559999 4279899659
-0.0189764 0.127132 1.367 4279899659
-0.0153314 0.127691 1.373 4280097292
-0.0117045 0.12880801 1.385 4280426257
-0.0079320902 0.128622 1.383 4280557841
-0.195739 0.118087 1.3099999 4279835926
-0.190878 0.117282 1.301 4279046924
-0.18663999 0.116838 1.296 4278981131
-0.196843 0.125589 1.393 4278981131
-0.192798 0.125415 1.391 4278849545
-0.187677 0.12452 1.381 4278981131
-0.18127701 0.122723 1.3609999 4278915338
-0.182814 0.12633599 1.401 4278980617
-0.17697901 0.124899 1.385 4278980617
-0.17423099 0.125627 1.393 4278980617
-0.16715699 0.123198 1.3660001 4278914824
-0.16142499 0.12167 1.349 4278980617
-0.154147 0.11888 1.318 4278849545
