# .PCD v0.7 - Point Cloud Data file format
VERSION 0.7
FIELDS x y z rgb
SIZE 4 4 4 4
TYPE F F F U
COUNT 1 1 1 1
WIDTH 1141
HEIGHT 1
VIEWPOINT 0 0 0 1 0 0 0
POINTS 1141
DATA ascii
0.29916301 0.106327 0.676 4285361236
0.30145001 0.10649 0.67699999 4285558617
0.30329499 0.106496 0.67699999 4285690201
0.30469099 0.106345 0.676 4285953115
0.30653501 0.106352 0.676 4285624402
0.308837 0.106516 0.67699999 4286018646
0.31114501 0.10668 0.67799997 4285689681
0.31299901 0.106688 0.67799997 4285887060
0.31531799 0.106853 0.67900002 4285755988
0.317177 0.106861 0.67900002 4285426771
0.31903699 0.10687 0.67900002 4285755990
0.320425 0.106721 0.67799997 4285426266
0.321334 0.106416 0.676 4285952349
0.32319 0.106425 0.676 4285952349
0.32456601 0.106277 0.67500001 4286346853
0.32642201 0.106288 0.67500001 4286083935
0.32827899 0.106298 0.67500001 4286347106
0.329649 0.106152 0.67400002 4286281567
0.33199799 0.10632 0.67500001 4286544992
0.33386001 0.106332 0.67500001 4286478936
0.33671901 0.106659 0.67699999 4286413656
0.33858901 0.106672 0.67699999 4286281818
0.34096399 0.106842 0.67799997 4286150746
0.342336 0.106698 0.67699999 4286216798
0.34421101 0.106711 0.67699999 4286282593
0.34506699 0.10641 0.67500001 4286479972
0.34694001 0.106425 0.67500001 4286743144
0.34881601 0.106439 0.67500001 4286545000
0.350694 0.106455 0.67500001 4286084448
0.35309601 0.106628 0.676 4286413414
0.35497999 0.106644 0.676 4286742378
0.35739499 0.106819 0.67699999 4286479464
0.35875499 0.106678 0.676 4286413926
0.36011201 0.106538 0.67500001 4286479719
0.36200199 0.106556 0.67500001 4286414175
0.363895 0.106574 0.67500001 4286347874
0.366873 0.106909 0.67699999 4286545253
0.36877501 0.106928 0.67699999 4286611046
0.37122801 0.107106 0.67799997 4286545257
0.373137 0.107126 0.67799997 4286545259
0.37505001 0.107147 0.67799997 4286873464
0.37640899 0.107011 0.67699999 4286544746
0.377206 0.106716 0.67500001 4286544746
0.37855601 0.106581 0.67400002 4286479206
0.38103199 0.106762 0.67500001 4286939757
0.38294899 0.106785 0.67500001 4286610792
0.384868 0.106809 0.67500001 4286348133
0.38621801 0.106675 0.67400002 4286808172
0.38871601 0.106859 0.67500001 4286611052
0.39064401 0.106884 0.67500001 4286216808
0.392575 0.106911 0.67500001 4284506705
0.39509401 0.107096 0.676 4282731322
0.396447 0.106965 0.67500001 4288191887
0.39897701 0.107151 0.676 4288192403
0.40033099 0.107021 0.67500001 4287731852
0.40227801 0.10705 0.67500001 4287994257
0.404228 0.10708 0.67500001 4287994511
0.40678301 0.107269 0.676 4287402888
0.40934801 0.107459 0.67699999 4287993996
0.41070601 0.107332 0.676 4288257166
0.412063 0.107205 0.67500001 4287731076
0.414644 0.107397 0.676 4287862148
0.417234 0.10759 0.67699999 4287730562
0.419835 0.107783 0.67799997 4287532929
0.42120001 0.107659 0.67699999 4287730310
0.422564 0.107536 0.676 4287270273
0.423926 0.107413 0.67500001 4287599236
0.426548 0.107609 0.676 4287927687
0.42918 0.107807 0.67699999 4288322699
0.43118501 0.107845 0.67699999 4287598976
0.43319401 0.107884 0.67699999 4287730308
0.43520799 0.107925 0.67699999 4287533190
0.437226 0.107965 0.67699999 4287533190
0.43924901 0.108007 0.67699999 4287730571
0.441277 0.108049 0.67699999 4287927434
0.44265401 0.107933 0.676 4287795333
0.44402999 0.107817 0.67500001 4286545520
0.44606599 0.107862 0.67500001 4287071603
0.44744301 0.107747 0.67400002 4287137396
0.45015201 0.107954 0.67500001 4287137394
0.45153299 0.107841 0.67400002 4287137394
0.45425901 0.108049 0.67500001 4287268980
0.45631999 0.108098 0.67500001 4286875250
0.457708 0.107987 0.67400002 4287533180
0.459777 0.108038 0.67400002 4287204985
0.46048099 0.107769 0.67199999 4287138938
0.46324399 0.107981 0.67299998 4287204217
0.46532699 0.108034 0.67299998 4287467387
0.46741599 0.108089 0.67299998 4286282338
-0.19951899 0.104683 0.67699999 4289573036
-0.197115 0.104378 0.67500001 4289967278
-0.1953 0.104382 0.67500001 4290098350
-0.19348501 0.104387 0.67500001 4289966764
-0.192239 0.104701 0.67699999 4289966764
-0.190137 0.104551 0.676 4289769899
-0.188041 0.104402 0.67500001 4289967278
-0.18622699 0.104407 0.67500001 4290033841
-0.184958 0.104721 0.67699999 4289968048
-0.18340801 0.104881 0.67799997 4289704876
-0.181585 0.104886 0.67799997 4289704876
-0.179497 0.104736 0.67699999 4289704876
-0.17767601 0.104742 0.67699999 4289836462
-0.175336 0.104438 0.67500001 4289770669
-0.173521 0.104443 0.67500001 4289704876
-0.17170499 0.104448 0.67500001 4289573290
-0.170141 0.104608 0.676 4289506727
-0.168074 0.104459 0.67500001 4289572520
-0.16625801 0.104465 0.67500001 4289572520
-0.164442 0.10447 0.67500001 4289769899
-0.162384 0.104321 0.67400002 4289440934
-0.16057099 0.104326 0.67400002 4289638313
-0.158757 0.104332 0.67400002 4289506727
-0.157176 0.104492 0.67500001 4289638313
-0.155819 0.104808 0.67699999 4289506213
-0.153769 0.104658 0.676 4289440420
-0.151949 0.104664 0.676 4289308834
-0.14990699 0.104515 0.67500001 4289572006
-0.14830901 0.104675 0.676 4289308320
-0.146705 0.104836 0.67699999 4289242526
-0.14488199 0.104842 0.67699999 4289439905
-0.143058 0.104847 0.67699999 4289110940
-0.141234 0.104853 0.67699999 4289176987
-0.13941 0.104859 0.67699999 4289308573
-0.137586 0.104864 0.67699999 4289505952
-0.13576201 0.10487 0.67699999 4289176987
-0.134333 0.105186 0.67900002 4289309342
-0.13230699 0.105036 0.67799997 4289440158
-0.13048001 0.105042 0.67799997 4289374365
-0.128462 0.104893 0.67699999 4289111193
-0.12682299 0.105053 0.67799997 4289768609
-0.124811 0.104904 0.67699999 4289703070
-0.122985 0.104909 0.67699999 4289505691
-0.121516 0.105225 0.67900002 4289242517
-0.119685 0.10523 0.67900002 4289176726
-0.118026 0.105391 0.68000001 4289373851
-0.115679 0.104931 0.67699999 4289044887
-0.11402 0.105091 0.67799997 4289176472
-0.11219 0.105097 0.67799997 4289176726
-0.110522 0.105257 0.67900002 4289242517
-0.108529 0.105107 0.67799997 4289176979
-0.106698 0.105112 0.67799997 4289242517
-0.105176 0.105427 0.68000001 4289045140
-0.10334 0.105433 0.68000001 4289768609
-0.101503 0.105438 0.68000001 4290032810
-0.099519499 0.105288 0.67900002 4289769640
-0.097684897 0.105292 0.67900002 4289638568
-0.095708899 0.105142 0.67799997 4289506982
-0.093738198 0.104992 0.67699999 4289375394
-0.0920441 0.105152 0.67799997 4289309603
-0.090344399 0.105312 0.67900002 4289440934
-0.088639103 0.105471 0.68000001 4289572520
-0.086800501 0.105476 0.68000001 4289309348
-0.084711798 0.10517 0.67799997 4289506213
-0.082633696 0.104864 0.676 4289506468
-0.080805302 0.104869 0.676 4289440159
-0.079210304 0.105183 0.67799997 4289374366
-0.077376097 0.105187 0.67799997 4289374366
-0.075653099 0.105347 0.67900002 4289242780
-0.073815703 0.105351 0.67900002 4289309087
-0.072084203 0.10551 0.68000001 4289638054
-0.070243798 0.105514 0.68000001 4289309089
-0.0682019 0.105207 0.67799997 4289045917
-0.066464402 0.105366 0.67900002 4289374366
-0.064626202 0.10537 0.67900002 4289571745
-0.062880203 0.105528 0.68000001 4289702817
-0.0610388 0.105532 0.68000001 4289505952
-0.0592844 0.10569 0.68099999 4289242780
-0.057271302 0.105383 0.67900002 4289571491
-0.055350501 0.105231 0.67799997 4289571492
-0.053435002 0.105079 0.67699999 4289703078
-0.051601 0.105082 0.67699999 4289637284
-0.049840301 0.10524 0.67799997 4289374113
-0.0480741 0.105398 0.67900002 4289506213
-0.046234202 0.105401 0.67900002 4289440420
-0.044394199 0.105403 0.67900002 4289703331
-0.042553999 0.105406 0.67900002 4289637538
-0.040653799 0.105253 0.67799997 4289440158
-0.038816102 0.105255 0.67799997 4289768609
-0.0369238 0.105102 0.67699999 4289637538
-0.035140399 0.10526 0.67799997 4289439905
-0.033253301 0.105106 0.67699999 4288914337
-0.0307217 0.102779 0.662 4289178025
-0.0285773 0.101539 0.65399998 4284440676
-0.0267221 0.10123 0.65200001 4283584843
-0.024916001 0.101076 0.65100002 4283255617
-0.023150699 0.101078 0.65100002 4283255354
-0.0213854 0.101079 0.65100002 4283124023
-0.0196502 0.101236 0.65200001 4283124023
-0.017882001 0.101237 0.65200001 4282926644
-0.016113801 0.101238 0.65200001 4282926644
-0.0143455 0.101239 0.65200001 4282926131
-0.0125965 0.101395 0.653 4282925617
-0.0108254 0.101395 0.653 4282990896
-0.0090543302 0.101396 0.653 4282793771
-0.0072832 0.101397 0.653 4282859563
-0.00553738 0.101863 0.65600002 4282793770
-0.00376954 0.102174 0.65799999 4282925356
-0.0019848 0.102174 0.65799999 4282662184
-0.000198838 0.101553 0.65399998 4282531112
0.00157265 0.101397 0.653 4282267940
0.0033438299 0.101397 0.653 4282662698
0.0051149898 0.101397 0.653 4282596905
0.0068861502 0.101397 0.653 4282531113
0.0086705303 0.101551 0.65399998 4282531112
0.0104603 0.101706 0.65499997 4282531112
0.0122742 0.102016 0.65700001 4282201894
0.0140561 0.102015 0.65700001 4282136101
0.0158379 0.102014 0.65700001 4282267687
0.017646501 0.102169 0.65799999 4282070308
0.019460499 0.102323 0.65899998 4282136101
0.021215299 0.102166 0.65799999 4282333734
0.0229997 0.102165 0.65799999 4282202147
0.0247462 0.102008 0.65700001 4282136354
0.0265681 0.102162 0.65799999 4282136355
0.028309099 0.102005 0.65700001 4282333220
0.0301362 0.102159 0.65799999 4282135840
0.032017101 0.102467 0.66000003 4282070048
0.033857599 0.102621 0.66100001 4282070308
0.035541601 0.102308 0.65899998 4281806876
0.0372146 0.101996 0.65700001 4282267427
0.038936 0.101838 0.65600002 4281675036
0.0408381 0.102146 0.65799999 4282003485
0.042491801 0.101834 0.65600002 4281937947
0.044337001 0.101986 0.65700001 4282069278
0.046117298 0.101984 0.65700001 4281675036
0.0481162 0.102447 0.66000003 4281872415
0.04998 0.102599 0.66100001 4281807136
0.051770698 0.102596 0.66100001 4281675550
0.0534802 0.102438 0.66000003 4281872415
0.0552679 0.102435 0.66000003 4281938462
0.057055499 0.102432 0.66000003 4281872668
0.058842901 0.102429 0.66000003 4281675542
0.060722001 0.10258 0.66100001 4281412885
0.062700897 0.102887 0.66299999 4281610264
0.064495899 0.102884 0.66299999 4281478678
0.066190697 0.102725 0.662 4281741597
0.067777298 0.102411 0.66000003 4281412632
0.069563597 0.102407 0.66000003 4281412378
0.0714579 0.102559 0.66100001 4281412378
0.073135801 0.1024 0.66000003 4281543964
0.075035103 0.102551 0.66100001 4281412378
0.076939598 0.102702 0.662 4281346071
0.078611404 0.102543 0.66100001 4281543450
0.080521002 0.102693 0.662 4281674522
0.082311302 0.102689 0.662 4281477657
0.0843556 0.102995 0.66399997 4281346071
0.086021297 0.102836 0.66299999 4281543450
0.087681301 0.102676 0.662 4281411864
0.089606002 0.102826 0.66299999 4281280792
0.091398001 0.102822 0.66299999 4281543704
0.093049303 0.102662 0.662 4281281560
0.094838202 0.102657 0.662 4281412892
0.096480899 0.102498 0.66100001 4281610525
0.0984153 0.102648 0.662 4281215513
0.100052 0.102488 0.66100001 4281413405
0.101992 0.102638 0.662 4281610271
0.103466 0.102323 0.66000003 4281544478
0.105089 0.102163 0.65899998 4281347099
0.106706 0.102003 0.65799999 4281412892
0.108647 0.102153 0.65899998 4281544478
0.110593 0.102302 0.66000003 4281610272
0.112545 0.102452 0.66100001 4281544478
0.114328 0.102447 0.66100001 4281412893
0.116112 0.102442 0.66100001 4281544478
0.117895 0.102436 0.66100001 4281479198
0.119678 0.102431 0.66100001 4281413405
0.121645 0.102581 0.662 4281676577
0.12343 0.102575 0.662 4281873697
0.125026 0.102415 0.66100001 4281873443
0.126808 0.102409 0.66100001 4282005029
0.12859 0.102404 0.66100001 4281742111
0.130372 0.102398 0.66100001 4281807650
0.132154 0.102393 0.66100001 4281807650
0.13434 0.102697 0.66299999 4281807650
0.13735899 0.103621 0.66900003 4282202408
0.140201 0.10439 0.67400002 4282531886
0.14243899 0.104694 0.676 4282597679
0.14404599 0.104533 0.67500001 4282729265
0.14586399 0.104528 0.67500001 4282465580
0.147682 0.104522 0.67500001 4282663213
0.149721 0.104671 0.676 4282859824
0.151765 0.10482 0.67699999 4282991664
0.15336099 0.10466 0.676 4283123764
0.15518101 0.104654 0.676 4282728752
0.15676799 0.104494 0.67500001 4282991924
0.158585 0.104488 0.67500001 4283255096
0.160402 0.104482 0.67500001 4283320890
0.162218 0.104477 0.67500001 4283584061
0.16403399 0.104471 0.67500001 4283452729
0.165851 0.104466 0.67500001 4283386935
0.167915 0.104615 0.676 4283124016
0.169733 0.10461 0.676 4283518774
0.17180599 0.104759 0.67699999 4283452729
0.173627 0.104754 0.67699999 4283452988
0.175188 0.104593 0.676 4283781953
0.177268 0.104743 0.67699999 4283913539
0.17882399 0.104583 0.676 4283979332
0.18090899 0.104732 0.67699999 4283978568
0.18273 0.104727 0.67699999 4283912522
0.185095 0.105031 0.67900002 4284044098
0.187196 0.105181 0.68000001 4283978305
0.189024 0.105176 0.68000001 4284307784
0.190291 0.104862 0.67799997 4284110659
0.192114 0.104857 0.67799997 4283913279
0.19336499 0.104543 0.676 4283650107
0.195182 0.104538 0.676 4284045123
0.19670799 0.104379 0.67500001 4284768848
0.198817 0.104529 0.676 4284966486
0.200634 0.104524 0.676 4284703316
0.20245101 0.10452 0.676 4284768856
0.20457099 0.10467 0.67699999 4284769370
0.207001 0.104975 0.67900002 4284572246
0.209134 0.105126 0.68000001 4284966488
0.21034101 0.104813 0.67799997 4284834900
0.211851 0.104654 0.67699999 4285097813
0.213356 0.104496 0.676 4284966225
0.215174 0.104492 0.676 4284966225
0.216671 0.104334 0.67500001 4285032532
0.219133 0.10464 0.67699999 4284835155
0.220954 0.104636 0.67699999 4284900948
0.223433 0.104942 0.67900002 4284769362
0.22525901 0.104939 0.67900002 4284966227
0.22708599 0.104936 0.67900002 4284834641
0.228576 0.104779 0.67799997 4285032020
0.23074 0.104931 0.67900002 4284439883
0.232567 0.104928 0.67900002 4284834386
0.23474 0.10508 0.68000001 4284637521
0.236222 0.104923 0.67900002 4284900948
0.237699 0.104767 0.67799997 4285229913
0.239172 0.10461 0.67699999 4285361499
0.24135099 0.104763 0.67799997 4285361244
0.242818 0.104607 0.67699999 4285098072
0.244642 0.104605 0.67699999 4285032279
0.246466 0.104604 0.67699999 4285229399
0.248657 0.104757 0.67799997 4284966227
0.250485 0.104756 0.67799997 4285032020
0.25194001 0.104601 0.67699999 4285229140
0.253391 0.104446 0.676 4284768588
0.25521499 0.104445 0.676 4284834634
0.25741899 0.1046 0.67699999 4284965958
0.25924599 0.104599 0.67699999 4285229130
0.26145899 0.104754 0.67799997 4284768841
0.26290101 0.1046 0.67699999 4285097806
0.26473001 0.1046 0.67699999 4285097553
0.265771 0.104292 0.67500001 4285229140
0.26759499 0.104293 0.67500001 4284834120
0.26981899 0.104449 0.676 4285031753
0.27204901 0.104605 0.67699999 4285096776
0.27428499 0.104761 0.67799997 4285227850
0.27612001 0.104763 0.67799997 4285425229
0.277136 0.104456 0.676 4285293904
0.27855399 0.104304 0.67500001 4285360212
0.27996701 0.104152 0.67400002 4285491798
0.28179401 0.104154 0.67400002 4285228879
0.28320101 0.104003 0.67299998 4285360465
0.28545001 0.104161 0.67400002 4285425995
0.28727901 0.104164 0.67400002 4285228364
0.28910899 0.104168 0.67400002 4285096778
0.290077 0.103863 0.67199999 4285557843
0.29190299 0.103867 0.67199999 4285360978
0.29372999 0.103872 0.67199999 4285229646
0.29555899 0.103877 0.67199999 4285295443
0.29738799 0.103882 0.67199999 4285295443
0.30010799 0.104196 0.67400002 4285558617
0.301945 0.104202 0.67400002 4285690203
0.302881 0.103899 0.67199999 4285689943
0.30471501 0.103905 0.67199999 4285492818
0.30700499 0.104066 0.67299998 4285755474
0.30930299 0.104228 0.67400002 4285887060
0.31160599 0.10439 0.67500001 4285952853
0.31391701 0.104552 0.676 4285558609
0.31623399 0.104715 0.67699999 4285492818
0.31714901 0.104414 0.67500001 4285426771
0.318526 0.104267 0.67400002 4285361232
0.319424 0.103967 0.67199999 4285426519
0.32126799 0.103976 0.67199999 4285886302
0.32359499 0.10414 0.67299998 4285689438
0.325928 0.104305 0.67400002 4286084449
0.32729599 0.10416 0.67299998 4286347106
0.32817101 0.103861 0.671 4286347107
0.33002001 0.103872 0.671 4286215257
0.33236501 0.104038 0.67199999 4286149718
0.33471701 0.104205 0.67299998 4286281304
0.33707601 0.104372 0.67400002 4285952853
0.339443 0.104539 0.67500001 4286019162
0.34131101 0.104552 0.67500001 4286151005
0.34267199 0.10441 0.67400002 4286414179
0.34454101 0.104424 0.67400002 4286545765
0.345898 0.104283 0.67299998 4286413920
0.34828499 0.104453 0.67400002 4286610278
0.35015899 0.104467 0.67400002 4286281567
0.35203499 0.104483 0.67400002 4286478693
0.352864 0.104188 0.67199999 4286742379
0.355266 0.10436 0.67299998 4286479207
0.35714599 0.104376 0.67299998 4287071343
0.35902801 0.104393 0.67299998 4286611050
0.36144799 0.104566 0.67400002 4286479719
0.36279801 0.104429 0.67299998 4286677096
0.36468601 0.104447 0.67299998 4286611305
0.366577 0.104466 0.67299998 4286940015
0.36901799 0.104641 0.67400002 4287005810
0.37146601 0.104816 0.67500001 4287071603
0.37336999 0.104836 0.67500001 4286611052
0.37583101 0.105012 0.676 4286742638
0.377184 0.104878 0.67500001 4286808172
0.37853301 0.104745 0.67400002 4286742378
0.37988001 0.104612 0.67299998 4286807910
0.38179001 0.104635 0.67299998 4286742118
0.38370401 0.104658 0.67299998 4286478946
0.38562 0.104682 0.67299998 4287070829
0.38696301 0.104551 0.67199999 4286808172
0.388304 0.10442 0.671 4286347880
0.390223 0.104446 0.671 4285690464
0.39272901 0.104627 0.67199999 4283191359
0.39524499 0.10481 0.67299998 4284836446
0.39658901 0.104681 0.67199999 4287863438
0.398523 0.104709 0.67199999 4288257683
0.40046099 0.104737 0.67199999 4287994257
0.40240201 0.104766 0.67199999 4288125843
0.40434599 0.104796 0.67199999 4287796878
0.40689799 0.104982 0.67299998 4287993743
0.40885201 0.105013 0.67299998 4287993996
0.41080999 0.105045 0.67299998 4287862410
0.41399801 0.105389 0.67500001 4287598722
0.415968 0.105422 0.67500001 4287467136
0.417943 0.105455 0.67500001 4287599238
0.418677 0.105177 0.67299998 4287665031
0.42065299 0.105212 0.67299998 4287533445
0.42200601 0.105091 0.67199999 4287532929
0.42524901 0.10544 0.67400002 4287401343
0.42724001 0.105477 0.67400002 4287731076
0.42987299 0.105671 0.67500001 4287731076
0.43187499 0.105709 0.67500001 4287796101
0.43388301 0.105749 0.67500001 4287796617
0.43524799 0.105632 0.67400002 4287401604
0.43726099 0.105672 0.67400002 4287730569
0.438627 0.105557 0.67299998 4287862155
0.43933699 0.105285 0.671 4287730824
0.44135499 0.105328 0.671 4286941306
0.44403899 0.105528 0.67199999 4286940276
0.446733 0.10573 0.67299998 4286874738
0.44943899 0.105932 0.67400002 4286874738
0.45081601 0.105821 0.67299998 4287006063
0.452865 0.105868 0.67299998 4287466614
0.45491999 0.105916 0.67299998 4287269747
0.45629999 0.105807 0.67199999 4287598714
0.45767999 0.105699 0.671 4287270008
0.45906001 0.105591 0.67000002 4287598975
0.461815 0.1058 0.671 4287730561
0.463891 0.105852 0.671 4287335803
0.466667 0.106063 0.67199999 4287598714
-0.19863901 0.102401 0.67400002 4288848789
-0.19653501 0.102253 0.67299998 4288519571
-0.194437 0.102106 0.67199999 4288979354
-0.192917 0.102262 0.67299998 4288979355
-0.191108 0.102267 0.67299998 4289176733
-0.189017 0.10212 0.67199999 4289374112
-0.186932 0.101973 0.671 4289439905
-0.185404 0.10213 0.67199999 4289835433
-0.183597 0.102135 0.67199999 4289638568
-0.182061 0.102292 0.67299998 4289572775
-0.180251 0.102297 0.67299998 4289638313
-0.178441 0.102302 0.67299998 4289243555
-0.176632 0.102307 0.67299998 4289835692
-0.17456201 0.10216 0.67199999 4289704106
-0.173012 0.102318 0.67299998 4289638313
-0.170947 0.102171 0.67199999 4289966764
-0.16939101 0.102328 0.67299998 4289703592
-0.16758101 0.102334 0.67299998 4289900971
-0.166017 0.102491 0.67400002 4290032557
-0.16444699 0.102649 0.67500001 4289769899
-0.16238999 0.102502 0.67400002 4289704106
-0.160338 0.102356 0.67299998 4289704106
-0.158527 0.102361 0.67299998 4289572520
-0.15718099 0.102671 0.67500001 4289440934
-0.155825 0.102981 0.67699999 4289572006
-0.15377501 0.102834 0.676 4289769385
-0.15173 0.102688 0.67500001 4289506213
-0.149691 0.102541 0.67400002 4289309089
-0.148095 0.102699 0.67500001 4289243296
-0.146494 0.102857 0.676 4289374882
-0.14445899 0.10271 0.67500001 4289440673
-0.14242999 0.102564 0.67400002 4289374880
-0.140614 0.102569 0.67400002 4289505952
-0.13900401 0.102727 0.67500001 4289505698
-0.13718501 0.102733 0.67500001 4289111710
-0.135166 0.102586 0.67400002 4289309089
-0.13354699 0.102744 0.67500001 4289243294
-0.131923 0.102901 0.676 4289177501
-0.1301 0.102907 0.676 4289242526
-0.128088 0.10276 0.67500001 4289242780
-0.126081 0.102614 0.67400002 4289505438
-0.124263 0.102619 0.67400002 4289505437
-0.122627 0.102777 0.67500001 4289439644
-0.120806 0.102782 0.67500001 4289505437
-0.119161 0.10294 0.676 4289768609
-0.117684 0.10325 0.67799997 4289636770
-0.115513 0.102951 0.676 4289242012
-0.113689 0.102956 0.676 4289505437
-0.111533 0.102656 0.67400002 4289439644
-0.109876 0.102814 0.67500001 4289110931
-0.108054 0.102819 0.67500001 4289308310
-0.106388 0.102977 0.676 4289242517
-0.104718 0.103134 0.67699999 4289308312
-0.102889 0.103139 0.67699999 4289242780
-0.10106 0.103144 0.67699999 4289111710
-0.099084698 0.102996 0.676 4289440420
-0.097258203 0.103001 0.676 4289309348
-0.095431402 0.103006 0.676 4289309603
-0.093465999 0.102858 0.67500001 4289506982
-0.091777302 0.103016 0.676 4289704361
-0.089816801 0.102868 0.67500001 4289309348
-0.088252597 0.103177 0.67699999 4289440420
-0.086166702 0.102877 0.67500001 4289111969
-0.084341399 0.102881 0.67500001 4288914590
-0.082393497 0.102733 0.67400002 4288914331
-0.080689996 0.10289 0.67500001 4288848538
-0.078980803 0.103046 0.676 4289045401
-0.077151902 0.103051 0.676 4288979607
-0.075322799 0.103055 0.676 4288979608
-0.073493503 0.103059 0.676 4288782743
-0.071770102 0.103215 0.67699999 4288914331
-0.069937699 0.103219 0.67699999 4289111710
-0.068004496 0.10307 0.676 4289045917
-0.066174403 0.103074 0.676 4289176987
-0.064344198 0.103077 0.676 4289308572
-0.0626987 0.103386 0.67799997 4289505437
-0.0607729 0.103237 0.67699999 4289045401
-0.059026498 0.103392 0.67799997 4289702816
-0.057105798 0.103243 0.67699999 4289637024
-0.055190299 0.103094 0.676 4289769124
-0.0532801 0.102944 0.67500001 4289637538
-0.0514514 0.102947 0.67500001 4289176987
-0.049549099 0.102798 0.67400002 4289703077
-0.0478644 0.103105 0.676 4289572261
-0.0460325 0.103108 0.676 4289440675
-0.044200599 0.103111 0.676 4289703077
-0.042368401 0.103113 0.676 4289768870
-0.040596198 0.103268 0.67699999 4289440159
-0.038703799 0.103118 0.676 4289637284
-0.036816798 0.102967 0.67500001 4289571491
-0.034986898 0.102969 0.67500001 4289177248
-0.033156902 0.102971 0.67500001 4288848544
-0.030769899 0.101143 0.66299999 4289375658
-0.0286227 0.099923797 0.65499997 4284770147
-0.0267237 0.099467702 0.65200001 4283519819
-0.024955699 0.0994692 0.65200001 4283321409
-0.0231521 0.099318102 0.65100002 4283255609
-0.0213867 0.099319398 0.65100002 4282466093
-0.019621201 0.099320598 0.65100002 4283123510
-0.017883001 0.099474199 0.65200001 4282926131
-0.016139399 0.0996278 0.653 4282860338
-0.0143464 0.099476099 0.65200001 4282860338
-0.0125779 0.099476904 0.65200001 4282859824
-0.0108261 0.099630199 0.653 4282925617
-0.0090687303 0.099783301 0.65399998 4282531113
-0.0072947899 0.099783801 0.65399998 4282925356
-0.0055292598 0.099936798 0.65499997 4282727978
-0.0037640301 0.100242 0.65700001 4282596392
-0.00197888 0.10009 0.65600002 4282464806
-0.000199154 0.099937297 0.65499997 4282794285
0.0015751499 0.099784598 0.65399998 4282531113
0.0033491501 0.099784501 0.65399998 4282399527
0.00512313 0.0997843 0.65399998 4282202148
0.00690764 0.0999365 0.65499997 4282399273
0.0086842999 0.099936001 0.65499997 4282267941
0.0104769 0.100088 0.65600002 4282136355
0.0122749 0.10024 0.65700001 4282333480
0.0140569 0.100239 0.65700001 4282333480
0.0158388 0.100238 0.65700001 4282267687
0.0176744 0.100542 0.65899998 4282070308
0.0194616 0.100541 0.65899998 4281873183
0.021216599 0.100388 0.65799999 4282136354
0.023001 0.100386 0.65799999 4282333219
0.024785399 0.100385 0.65799999 4282004769
0.02661 0.100536 0.65899998 4281873183
0.028396901 0.100534 0.65899998 4282202148
0.0302295 0.100685 0.66000003 4281938976
0.032116 0.100989 0.662 4282004769
0.0339108 0.100987 0.662 4281872929
0.035543598 0.100527 0.65899998 4282398253
0.0372734 0.100372 0.65799999 4281806622
0.038997602 0.100218 0.65700001 4281740829
0.0409646 0.100673 0.66000003 4281806108
0.042688601 0.100518 0.65899998 4282003485
0.044407099 0.100363 0.65799999 4281740315
0.046330601 0.100666 0.66000003 4281938208
0.048264802 0.100968 0.662 4281872415
0.050133999 0.101118 0.66299999 4281675550
0.051851898 0.100962 0.662 4281675551
0.053645302 0.100959 0.662 4281807136
0.0553548 0.100804 0.66100001 4281806622
0.057058699 0.100648 0.66000003 4281675290
0.058846101 0.100645 0.66000003 4281806873
0.060725302 0.100794 0.66100001 4281741080
0.062609799 0.100943 0.662 4281543703
0.064304799 0.100787 0.66100001 4281609496
0.066194303 0.100936 0.662 4281543964
0.067986399 0.100933 0.662 4281807136
0.0698836 0.101081 0.66299999 4281609757
0.071569897 0.100925 0.662 4281675550
0.073250502 0.100769 0.66100001 4281543964
0.075152598 0.100917 0.662 4281280792
0.077059902 0.101066 0.66299999 4281412118
0.078853503 0.101062 0.66299999 4281542936
0.080525197 0.100905 0.662 4281740315
0.082439996 0.101053 0.66299999 4281609243
0.084360003 0.101201 0.66399997 4281543450
0.0860257 0.101044 0.66299999 4281346071
0.087685801 0.100888 0.662 4281412378
0.089610502 0.101035 0.66299999 4281214999
0.091402598 0.101031 0.66299999 4281346585
0.093053997 0.100874 0.662 4281347099
0.094699599 0.100717 0.66100001 4281347099
0.096631698 0.100864 0.662 4281412892
0.098420203 0.10086 0.662 4281478685
0.100511 0.10116 0.66399997 4281479198
0.102305 0.101155 0.66399997 4281412892
0.104098 0.10115 0.66399997 4281478685
0.105572 0.10084 0.662 4281478685
0.107197 0.100683 0.66100001 4281347100
0.109147 0.10083 0.662 4281412893
0.110934 0.100825 0.662 4281873446
0.11289 0.100972 0.66299999 4281544479
0.114507 0.100814 0.662 4281610272
0.116469 0.100961 0.66299999 4281479198
0.118436 0.101108 0.66399997 4281610784
0.120046 0.100951 0.66299999 4281676577
0.122018 0.101098 0.66399997 4281479198
0.123622 0.10094 0.66299999 4281610271
0.12541001 0.100935 0.66299999 4281347099
0.12700599 0.100777 0.662 4281807650
0.12879001 0.100772 0.662 4281939236
0.13018 0.100462 0.66000003 4282005029
0.13195901 0.100456 0.66000003 4281807650
0.13434599 0.100907 0.66299999 4281939236
0.137364 0.101815 0.66900003 4282465580
0.139791 0.102266 0.67199999 4282466093
0.142023 0.102565 0.67400002 4282597679
0.143838 0.102559 0.67400002 4282926644
0.14565399 0.102554 0.67400002 4282729006
0.147469 0.102548 0.67400002 4282597420
0.14928401 0.102542 0.67400002 4282531627
0.15132301 0.102689 0.67500001 4282794799
0.152913 0.102531 0.67400002 4282795056
0.154728 0.102526 0.67400002 4283058230
0.15631001 0.102368 0.67299998 4283189303
0.158591 0.102666 0.67500001 4283255096
0.16017 0.102509 0.67400002 4283057720
0.16222399 0.102655 0.67500001 4283320890
0.16404 0.10265 0.67500001 4283650108
0.165856 0.102644 0.67500001 4283584314
0.16767199 0.102639 0.67500001 4282992684
0.169488 0.102634 0.67500001 4283781432
0.17155699 0.10278 0.676 4283650108
0.173375 0.102775 0.676 4283518781
0.174934 0.102618 0.67500001 4283847746
0.17675 0.102612 0.67500001 4283716160
0.178829 0.102759 0.676 4283913539
0.180914 0.102906 0.67699999 4283781440
0.182735 0.102901 0.67699999 4283912512
0.18455499 0.102896 0.67699999 4284044098
0.18637501 0.102891 0.67699999 4284241477
0.18819501 0.102886 0.67699999 4284241991
0.190015 0.102881 0.67699999 4283913026
0.191552 0.102724 0.676 4283847487
0.19279701 0.102415 0.67400002 4283715900
0.19432101 0.102259 0.67299998 4283913537
0.19612999 0.102254 0.67299998 4284571469
0.19823299 0.102402 0.67400002 4284965972
0.200045 0.102397 0.67400002 4285097306
0.201857 0.102393 0.67400002 4284702809
0.203669 0.102388 0.67400002 4284703063
0.20609 0.102688 0.676 4284900695
0.208215 0.102836 0.67699999 4284637521
0.20972501 0.10268 0.676 4284769362
0.211542 0.102676 0.676 4284834639
0.213044 0.10252 0.67500001 4285032018
0.21485899 0.102517 0.67500001 4284835155
0.216353 0.102361 0.67400002 4284835155
0.21848901 0.10251 0.67500001 4284835155
0.220631 0.102658 0.676 4284835155
0.223107 0.102959 0.67799997 4284835155
0.22426701 0.102652 0.676 4284966741
0.22642 0.102801 0.67699999 4285032020
0.227567 0.102494 0.67500001 4285098327
0.22972301 0.102643 0.676 4284966486
0.231199 0.102489 0.67500001 4285032279
0.23336101 0.102638 0.676 4284637776
0.235181 0.102636 0.676 4285032534
0.237 0.102634 0.676 4284900948
0.23846699 0.10248 0.67500001 4284835155
0.23992901 0.102326 0.67400002 4284703567
0.241744 0.102325 0.67400002 4285032532
0.24319801 0.102171 0.67299998 4284966741
0.24537501 0.102322 0.67400002 4285229399
0.247558 0.102472 0.67500001 4285229399
0.249377 0.102471 0.67500001 4285032020
0.25119701 0.10247 0.67500001 4285294939
0.252267 0.102166 0.67299998 4284966984
0.25408199 0.102166 0.67299998 4284835904
0.255898 0.102165 0.67299998 4285426778
0.25809699 0.102317 0.67400002 4285492571
0.25991601 0.102317 0.67400002 4285361238
0.26173601 0.102317 0.67400002 4285295190
0.26394701 0.102469 0.67500001 4285821534
0.264983 0.102167 0.67299998 4285492571
0.267198 0.102319 0.67400002 4285229397
0.26941901 0.102472 0.67500001 4285558617
0.27124399 0.102473 0.67500001 4285360725
0.27307001 0.102475 0.67500001 4285689176
0.27448899 0.102325 0.67400002 4285229139
0.27631399 0.102327 0.67400002 4285558105
0.27731299 0.102025 0.67199999 4285426518
0.278303 0.101724 0.67000002 4285558104
0.27970099 0.101575 0.66900003 4285360978
0.28193501 0.10173 0.67000002 4285689683
0.28459999 0.102036 0.67199999 4285821015
0.28684899 0.102192 0.67299998 4285360464
0.28867599 0.102195 0.67299998 4285755222
0.28964099 0.101895 0.671 4285755736
0.291899 0.102051 0.67199999 4285427284
0.29328901 0.101904 0.671 4285098319
0.29511401 0.101909 0.671 4285163857
0.29694 0.101914 0.671 4285229652
0.30010301 0.102374 0.67400002 4285624157
0.302387 0.102532 0.67500001 4285689950
0.30377701 0.102386 0.67400002 4285426778
0.304708 0.102088 0.67199999 4285689948
0.30654299 0.102095 0.67199999 4285558617
0.308837 0.102253 0.67299998 4285755483
0.31067601 0.10226 0.67299998 4285558104
0.313445 0.102571 0.67500001 4285690203
0.315292 0.102579 0.67500001 4285624410
0.316201 0.102283 0.67299998 4285755994
0.317572 0.102139 0.67199999 4285098066
0.31846401 0.101844 0.67000002 4285229397
0.32030299 0.101853 0.67000002 4285623898
0.32214299 0.101862 0.67000002 4285887070
0.32495099 0.102176 0.67199999 4285689437
0.32631299 0.102034 0.671 4286018656
0.32767099 0.101892 0.67000002 4286347360
0.329025 0.10175 0.66900003 4286084188
0.33136401 0.101913 0.67000002 4286281566
0.333711 0.102077 0.671 4286084441
0.336564 0.102393 0.67299998 4285624402
0.33842501 0.102405 0.67299998 4286150752
0.340287 0.102417 0.67299998 4286413924
0.34164199 0.102278 0.67199999 4286348131
0.342994 0.102139 0.671 4286479972
0.34485599 0.102153 0.671 4286611045
0.34723699 0.102319 0.67199999 4286215774
0.349105 0.102334 0.67199999 4286412383
0.35149801 0.102501 0.67299998 4286544485
0.35284799 0.102364 0.67199999 4286347107
0.35366699 0.102075 0.67000002 4286281828
0.355537 0.102091 0.67000002 4286676586
0.35741001 0.102108 0.67000002 4286216292
0.360358 0.10243 0.67199999 4286282085
0.361702 0.102295 0.671 4286808429
0.364126 0.102465 0.67199999 4286479464
0.36601299 0.102483 0.67199999 4286545259
0.368451 0.102655 0.67299998 4286676845
0.37034601 0.102674 0.67299998 4286874224
0.37224299 0.102694 0.67299998 4287137396
0.37358701 0.102562 0.67199999 4286940017
0.37548599 0.102583 0.67199999 4286742636
0.377388 0.102604 0.67199999 4286873964
0.37929299 0.102626 0.67199999 4287202930
0.38119999 0.102648 0.67199999 4286479206
0.38310999 0.102671 0.67199999 4286348378
0.385023 0.102694 0.67199999 4286874218
0.38578701 0.102412 0.67000002 4286939757
0.38769999 0.102437 0.67000002 4286347880
0.38961601 0.102461 0.67000002 4286150501
0.39211899 0.10264 0.671 4285295706
0.39404401 0.102666 0.671 4283256898
0.395971 0.102692 0.671 4287928717
0.39790201 0.10272 0.671 4288191636
0.399836 0.102747 0.671 4287927695
0.40237299 0.102929 0.67199999 4287927695
0.40431601 0.102958 0.67199999 4288060051
0.40686801 0.103141 0.67299998 4287862672
0.408214 0.103018 0.67199999 4287665292
0.41016799 0.103048 0.67199999 4287337095
0.41273901 0.103233 0.67299998 4287731339
0.41470301 0.103265 0.67299998 4287336581
0.41605201 0.103145 0.67199999 4287533960
0.41739899 0.103024 0.671 4287533190
0.41999301 0.103212 0.67199999 4287336066
0.42134199 0.103093 0.671 4287467390
0.423951 0.103282 0.67199999 4287862148
0.425302 0.103164 0.671 4287336317
0.428561 0.103509 0.67299998 4288125320
0.42991799 0.103392 0.67199999 4287664769
0.43191499 0.10343 0.67199999 4287467652
0.43391699 0.103469 0.67199999 4287532676
0.43592399 0.103509 0.67199999 4287598985
0.43728301 0.103395 0.671 4287862157
0.43798599 0.103128 0.66900003 4287598983
0.43933901 0.103015 0.66799998 4287138425
0.442013 0.103212 0.66900003 4286743152
0.445362 0.103564 0.671 4287005810
0.44672701 0.103454 0.67000002 4286940015
0.448091 0.103344 0.66900003 4287006063
0.4508 0.103544 0.67000002 4286940268
0.45352 0.103746 0.671 4287203695
0.45489401 0.103638 0.67000002 4287071856
0.456267 0.103532 0.66900003 4287729786
0.456954 0.103271 0.667 4287532152
0.45969999 0.103476 0.66799998 4287401082
0.46176499 0.103527 0.66799998 4287598461
0.463837 0.103578 0.66799998 4287532668
-0.199563 0.10013 0.671 4289111455
-0.198054 0.100284 0.67199999 4289110941
-0.19595601 0.100139 0.671 4289176473
-0.194152 0.100144 0.671 4289439391
-0.192635 0.100297 0.67199999 4289439391
-0.191112 0.100451 0.67299998 4289636770
-0.189022 0.100307 0.67199999 4289373598
-0.186937 0.100162 0.671 4289308059
-0.184857 0.100018 0.67000002 4289045401
-0.183056 0.100023 0.67000002 4288980122
-0.18152501 0.100177 0.671 4288716950
-0.179988 0.100332 0.67199999 4288585366
-0.17791601 0.100187 0.671 4288585366
-0.176374 0.100342 0.67199999 4288453780
-0.174308 0.100198 0.671 4288453525
-0.17250299 0.100203 0.671 4288519318
-0.17018899 0.099909499 0.66900003 4288584597
-0.16839001 0.099914797 0.66900003 4289110941
-0.16659001 0.099920101 0.66900003 4289243041
-0.16553 0.100374 0.67199999 4289703592
-0.16372199 0.100379 0.67199999 4289966764
-0.16191401 0.100384 0.67199999 4289704106
-0.159867 0.10024 0.671 4290032557
-0.158297 0.100395 0.67199999 4289769385
-0.156488 0.100401 0.67199999 4289637799
-0.15514 0.100705 0.67400002 4289637799
-0.153098 0.100561 0.67299998 4289506468
-0.15128601 0.100567 0.67299998 4289637284
-0.14903 0.100273 0.671 4289505698
-0.147443 0.100428 0.67199999 4289374882
-0.145633 0.100434 0.67199999 4289572261
-0.143823 0.10044 0.67199999 4289769640
-0.14159 0.100146 0.67000002 4289374882
-0.140202 0.100451 0.67199999 4289243296
-0.138598 0.100606 0.67299998 4289243296
-0.136988 0.100761 0.67400002 4289374882
-0.13497099 0.100617 0.67299998 4289440675
-0.13335501 0.100772 0.67400002 4289309087
-0.131538 0.100777 0.67400002 4289177501
-0.129528 0.100633 0.67299998 4289242780
-0.12771399 0.100639 0.67299998 4289308573
-0.12571201 0.100495 0.67199999 4289242780
-0.1239 0.1005 0.67199999 4289045147
-0.122269 0.100655 0.67299998 4289176987
-0.120453 0.10066 0.67299998 4289045401
-0.118638 0.100666 0.67299998 4289110940
-0.117169 0.10097 0.67500001 4289374113
-0.115347 0.100975 0.67500001 4289242526
-0.113357 0.100831 0.67400002 4289440159
-0.111373 0.100686 0.67299998 4289176987
-0.109556 0.100692 0.67299998 4289242780
-0.107739 0.100697 0.67299998 4289505951
-0.105921 0.100702 0.67299998 4289439644
-0.104413 0.101006 0.67500001 4289702816
-0.10259 0.101011 0.67500001 4289373851
-0.100617 0.100866 0.67400002 4289439645
-0.0986498 0.100721 0.67299998 4289308573
-0.096831299 0.100726 0.67299998 4289045915
-0.095012598 0.100731 0.67299998 4288848538
-0.093055204 0.100586 0.67199999 4288848538
-0.091374598 0.10074 0.67299998 4288848538
-0.089422099 0.100595 0.67199999 4289110941
-0.087735601 0.100749 0.67299998 4289045148
-0.085915796 0.100754 0.67299998 4289505699
-0.084095798 0.100758 0.67299998 4289505698
-0.082275599 0.100762 0.67299998 4289637538
-0.080574699 0.100916 0.67400002 4289308573
-0.078984998 0.10122 0.676 4289242779
-0.077041902 0.101074 0.67500001 4289242779
-0.075215399 0.101078 0.67500001 4289176986
-0.073171303 0.100782 0.67299998 4288782998
-0.071455799 0.100936 0.67400002 4288980122
-0.069631502 0.10094 0.67400002 4289111708
-0.067907497 0.101093 0.67500001 4288914329
-0.066080101 0.101097 0.67500001 4289045401
-0.064347699 0.10125 0.676 4288979861
-0.062517203 0.101254 0.676 4289110933
-0.060686499 0.101257 0.676 4289176726
-0.058855601 0.10126 0.676 4289308312
-0.057024602 0.101263 0.676 4289242519
-0.055111699 0.101117 0.67500001 4289044886
-0.053204201 0.10097 0.67400002 4289110933
-0.0513018 0.100823 0.67299998 4289374103
-0.0494783 0.100826 0.67299998 4288848021
-0.047725499 0.100978 0.67400002 4288848275
-0.045898899 0.100981 0.67400002 4289308572
-0.0440723 0.100983 0.67400002 4288520087
-0.0422455 0.100986 0.67400002 4289178017
-0.040418599 0.100988 0.67400002 4289309348
-0.0385915 0.10099 0.67400002 4289243555
-0.0367098 0.100843 0.67299998 4289308834
-0.034885298 0.100845 0.67299998 4289308834
-0.033060599 0.100847 0.67299998 4289111716
-0.0307253 0.099200197 0.662 4288980899
-0.0286244 0.098153003 0.65499997 4284572252
-0.0267662 0.097854897 0.653 4284111956
-0.025033699 0.098006196 0.65399998 4283452733
-0.0232601 0.098007597 0.65399998 4283321402
-0.021420799 0.097709201 0.65200001 4283386936
-0.019682599 0.097860202 0.653 4283254835
-0.017911499 0.097861297 0.653 4283057456
-0.0161651 0.098012201 0.65399998 4282729005
-0.0143692 0.097863197 0.653 4282991663
-0.012598 0.097864002 0.653 4282794284
-0.0108433 0.098014504 0.65399998 4282859824
-0.0090831202 0.098164901 0.65499997 4282596906
-0.00730637 0.0981654 0.65499997 4283122482
-0.0055380301 0.098315701 0.65600002 4282596138
-0.0037585199 0.098315902 0.65600002 4282661931
-0.0019789999 0.098316103 0.65600002 4282530345
-0.000198861 0.098016404 0.65399998 4282859310
0.00157765 0.098166198 0.65499997 4282662445
0.00335446 0.098166101 0.65499997 4282399527
0.00513126 0.0981659 0.65499997 4282728238
0.0069185901 0.098315403 0.65600002 4282070308
0.0087245898 0.0986147 0.65799999 4282464552
0.0105254 0.098764002 0.65899998 4282333480
0.0122756 0.098463602 0.65700001 4282201895
0.0140577 0.098462798 0.65700001 4282399274
0.0158397 0.098461904 0.65700001 4282070822
0.0176754 0.098760702 0.65899998 4281939236
0.0194628 0.098759599 0.65899998 4282070562
0.0212823 0.098908298 0.66000003 4282070562
0.0230723 0.098907001 0.66000003 4282070562
0.024899799 0.099055499 0.66100001 4282070562
0.0266519 0.0989042 0.66000003 4281873183
0.028441601 0.098902598 0.66000003 4281741857
0.030277099 0.099050798 0.66100001 4281873697
0.0321179 0.0991989 0.662 4282005283
0.0339127 0.099197 0.662 4281741597
0.035599601 0.098895296 0.66000003 4282004255
0.0373322 0.098743401 0.65899998 4281938462
0.039059199 0.098591402 0.65799999 4281675036
0.040966898 0.0988888 0.66000003 4281675036
0.042691 0.098736599 0.65899998 4281871899
0.044477101 0.0987342 0.65899998 4281806108
0.046403401 0.099031202 0.66100001 4281675036
0.048413299 0.099478103 0.66399997 4281543964
0.0502881 0.099625103 0.66500002 4281807137
0.051933199 0.099322699 0.66299999 4281347100
0.0536483 0.099169903 0.662 4281807136
0.055357799 0.099017099 0.66100001 4281806622
0.0571483 0.099013999 0.66100001 4281543704
0.0589386 0.0990109 0.66100001 4281609494
0.060820501 0.0991574 0.662 4281675289
0.062613197 0.099154003 0.662 4281543704
0.064308301 0.099000797 0.66100001 4281675290
0.066197902 0.099147096 0.662 4281675550
0.067989998 0.099143498 0.662 4281412378
0.070098199 0.099589102 0.66500002 4281543964
0.071573697 0.099136099 0.662 4281347099
0.073476002 0.099281996 0.66299999 4281478171
0.075270101 0.0992781 0.66299999 4281346585
0.077180102 0.099423803 0.66399997 4281477911
0.078857601 0.099270001 0.66299999 4281608727
0.080651 0.099265903 0.66299999 4281608727
0.082444198 0.099261701 0.66299999 4281609243
0.0842373 0.099257402 0.66299999 4281346585
0.085900299 0.099103399 0.662 4281412378
0.087690197 0.099099003 0.662 4281280792
0.089479901 0.099094599 0.662 4281281306
0.091269299 0.099090002 0.662 4281347099
0.093058601 0.099085502 0.662 4281149720
0.094847597 0.099080801 0.662 4281412892
0.096928403 0.099375501 0.66399997 4281412892
0.098871 0.0995204 0.66500002 4281347353
0.10097 0.099814802 0.667 4281413403
0.102618 0.0996603 0.66600001 4281610525
0.10426 0.0995057 0.66500002 4281413146
0.105896 0.099351197 0.66399997 4281149720
0.107527 0.099196501 0.66299999 4281215514
0.109481 0.099341102 0.66399997 4281412895
0.111106 0.099186398 0.66299999 4281676067
0.113066 0.099330902 0.66399997 4281413152
0.114858 0.099325702 0.66399997 4281215773
0.116825 0.099470101 0.66500002 4281544736
0.118441 0.099315301 0.66399997 4281742370
0.120232 0.099310003 0.66399997 4281742370
0.121839 0.099155203 0.66299999 4281544991
0.123628 0.099149801 0.66299999 4281610784
0.12522601 0.098994903 0.662 4281741857
0.127203 0.099139102 0.66299999 4281873443
0.128601 0.098834701 0.66100001 4281873956
0.130383 0.098829299 0.66100001 4282005287
0.132165 0.098823898 0.66100001 4281676322
0.134757 0.099416502 0.66500002 4281610529
0.137575 0.100158 0.67000002 4282466093
0.139589 0.100302 0.671 4282663472
0.141607 0.100446 0.67199999 4282729265
0.143417 0.100441 0.67199999 4283057717
0.14544301 0.100585 0.67299998 4282663213
0.147256 0.100579 0.67299998 4282597420
0.148846 0.100424 0.67199999 4282860592
0.15087999 0.100568 0.67299998 4282729263
0.152238 0.100264 0.671 4282729265
0.154274 0.100408 0.67199999 4283255609
0.15584999 0.100253 0.671 4283386683
0.157656 0.100247 0.671 4283189304
0.15970001 0.100391 0.67199999 4283255099
0.16174901 0.100535 0.67299998 4283057718
0.163559 0.10053 0.67299998 4283781440
0.16537 0.100524 0.67299998 4283452729
0.167181 0.100519 0.67299998 4283452467
0.168991 0.100513 0.67299998 4283649847
0.170801 0.100508 0.67299998 4283781694
0.172611 0.100503 0.67299998 4283650108
0.174162 0.100348 0.67199999 4283978819
0.176231 0.100492 0.67299998 4284045125
0.178041 0.100487 0.67299998 4283847233
0.18011799 0.100631 0.67400002 4283715647
0.18166 0.100477 0.67299998 4284175684
0.18347 0.100472 0.67299998 4283846719
0.185554 0.100616 0.67400002 4284241477
0.18736599 0.100611 0.67400002 4283584061
0.189178 0.100606 0.67400002 4283978819
0.190707 0.100452 0.67299998 4283979073
0.191944 0.100149 0.671 4283781693
0.19317 0.099846102 0.66900003 4284110916
0.194969 0.099841602 0.66900003 4284439883
0.197355 0.100136 0.671 4284505421
0.199159 0.100131 0.671 4284768595
0.20096301 0.100127 0.671 4284637270
0.203068 0.100272 0.67199999 4285032027
0.20487501 0.100268 0.67199999 4284900693
0.20698901 0.100413 0.67299998 4285031765
0.20879801 0.100409 0.67299998 4284966227
0.21029399 0.100256 0.67199999 4284505676
0.212101 0.100252 0.67199999 4284768848
0.213908 0.100248 0.67199999 4284703569
0.21571501 0.100245 0.67199999 4284506704
0.217522 0.100241 0.67199999 4284966486
0.219329 0.100238 0.67199999 4284703569
0.22146501 0.100384 0.67299998 4284769362
0.223607 0.10053 0.67400002 4284966741
0.22575399 0.100676 0.67500001 4284769107
0.226896 0.100375 0.67299998 4284834900
0.228366 0.100223 0.67199999 4284900948
0.230517 0.10037 0.67299998 4284900693
0.232673 0.100516 0.67400002 4284835155
0.234487 0.100514 0.67400002 4285163606
0.23595101 0.100363 0.67299998 4285032532
0.238116 0.10051 0.67400002 4284966739
0.239574 0.100359 0.67299998 4285163859
0.24138699 0.100357 0.67299998 4285163857
0.24319901 0.100355 0.67299998 4285032273
0.24464799 0.100205 0.67199999 4284966225
0.24645901 0.100204 0.67199999 4285163606
0.24827 0.100203 0.67199999 4285229399
0.250081 0.100202 0.67199999 4285097307
0.25151801 0.100052 0.671 4285097306
0.253328 0.100051 0.671 4285097811
0.25513801 0.100051 0.671 4285229399
0.25733101 0.1002 0.67199999 4285360985
0.25914499 0.1002 0.67199999 4285097811
0.260959 0.1002 0.67199999 4285229399
0.26277301 0.1002 0.67199999 4285426776
0.264195 0.100052 0.671 4285360985
0.26600799 0.100052 0.671 4285360985
0.26782101 0.100053 0.671 4284966225
0.26963499 0.100055 0.671 4285163604
0.27145001 0.100056 0.671 4285360985
0.27326599 0.100058 0.671 4285624157
0.27508199 0.100059 0.671 4285624157
0.27648601 0.099912398 0.67000002 4285624410
0.27788499 0.099765502 0.66900003 4285624410
0.27928001 0.099618897 0.66799998 4285756249
0.28151199 0.099770799 0.66900003 4285953369
0.28417301 0.100072 0.671 4285689944
0.28556699 0.099926099 0.67000002 4285689944
0.287386 0.099929601 0.67000002 4285558615
0.28791001 0.099485897 0.667 4285887580
0.290591 0.099788196 0.66900003 4285953877
0.29240999 0.099792399 0.66900003 4285953626
0.294669 0.099946097 0.67000002 4285953375
0.29649201 0.099950798 0.67000002 4286018915
0.29876199 0.100105 0.671 4285887843
0.30014199 0.099961199 0.67000002 4285756257
0.30151701 0.099817596 0.66900003 4286216294
0.30334201 0.099823497 0.66900003 4285624157
0.30562401 0.099978901 0.67000002 4286018915
0.30791199 0.100135 0.671 4286018915
0.309284 0.099992096 0.67000002 4285755743
0.31158 0.100148 0.671 4285953122
0.313416 0.100156 0.671 4285953375
0.31431299 0.099864997 0.66900003 4285953375
0.31520101 0.099574402 0.667 4285558617
0.31655401 0.0994334 0.66600001 4285953120
0.31838199 0.099441998 0.66600001 4285689948
0.32069099 0.099600203 0.667 4285624155
0.32300699 0.099758796 0.66799998 4285623898
0.325331 0.099917799 0.66900003 4285952862
0.32619399 0.099629 0.667 4285821529
0.328031 0.099639297 0.667 4286282080
0.329375 0.099500597 0.66600001 4286216287
0.33220699 0.099810399 0.66799998 4286216287
0.33505201 0.100121 0.67000002 4286216288
0.33690399 0.100132 0.67000002 4286282338
0.33875701 0.100145 0.67000002 4286282593
0.34010401 0.100008 0.66900003 4286414179
0.34246999 0.10017 0.67000002 4286611558
0.344329 0.100183 0.67000002 4286019166
0.34618899 0.100197 0.67000002 4286347620
0.347532 0.100062 0.66900003 4286412899
0.34939399 0.100076 0.66900003 4286807657
0.351257 0.100091 0.66900003 4286412899
0.35312301 0.100106 0.66900003 4286742118
0.35499099 0.100122 0.66900003 4286346854
0.35686001 0.100138 0.66900003 4286478439
0.35980499 0.100454 0.671 4286347367
0.36060601 0.100172 0.66900003 4286479206
0.36248299 0.100189 0.66900003 4286347878
0.36490601 0.100357 0.67000002 4286084706
0.36678901 0.100375 0.67000002 4286347878
0.36867499 0.100394 0.67000002 4286479719
0.370011 0.100263 0.66900003 4286479460
0.37189901 0.100283 0.66900003 4286479717
0.37378901 0.100303 0.66900003 4286742891
0.37624401 0.100474 0.67000002 4286742891
0.378142 0.100495 0.67000002 4286874475
0.38004401 0.100517 0.67000002 4286874218
0.38194701 0.100539 0.67000002 4286676839
0.38442701 0.100712 0.671 4286611046
0.38518801 0.100435 0.66900003 4286940011
0.387097 0.100459 0.66900003 4287005550
0.38901001 0.100483 0.66900003 4286413671
0.391509 0.100658 0.67000002 4286150501
0.39284301 0.100533 0.66900003 4282730808
0.39476499 0.100559 0.66900003 4285625962
