# .PCD v0.7 - Point Cloud Data file format
VERSION 0.7
FIELDS x y z rgb
SIZE 4 4 4 4
TYPE F F F U
COUNT 1 1 1 1
WIDTH 1063
HEIGHT 1
VIEWPOINT 0 0 0 1 0 0 0
POINTS 1063
DATA ascii
0.28302199 0.0915979 0.59200001 4287335028
0.28512901 0.091761 0.59299999 4287203956
0.286275 0.091614902 0.59200001 4287270263
0.28790399 0.091623902 0.59200001 4287336570
0.290512 0.091942802 0.59399998 4287402364
0.29214901 0.091952503 0.59399998 4287533696
0.293787 0.091962501 0.59399998 4286810488
0.29443201 0.0916631 0.59200001 4287138939
0.29656699 0.0918286 0.59299999 4287270011
0.29820701 0.091839597 0.59299999 4287335550
0.300354 0.092005797 0.59399998 4286743413
0.301999 0.092017502 0.59399998 4287203450
0.30313501 0.091874599 0.59299999 4287071348
0.30529499 0.092041902 0.59399998 4287071603
0.30591199 0.091744699 0.59200001 4286874222
0.30807799 0.091912799 0.59299999 4287597434
0.30972901 0.091926202 0.59299999 4287202676
0.31243101 0.092250198 0.59500003 4287071603
0.314091 0.092264503 0.59500003 4287532154
0.31522301 0.092124 0.59399998 4287072117
0.316883 0.092139103 0.59399998 4287270010
0.31801 0.091999397 0.59299999 4287138424
0.31967199 0.092015199 0.59299999 4287269496
0.321336 0.092031397 0.59299999 4287335289
0.32300201 0.092047997 0.59299999 4287466875
0.32466999 0.092065103 0.59299999 4287268980
0.32633999 0.0920825 0.59299999 4287137647
0.328565 0.092255697 0.59399998 4286150752
0.32913101 0.091963403 0.59200001 4286808424
0.33136299 0.092137598 0.59299999 4286742631
0.33248001 0.092001401 0.59200001 4286347874
0.33528799 0.092331901 0.59399998 4286413667
0.33640701 0.092196599 0.59299999 4286413926
0.33866301 0.092372701 0.59399998 4286676843
0.340354 0.092393801 0.59399998 4286611050
0.34204799 0.0924154 0.59399998 4286676845
0.34374401 0.092437401 0.59399998 4286413413
0.34544301 0.092459999 0.59399998 4287005804
0.345976 0.092171602 0.59200001 4286282085
0.347087 0.092039399 0.59100002 4287137394
0.34819499 0.091907501 0.58999997 4287334773
0.35167301 0.092399403 0.59299999 4287203187
0.35397899 0.092580304 0.59399998 4287203442
0.355694 0.092605896 0.59399998 4286874477
0.35620901 0.092320196 0.59200001 4287335028
0.357925 0.092346802 0.59200001 4286545257
0.35903701 0.092217997 0.59100002 4287005810
0.36075601 0.092245601 0.59100002 4287334775
0.36309099 0.092430003 0.59200001 4286676845
0.366052 0.092771202 0.59399998 4287400568
0.36779001 0.092800699 0.59399998 4286940015
0.36953101 0.092830896 0.59399998 4286611305
0.37064999 0.092705198 0.59299999 4286742638
0.37176701 0.092580102 0.59200001 4286545004
0.37161899 0.092142597 0.58899999 4284900441
0.37462801 0.092487901 0.59100002 4281545007
0.37637699 0.0925209 0.59100002 4288059273
0.37941101 0.092867702 0.59299999 4287598722
0.381174 0.092902102 0.59299999 4287334775
0.383587 0.093093902 0.59399998 4286939758
0.38536099 0.093129702 0.59399998 4286873964
0.38713899 0.093166098 0.59399998 4287137894
0.38892099 0.093203202 0.59399998 4287071597
0.390708 0.093241103 0.59399998 4287203183
0.392499 0.0932796 0.59399998 4287268976
0.39429399 0.093318798 0.59399998 4286940010
0.39675999 0.093515903 0.59500003 4286742889
0.39789701 0.093399398 0.59399998 4286677096
0.39970601 0.093440801 0.59399998 4286611305
0.401519 0.093482897 0.59399998 4286874477
0.403337 0.093525797 0.59399998 4286808684
0.40584201 0.093727 0.59500003 4286677098
0.40698701 0.0936139 0.59399998 4286084959
0.41019601 0.093974501 0.59600002 4286742889
0.41204 0.094020598 0.59600002 4286808429
0.41319501 0.0939098 0.59500003 4287005810
-0.19935399 0.090348698 0.59500003 4288124038
-0.197754 0.090351298 0.59500003 4287860866
-0.196483 0.090505801 0.59600002 4287663487
-0.19487999 0.090508699 0.59600002 4287729026
-0.19295301 0.090359703 0.59500003 4287992452
-0.19103099 0.0902109 0.59399998 4288123784
-0.189753 0.090365902 0.59500003 4287992198
-0.188153 0.090369098 0.59500003 4288057991
-0.187181 0.090676203 0.597 4288123784
-0.185265 0.090527803 0.59600002 4287992198
-0.18397 0.090683199 0.597 4288189831
-0.18206 0.090534903 0.59600002 4287992195
-0.18076099 0.090690397 0.597 4287926400
-0.17915601 0.090694197 0.597 4288057986
-0.177551 0.090697996 0.597 4288123779
-0.175062 0.090246201 0.59399998 4288123527
-0.173465 0.090250097 0.59399998 4287991941
-0.171868 0.090254202 0.59399998 4288057734
-0.170845 0.090562202 0.59600002 4287926148
-0.16924199 0.0905663 0.59600002 4288057992
-0.16764 0.090570599 0.59600002 4287663487
-0.165481 0.090270899 0.59399998 4287400315
-0.16416 0.090427302 0.59500003 4287465854
-0.16256 0.090431698 0.59500003 4287531901
-0.16096 0.090436101 0.59500003 4287400058
-0.159628 0.0905926 0.59600002 4287531901
-0.158025 0.090597197 0.59600002 4287531647
-0.156423 0.090601802 0.59600002 4287663233
-0.15456 0.0904544 0.59500003 4287794820
-0.15296 0.090459101 0.59500003 4287662976
-0.151105 0.090311699 0.59399998 4288057218
-0.14975899 0.090468504 0.59500003 4288057218
-0.148159 0.090473302 0.59500003 4287991165
-0.14704999 0.090782203 0.597 4288451716
-0.145201 0.090635002 0.59600002 4288517509
-0.143838 0.090791903 0.597 4288912781
-0.142231 0.090796798 0.597 4288846734
-0.14086001 0.090953797 0.59799999 4288913043
-0.139717 0.091262899 0.60000002 4288649871
-0.137872 0.091115803 0.59899998 4288715664
-0.136259 0.091120698 0.59899998 4288584332
-0.134197 0.090821497 0.597 4288321160
-0.13281199 0.0909786 0.59799999 4288123011
-0.131201 0.090983503 0.59799999 4287136116
-0.129591 0.090988502 0.59799999 4286938737
-0.12797999 0.090993501 0.59799999 4288254597
-0.12637 0.090998501 0.59799999 4288320390
-0.124759 0.0910035 0.59799999 4288452746
-0.122941 0.090856202 0.597 4288518285
-0.121333 0.090861201 0.597 4288452492
-0.119724 0.090866096 0.597 4288716175
-0.118313 0.091023304 0.59799999 4288453003
-0.116701 0.091028199 0.59799999 4288453003
-0.115089 0.091033101 0.59799999 4288518536
-0.113287 0.090885803 0.597 4288124291
-0.111677 0.090890698 0.597 4288386950
-0.110251 0.091047697 0.59799999 4288321157
-0.10882 0.0912048 0.59899998 4288453256
-0.107383 0.091361903 0.60000002 4288453256
-0.105764 0.091366701 0.60000002 4288453256
-0.103972 0.091219202 0.59899998 4288387463
-0.102185 0.091071598 0.59799999 4288255877
-0.100739 0.091228597 0.59899998 4288321670
-0.099287502 0.091385499 0.60000002 4288321157
-0.097667702 0.0913902 0.60000002 4288386950
-0.095887698 0.091242403 0.59899998 4288123779
-0.094270296 0.091246903 0.59899998 4288321158
-0.092961997 0.091556102 0.60100001 4288058245
-0.091642603 0.091865301 0.60299999 4286478959
-0.090013802 0.091869697 0.60299999 4286544752
-0.0880915 0.091569297 0.60100001 4287597694
-0.086467698 0.0915737 0.60100001 4288189829
-0.084843598 0.091577902 0.60100001 4288255624
-0.083080903 0.0914298 0.60000002 4288124038
-0.081459098 0.091433898 0.60000002 4287795073
-0.079704098 0.091285601 0.59899998 4287860609
-0.078215003 0.091441996 0.60000002 4287333495
-0.076592602 0.091445997 0.60000002 4287136116
-0.075094998 0.091602303 0.60100001 4287530614
-0.073469602 0.0916062 0.60100001 4287596406
-0.071963497 0.091762401 0.602 4287399027
-0.070335001 0.091766201 0.602 4287465588
-0.0684781 0.091464996 0.60000002 4287531381
-0.066854604 0.091468602 0.60000002 4287860606
-0.065339699 0.091624498 0.60100001 4287926399
-0.0638192 0.091780499 0.602 4287597435
-0.062293101 0.091936298 0.60299999 4287794816
-0.0605602 0.091787197 0.602 4287662976
-0.058832601 0.091637999 0.60100001 4287268219
-0.057110202 0.0914886 0.60000002 4287663234
-0.055578001 0.091644198 0.60100001 4287268218
-0.0541301 0.091952197 0.60299999 4287005303
-0.052671101 0.092260197 0.60500002 4286939764
-0.051116802 0.092415497 0.60600001 4286808178
-0.049557 0.092570797 0.60699999 4286347373
-0.0478337 0.092421003 0.60600001 4286084201
-0.0461157 0.092271201 0.60500002 4287071093
-0.044403002 0.092121199 0.60399997 4286873971
-0.042837199 0.092276201 0.60500002 4286808176
-0.041265801 0.092431098 0.60600001 4286873969
-0.039623599 0.0924334 0.60600001 4286808431
-0.038043801 0.092588097 0.60699999 4287137396
-0.0364586 0.092742801 0.60799998 4286808431
-0.034810498 0.092744797 0.60799998 4286939762
-0.0331624 0.092746802 0.60799998 4286742383
-0.031462301 0.092596099 0.60699999 4286807924
-0.029767601 0.092445299 0.60600001 4286676338
-0.028124601 0.092446998 0.60600001 4287005303
-0.026525199 0.092601202 0.60699999 4287136889
-0.0249203 0.092755198 0.60799998 4287071096
-0.023309899 0.092909098 0.60900003 4286742132
-0.021587299 0.0926053 0.60699999 4286544752
-0.0199412 0.0926065 0.60699999 4287729794
-0.0183251 0.092760198 0.60799998 4287927173
-0.016676201 0.092761204 0.60799998 4288125320
-0.0150519 0.092914701 0.60900003 4288191113
-0.0133782 0.092762999 0.60799998 4288059527
-0.0117098 0.092611201 0.60699999 4288190091
-0.0100469 0.092459202 0.60600001 4288255884
-0.0083892699 0.092307203 0.60500002 4288059020
-0.0067593898 0.0924602 0.60600001 4288256399
-0.0051240702 0.092613198 0.60699999 4287993227
-0.0034775699 0.092613399 0.60699999 4287992712
-0.00182805 0.092460997 0.60600001 4287926919
-0.000184255 0.092460997 0.60600001 4287992712
0.00145954 0.092460997 0.60600001 4288256399
0.00310846 0.092613503 0.60699999 4288453780
0.0047549498 0.092613198 0.60699999 4288585366
0.0064119799 0.092765503 0.60799998 4287927436
0.0080479002 0.092612498 0.60699999 4287860873
0.0096783601 0.092459403 0.60600001 4287729027
0.0113221 0.092458703 0.60600001 4288255371
0.0129657 0.092458002 0.60600001 4287795080
0.0146093 0.092457198 0.60600001 4288124299
0.0162529 0.092456304 0.60600001 4287861126
0.017926 0.092607901 0.60699999 4287992712
0.0196044 0.092759401 0.60799998 4288124552
0.0212183 0.092605598 0.60699999 4288058757
0.022902001 0.092756897 0.60799998 4287927171
0.024550701 0.092755497 0.60799998 4287992964
0.0261993 0.092753999 0.60799998 4287795585
0.027756199 0.0924474 0.60600001 4287071603
0.0294478 0.092598297 0.60699999 4286939762
0.0310422 0.092444003 0.60600001 4287071603
0.032738999 0.092594698 0.60699999 4287268982
0.0343844 0.092592701 0.60699999 4287136883
0.036029801 0.092590697 0.60699999 4287136883
0.037613001 0.092436098 0.60600001 4287268982
0.039190602 0.092281401 0.60500002 4287531894
0.040830199 0.092279099 0.60500002 4287202929
0.0423995 0.092124201 0.60399997 4287005551
0.044109002 0.092274301 0.60500002 4287400309
0.045748301 0.092271797 0.60500002 4287334262
0.047387399 0.0922691 0.60500002 4287663227
0.048864201 0.091961399 0.60299999 4287532154
0.050581399 0.0921112 0.60399997 4287663227
0.052303798 0.0922608 0.60500002 4287729020
0.0539423 0.092257902 0.60500002 4286742125
0.055580702 0.092254803 0.60500002 4287531641
0.057218902 0.092251703 0.60500002 4287729020
0.059051499 0.092553496 0.60699999 4287729533
0.060694799 0.0925503 0.60699999 4287861119
0.062235199 0.092394501 0.60600001 4287861119
0.0637701 0.092238598 0.60500002 4286940015
0.0654075 0.092235103 0.60500002 4287729273
0.067044698 0.092231601 0.60500002 4287203189
0.0685682 0.092075497 0.60399997 4287005810
0.070086099 0.0919194 0.60299999 4286742638
0.0718363 0.092068098 0.60399997 4286742638
0.0733485 0.091911897 0.60299999 4286479727
0.074979298 0.091908097 0.60299999 4286085737
0.076610103 0.091904096 0.60299999 4282731845
0.078370303 0.092052497 0.60399997 4283323983
0.0801358 0.092200898 0.60500002 4285823863
0.081636101 0.092044398 0.60399997 4287468688
0.083130904 0.091887802 0.60299999 4287271563
0.084620103 0.091731302 0.602 4287600014
0.086103603 0.091574602 0.60100001 4287731086
0.087873504 0.091722697 0.602 4287665293
0.089499898 0.091718301 0.602 4287994258
0.091277502 0.0918663 0.60299999 4288060050
0.092752099 0.091709502 0.602 4287796878
0.094377898 0.091705002 0.602 4287796878
0.095684603 0.091395803 0.60000002 4287863185
0.097304597 0.091391198 0.60000002 4287600013
0.098924398 0.091386601 0.60000002 4287797392
0.100712 0.091534197 0.60100001 4287796878
0.101993 0.091224901 0.59899998 4287796878
0.103782 0.091372497 0.60000002 4287665806
0.105401 0.091367804 0.60000002 4288125843
0.10702 0.091362998 0.60000002 4287797646
0.108639 0.0913582 0.60000002 4287863439
0.110257 0.091353297 0.60000002 4287863185
0.111502 0.091044001 0.59799999 4287863185
0.113304 0.091191404 0.59899998 4287796879
0.114535 0.090882003 0.597 4287862672
0.116729 0.091333799 0.60000002 4287994258
0.118346 0.0913288 0.60000002 4287796879
0.120163 0.091476098 0.60100001 4288060051
0.121377 0.091166697 0.59899998 4287994258
0.122991 0.091161698 0.59899998 4287600013
0.124397 0.091004603 0.59799999 4287863185
0.126008 0.090999603 0.59799999 4288060564
0.127406 0.090842403 0.597 4287796878
0.129014 0.090837501 0.597 4287665546
0.130622 0.090832502 0.597 4287731085
0.132008 0.090675399 0.59600002 4287730571
0.13361201 0.090670399 0.59600002 4287927950
0.13499001 0.090513401 0.59500003 4287796878
0.137051 0.090812698 0.597 4287927695
0.138658 0.090807699 0.597 4287927695
0.140735 0.091107003 0.59899998 4287796364
0.14210901 0.090949997 0.59799999 4287927950
0.143959 0.091097198 0.59899998 4287927948
0.14508399 0.090788104 0.597 4287796617
0.14644501 0.090631202 0.59600002 4287731339
0.1478 0.090474397 0.59500003 4287796362
0.1494 0.090469599 0.59500003 4287993741
0.151255 0.090616897 0.59600002 4287796362
0.152858 0.090612099 0.59600002 4287730571
0.15497901 0.0909115 0.59799999 4287467399
0.156325 0.0907548 0.597 4287796364
0.158195 0.090902202 0.59799999 4287862157
0.159536 0.090745598 0.597 4287533192
0.16114099 0.090741098 0.597 4287598983
0.16247401 0.090584598 0.59600002 4287862155
0.164352 0.090732202 0.597 4287796362
0.165957 0.090727799 0.597 4287533445
0.16756199 0.0907235 0.597 4287665031
0.168883 0.090567298 0.59600002 4287467652
0.17019901 0.090411097 0.59500003 4287467650
0.171799 0.090406999 0.59500003 4287533443
0.173398 0.090402998 0.59500003 4287467138
0.174998 0.090398997 0.59500003 4287598983
0.176597 0.0903951 0.59500003 4287533445
0.178496 0.090543099 0.59600002 4287730569
0.180099 0.090539403 0.59600002 4287401604
0.181701 0.0905357 0.59600002 4287533445
0.182996 0.090380199 0.59500003 4287730824
0.18490499 0.090528503 0.59600002 4287401859
0.186508 0.090525098 0.59600002 4287533959
0.18810999 0.090521798 0.59600002 4287139199
0.189713 0.090518497 0.59600002 4287402371
0.191315 0.090515301 0.59600002 4286941822
0.19259401 0.090360403 0.59500003 4287270787
0.193542 0.0900537 0.59299999 4287401604
0.19480699 0.089899004 0.59200001 4287467397
0.1964 0.089896299 0.59200001 4286941308
0.19899601 0.090349197 0.59500003 4287072894
0.20093299 0.090498596 0.59600002 4287204478
0.202537 0.090496197 0.59600002 4287138685
0.20414101 0.090493903 0.59600002 4287203964
0.205745 0.090491697 0.59600002 4287269759
0.207697 0.090641499 0.597 4287270273
0.20895299 0.090487801 0.59600002 4287533190
0.21020401 0.090334199 0.59500003 4287335811
0.21145 0.090180703 0.59399998 4287533190
0.21304999 0.090179302 0.59399998 4287467652
0.213927 0.089874297 0.59200001 4287467652
0.215886 0.090024903 0.59299999 4287401343
0.217484 0.090023801 0.59299999 4287204218
0.219083 0.090022899 0.59299999 4286941046
0.221053 0.0901739 0.59399998 4287006839
0.222655 0.090173297 0.59399998 4287137655
0.22387899 0.090021104 0.59299999 4287138425
0.225099 0.089869 0.59200001 4287270011
0.226696 0.089868903 0.59200001 4287598206
0.228294 0.089868903 0.59200001 4287598976
0.229504 0.089717299 0.59100002 4287598976
0.231491 0.089869499 0.59200001 4287400827
0.23309 0.089870103 0.59200001 4287006585
0.23548301 0.090174504 0.59399998 4286874999
0.23708899 0.090175398 0.59399998 4287137655
0.23829301 0.090024799 0.59299999 4287137657
0.239897 0.090026103 0.59299999 4287006071
0.241502 0.090027601 0.59299999 4286611313
0.243517 0.090181097 0.59399998 4286875001
0.245538 0.0903349 0.59500003 4286611827
0.24715 0.090337001 0.59500003 4286743413
0.248762 0.090339303 0.59500003 4286546288
0.250375 0.090341903 0.59500003 4286808431
0.25156599 0.090192802 0.59399998 4286940017
0.25275099 0.090043999 0.59299999 4287005810
0.254361 0.090047203 0.59299999 4287268982
0.256403 0.090202503 0.59399998 4287203187
0.25758299 0.090054303 0.59299999 4287137908
0.25832099 0.089754403 0.59100002 4286611052
0.260369 0.089910403 0.59200001 4287268982
0.26198 0.089914799 0.59200001 4286742383
0.26403701 0.090071298 0.59299999 4286808431
0.26565301 0.090076201 0.59299999 4286676845
0.26772001 0.090233199 0.59399998 4286347878
0.26934001 0.090238601 0.59399998 4286282085
0.270962 0.090244196 0.59399998 4286545259
0.27258399 0.090250202 0.59399998 4286413673
0.27374601 0.090104401 0.59299999 4286216294
0.274903 0.089958899 0.59200001 4286018402
0.27699 0.090117604 0.59299999 4286216035
0.278144 0.0899726 0.59200001 4286019168
0.279293 0.089827903 0.59100002 4285821534
0.281389 0.089987397 0.59200001 4286479719
0.283014 0.089995302 0.59200001 4287400829
0.28464001 0.090003401 0.59200001 4286940529
0.28578299 0.089859799 0.59100002 4287730561
0.28740901 0.089868598 0.59100002 4287138424
0.290014 0.090181798 0.59299999 4287402111
0.29164699 0.0901912 0.59299999 4287204478
0.292788 0.090048797 0.59200001 4287138687
0.293924 0.0899067 0.59100002 4287007099
0.29555601 0.089916997 0.59100002 4287336064
0.29769301 0.090079904 0.59200001 4287532929
0.29983699 0.090242997 0.59299999 4286874999
0.30198699 0.090406597 0.59399998 4287006069
0.30261201 0.090113901 0.59200001 4287334520
0.30425501 0.090126 0.59200001 4287268980
0.30538201 0.089986101 0.59100002 4287137394
0.30754501 0.090151101 0.59200001 4287137137
0.309715 0.090316601 0.59299999 4287268980
0.31136701 0.090330102 0.59299999 4287334775
0.31354901 0.090496302 0.59399998 4287334775
0.314677 0.090358302 0.59299999 4287335289
0.31633499 0.090372898 0.59299999 4287204217
0.31799501 0.090388 0.59299999 4287401596
0.31911701 0.090250902 0.59200001 4287203703
0.320236 0.090114303 0.59100002 4286941045
0.32189599 0.0901305 0.59100002 4287203703
0.323558 0.0901471 0.59100002 4287203701
0.32522199 0.090164103 0.59100002 4287269235
0.32744101 0.090334103 0.59200001 4286413926
0.328556 0.090199403 0.59100002 4286808424
0.33134401 0.090522997 0.59299999 4286479199
0.332461 0.090389103 0.59200001 4286216027
0.33470401 0.090561002 0.59299999 4286281820
0.33581901 0.090427898 0.59200001 4286939496
0.337502 0.090448 0.59200001 4286479719
0.339187 0.0904686 0.59200001 4286347878
0.340875 0.090489604 0.59200001 4286873711
0.342565 0.090511099 0.59200001 4286544746
0.34542099 0.090838999 0.59399998 4286742379
0.34595299 0.090555601 0.59200001 4285953120
0.34706399 0.090425499 0.59100002 4287400568
0.34817201 0.090295903 0.58999997 4287335289
0.351055 0.090626001 0.59200001 4287137910
0.35395399 0.090956703 0.59399998 4287268980
0.35566899 0.090981796 0.59399998 4287269235
0.356785 0.090854198 0.59299999 4287269235
0.35789901 0.090727001 0.59200001 4287137394
0.359009 0.090600297 0.59100002 4286808431
0.360118 0.090474002 0.58999997 4287071603
0.36183599 0.090501599 0.58999997 4286611566
0.36417499 0.090683199 0.59100002 4286940531
0.36652201 0.090865403 0.59200001 4287335028
0.36887801 0.091048397 0.59299999 4286742889
0.36874399 0.090617597 0.58999997 4286743140
0.36985201 0.090494402 0.58899999 4286545259
0.37158799 0.090525404 0.58899999 4285229660
0.37459499 0.090864502 0.59100002 4282268985
0.37570801 0.090742998 0.58999997 4284769625
0.378737 0.091083601 0.59200001 4287401596
0.38049701 0.091117203 0.59200001 4287400568
0.38290599 0.091305397 0.59299999 4287071601
0.38402799 0.091186397 0.59200001 4286939758
0.38645101 0.091375999 0.59299999 4286808684
0.389539 0.091720603 0.59500003 4286676845
0.39132801 0.0917577 0.59500003 4286742891
0.39245999 0.091641203 0.59399998 4286545512
0.39425501 0.091679603 0.59399998 4286742631
0.39471999 0.091409899 0.59200001 4286479713
0.39651701 0.091449603 0.59200001 4286413667
0.39831901 0.09149 0.59200001 4286676839
0.400125 0.091531098 0.59200001 4286742891
0.40193599 0.091573 0.59200001 4287071856
0.404434 0.091770403 0.59299999 4287137137
0.40625799 0.091813803 0.59299999 4287005808
0.408775 0.092012897 0.59399998 4287005810
0.40992001 0.091903098 0.59299999 4287071603
0.41106501 0.091793798 0.59200001 4286939762
-0.199022 0.088594399 0.59399998 4288124038
-0.19742399 0.088597 0.59399998 4288124038
-0.19549701 0.088450603 0.59299999 4288255370
-0.193902 0.088453397 0.59299999 4288057991
-0.192307 0.088456303 0.59299999 4287860612
-0.190713 0.088459402 0.59299999 4288057991
-0.189118 0.088462502 0.59299999 4287794819
-0.18752401 0.088465698 0.59299999 4288189831
-0.18655699 0.088767402 0.59500003 4288189831
-0.184646 0.088621601 0.59399998 4288057991
-0.183358 0.088774301 0.59500003 4288321160
-0.181453 0.088628598 0.59399998 4288452746
-0.180159 0.088781498 0.59500003 4288123527
-0.17855901 0.088785298 0.59500003 4288189320
-0.177257 0.088938303 0.59600002 4288123527
-0.17535999 0.088793002 0.59500003 4288320906
-0.173761 0.088796899 0.59500003 4288123785
-0.172162 0.0888009 0.59500003 4287926149
-0.170849 0.0889543 0.59600002 4287860613
-0.169247 0.088958398 0.59600002 4287729027
-0.16764399 0.088962696 0.59600002 4287926405
-0.165764 0.088817701 0.59500003 4287926405
-0.16388801 0.088672698 0.59399998 4287465854
-0.16229101 0.088677101 0.59399998 4287926659
-0.160694 0.088681497 0.59399998 4287860355
-0.159365 0.088835202 0.59500003 4287794820
-0.15803 0.088989101 0.59600002 4287794820
-0.156427 0.088993602 0.59600002 4288123531
-0.15456501 0.088848896 0.59500003 4288255371
-0.15270799 0.088704199 0.59399998 4287926149
-0.15110999 0.0887089 0.59399998 4287794562
-0.149764 0.088862903 0.59500003 4287662460
-0.14791401 0.088718303 0.59399998 4287531128
-0.14656299 0.088872403 0.59500003 4287531127
-0.144962 0.088877201 0.59500003 4287662714
-0.143602 0.089031398 0.59600002 4287925886
-0.14199799 0.089036196 0.59600002 4288123781
-0.140394 0.089041099 0.59600002 4287794563
-0.13902301 0.0891954 0.597 4287728770
-0.13741601 0.089200303 0.597 4287597183
-0.135809 0.089205198 0.597 4287465851
-0.133977 0.089060597 0.59600002 4287399288
-0.13214999 0.088916101 0.59500003 4287136116
-0.130767 0.089070499 0.59600002 4287136116
-0.12894601 0.088926002 0.59500003 4287728253
-0.12755699 0.089080296 0.59600002 4287925632
-0.12595201 0.089085303 0.59600002 4288518023
-0.124555 0.089239597 0.597 4288781709
-0.122534 0.088945597 0.59500003 4288584332
-0.121134 0.089100003 0.59600002 4288321417
-0.119328 0.088955402 0.59500003 4288387210
-0.117922 0.089109696 0.59600002 4288453001
-0.116511 0.089264102 0.597 4288518537
-0.115094 0.089418501 0.59799999 4288386950
-0.113291 0.089273803 0.597 4288584583
-0.111682 0.089278601 0.597 4288387204
-0.110256 0.089432999 0.59799999 4288321157
-0.109006 0.089736901 0.60000002 4288715915
-0.107388 0.089741603 0.60000002 4288453256
-0.105945 0.089896001 0.60100001 4288255877
-0.103977 0.089601502 0.59899998 4288255877
-0.102531 0.089755803 0.60000002 4288452743
-0.100743 0.0896108 0.59899998 4288255364
-0.0989611 0.089465797 0.59799999 4288057725
-0.097346701 0.089470401 0.59799999 4287531641
-0.095572002 0.089325301 0.597 4287597173
-0.093959898 0.089329697 0.597 4287728255
-0.092347696 0.089334197 0.597 4287663230
-0.091039099 0.089637801 0.59899998 4287268472
-0.089719601 0.089941502 0.60100001 4286347370
-0.087949298 0.089796104 0.60000002 4286413418
-0.086328097 0.089800403 0.60000002 4287729278
-0.084565498 0.0896549 0.59899998 4288255877
-0.0828081 0.089509398 0.59799999 4288321670
-0.081055902 0.089363798 0.597 4288189831
-0.079442002 0.089367799 0.597 4288058245
-0.077958196 0.089521497 0.59799999 4288255367
-0.076596603 0.0898249 0.60000002 4287070325
-0.075098902 0.089978397 0.60100001 4286807151
-0.073595703 0.090131998 0.602 4287135855
-0.072086804 0.090285502 0.60299999 4287530613
-0.070338704 0.090139501 0.602 4288385922
-0.068367504 0.089693896 0.59899998 4288123264
-0.066635303 0.089547701 0.59799999 4287860092
-0.065017 0.089551099 0.59799999 4287597434
-0.063610502 0.089854099 0.60000002 4287794813
-0.062089801 0.090007201 0.60100001 4287794813
-0.0604629 0.090010397 0.60100001 4287663227
-0.058835801 0.090013698 0.60100001 4287597435
-0.057113301 0.089867003 0.60000002 4287992195
-0.0555811 0.090019897 0.60100001 4287860609
-0.0540433 0.090172596 0.602 4287860866
-0.052586999 0.090475097 0.60399997 4287597694
-0.0511197 0.090777598 0.60600001 4287071350
-0.0493965 0.090630502 0.60500002 4283452476
-0.047757499 0.090633199 0.60500002 4286676333
-0.045965798 0.090336204 0.60299999 4287267955
-0.044405501 0.090488501 0.60399997 4286873198
-0.042768799 0.090490997 0.60399997 4286676333
-0.0412682 0.090792902 0.60600001 4286873711
-0.0395604 0.090645403 0.60500002 4286807918
-0.038045999 0.090947203 0.60699999 4286742125
-0.036400702 0.090949297 0.60699999 4286282087
-0.034755301 0.090951398 0.60699999 4286610540
-0.033109799 0.090953298 0.60699999 4286544747
-0.0313605 0.090655401 0.60500002 4286873714
-0.029671 0.090507299 0.60399997 4286939507
-0.027986901 0.090359099 0.60299999 4287531644
-0.0263956 0.090510502 0.60399997 4287071350
-0.024798701 0.090661801 0.60500002 4287137143
-0.023196399 0.0908131 0.60600001 4287794819
-0.021553 0.090814397 0.60600001 4286545006
-0.019876599 0.090665698 0.60500002 4287860866
-0.0182961 0.0909665 0.60699999 4287861894
-0.016649799 0.090967603 0.60699999 4288190861
-0.0150281 0.091118298 0.60799998 4288059275
-0.013335 0.090819404 0.60600001 4288190606
-0.0116719 0.090670303 0.60500002 4287992974
-0.0100309 0.090670899 0.60500002 4288124045
-0.0083758896 0.090521596 0.60399997 4287992459
-0.0067374799 0.090521999 0.60399997 4288059022
-0.0051074801 0.090672202 0.60500002 4287926919
-0.00346632 0.0906725 0.60500002 4287992712
-0.00182514 0.090672597 0.60500002 4287861126
-0.000183354 0.090372898 0.60299999 4287993482
0.0014524 0.090372898 0.60299999 4288388501
0.0030932799 0.090522602 0.60399997 4288256915
0.0047474001 0.090822101 0.60600001 4288125329
0.0064018099 0.090971701 0.60699999 4288190606
0.0080483695 0.090971299 0.60699999 4287796103
0.0096469801 0.090521201 0.60399997 4287861126
0.0112667 0.0903707 0.60299999 4287926920
0.0129023 0.090369999 0.60299999 4288124299
0.014562 0.090519004 0.60399997 4288255884
0.0162002 0.090518199 0.60399997 4287992712
0.0178679 0.090667002 0.60500002 4287729540
0.0195088 0.090666004 0.60500002 4288058245
0.0211845 0.090814702 0.60600001 4287927173
0.022828 0.090813398 0.60600001 4287926919
0.0245117 0.090961903 0.60699999 4288057991
0.0261146 0.090810597 0.60600001 4287137143
0.027712001 0.090659201 0.60500002 4286939764
0.0293524 0.090657599 0.60500002 4286610799
0.031044001 0.090805702 0.60600001 4287071348
0.0326869 0.090803899 0.60600001 4287334520
0.034273099 0.090652101 0.60500002 4286939505
0.035853799 0.090500303 0.60399997 4286940017
0.037491001 0.090498202 0.60399997 4287137396
0.039063301 0.090346202 0.60299999 4287531641
0.040764999 0.090493798 0.60399997 4287334262
0.0422615 0.090191901 0.602 4286939757
0.044038601 0.090489097 0.60399997 4287597434
0.045675199 0.090486601 0.60399997 4287334262
0.047311701 0.090484001 0.60399997 4287794813
0.048785899 0.090181701 0.602 4287729274
0.0505004 0.090328798 0.60299999 4287531895
0.052220199 0.090475798 0.60399997 4287729274
0.053766899 0.090323098 0.60299999 4286873965
0.0553081 0.090170301 0.602 4287005551
0.057032801 0.0903171 0.60299999 4287794813
0.0587628 0.090463698 0.60399997 4287729533
0.0604981 0.090610303 0.60500002 4287992703
0.0619305 0.0903074 0.60299999 4287663738
0.063562699 0.090304099 0.60299999 4287334516
0.065194704 0.090300702 0.60299999 4287531895
0.066937402 0.090446897 0.60399997 4287400055
0.068458296 0.090293601 0.60299999 4287334262
0.069973603 0.090140298 0.602 4287005810
0.071602203 0.090136603 0.602 4287268982
0.073230602 0.090132803 0.602 4286610797
0.074983202 0.0902787 0.60299999 4286085222
0.076614 0.0902749 0.60299999 4283455308
0.0782445 0.090270899 0.60299999 4283850327
0.079874903 0.090266898 0.60299999 4286218621
0.081369899 0.0901132 0.602 4287271563
0.082997203 0.090109102 0.602 4287665807
0.084483698 0.089955203 0.60100001 4287731600
0.086251102 0.090100698 0.602 4287600014
0.088023797 0.090246104 0.60299999 4287665292
0.089653 0.090241797 0.60299999 4287731085
0.091130503 0.090087697 0.602 4287928464
0.092602499 0.089933701 0.60100001 4287994257
0.0940689 0.089779601 0.60000002 4288125843
0.095529601 0.0896255 0.59899998 4287994257
0.097147003 0.089621 0.59899998 4287928464
0.098929003 0.0897661 0.60000002 4287796878
0.100381 0.089611903 0.59899998 4287731085
0.101998 0.089607202 0.59899998 4287731085
0.103441 0.089452997 0.59799999 4287928718
0.105231 0.089597903 0.59899998 4287797132
0.106847 0.089593098 0.59899998 4287468681
0.108281 0.089438803 0.59799999 4287797646
0.109711 0.089284502 0.597 4287731599
0.111134 0.0891302 0.59600002 4287665806
0.112931 0.089274898 0.597 4287994258
0.114348 0.0891205 0.59600002 4288060051
0.11615 0.089265198 0.597 4287928465
0.117759 0.089260302 0.597 4287994258
0.119368 0.089255497 0.597 4287862672
0.120774 0.089101098 0.59600002 4287994257
0.122175 0.0889467 0.59500003 4287534474
0.123778 0.088941798 0.59500003 4287666060
0.12538099 0.088936903 0.59500003 4287863439
0.126984 0.088932 0.59500003 4287797132
0.12858599 0.088927001 0.59500003 4287665546
0.130408 0.089071602 0.59600002 4287994257
0.131791 0.088917203 0.59500003 4287665292
0.133169 0.088762902 0.59399998 4287599499
0.134541 0.0886086 0.59299999 4287862671
0.13659699 0.088902503 0.59500003 4288059281
0.138431 0.089047097 0.59600002 4288059536
0.14026999 0.089191601 0.597 4287730316
0.14140099 0.0888879 0.59500003 4287861902
0.143242 0.089032501 0.59600002 4287862157
0.144603 0.088878296 0.59500003 4287665546
0.14620399 0.088873498 0.59500003 4287731339
0.14755601 0.088719398 0.59399998 4287599753
0.14915401 0.088714696 0.59399998 4287993741
0.150498 0.088560604 0.59299999 4287796364
0.152349 0.088705301 0.59399998 4287862157
0.15420599 0.088849999 0.59500003 4287927950
0.15580601 0.088845402 0.59500003 4287796364
0.157406 0.088840798 0.59500003 4287927950
0.159006 0.088836297 0.59500003 4287730569
0.160336 0.088682503 0.59399998 4287599753
0.161933 0.088678099 0.59399998 4287598983
0.16353001 0.088673703 0.59399998 4287796617
0.16540501 0.088818602 0.59500003 4287599238
0.166724 0.088665098 0.59399998 4287599238
0.168037 0.088511601 0.59299999 4287533445
0.169631 0.088507503 0.59299999 4287533445
0.171514 0.088652603 0.59399998 4287467652
0.17282 0.0884993 0.59299999 4287401604
0.17441399 0.088495404 0.59299999 4287533192
0.17571101 0.088342197 0.59200001 4287533192
0.177302 0.088338397 0.59200001 4287664778
0.178894 0.088334702 0.59200001 4287664778
0.180485 0.088330999 0.59200001 4287401604
0.18207601 0.088327497 0.59200001 4287467397
0.183668 0.088324003 0.59200001 4287401859
0.185572 0.088469803 0.59299999 4287599238
0.187482 0.088615596 0.59399998 4287533445
0.188761 0.088463202 0.59299999 4287468166
0.190355 0.088460103 0.59299999 4287402374
0.191626 0.088307798 0.59200001 4287533192
0.19256499 0.088006601 0.58999997 4287401606
0.194152 0.088003702 0.58999997 4287270018
0.195739 0.088000998 0.58999997 4287533190
0.19799501 0.088296697 0.59200001 4287533445
0.19992401 0.088443302 0.59299999 4287533443
0.20186 0.088590004 0.59399998 4287336064
0.203115 0.0884386 0.59299999 4287204480
0.205401 0.088734701 0.59500003 4287401859
0.207003 0.088732697 0.59500003 4287270018
0.20860399 0.0887307 0.59500003 4287204225
0.20985299 0.088579804 0.59399998 4287138432
0.21074 0.088279903 0.59200001 4287138432
0.21233401 0.088278398 0.59200001 4287270018
0.213567 0.088127904 0.59100002 4287072639
0.215524 0.088275701 0.59200001 4287072894
0.21675199 0.088125497 0.59100002 4287533445
0.218714 0.088273697 0.59200001 4287533443
0.221054 0.088571101 0.59399998 4287467138
0.22228099 0.0884213 0.59299999 4287467650
0.22387999 0.088420801 0.59299999 4287599236
0.225099 0.088271402 0.59200001 4287532929
0.227079 0.088420302 0.59299999 4287401343
0.22868 0.088420302 0.59299999 4287336064
0.229504 0.088122196 0.59100002 4287072892
0.23109999 0.088122502 0.59100002 4287467138
0.232696 0.088123001 0.59100002 4287598724
0.23508599 0.088421904 0.59299999 4287730310
0.23628899 0.088273697 0.59200001 4287532931
0.237488 0.088125601 0.59100002 4287598469
0.238682 0.0879777 0.58999997 4287335297
0.24027801 0.087979101 0.58999997 4286743160
0.242285 0.088129804 0.59100002 4286940539
0.245123 0.088578999 0.59399998 4287006587
0.246732 0.0885811 0.59399998 4286217069
0.24834201 0.088583298 0.59399998 4286875767
0.24911 0.088287398 0.59200001 4286743666
0.250716 0.088290103 0.59200001 4286875252
0.25189599 0.088143803 0.59100002 4286809459
0.25350001 0.088146903 0.59100002 4287401082
0.254673 0.088000998 0.58999997 4287269494
0.25671101 0.088153698 0.59100002 4287006836
0.25788 0.088008203 0.58999997 4287269494
0.25948501 0.088012204 0.58999997 4287071603
0.26109001 0.088016398 0.58999997 4287137396
0.26314199 0.088169999 0.59100002 4287203189
0.26430401 0.088025503 0.58999997 4287466361
0.265912 0.088030502 0.58999997 4287005808
0.267975 0.088184901 0.59100002 4287269496
0.26958799 0.088190302 0.59100002 4287203703
0.270742 0.088046797 0.58999997 4287335034
0.27189299 0.0879035 0.58899999 4287071862
0.27350301 0.087909698 0.58899999 4287203189
0.27558199 0.088065498 0.58999997 4287137396
0.27672699 0.087922998 0.58899999 4287203189
0.278341 0.087930001 0.58899999 4287137396
0.27995601 0.087937303 0.58899999 4286347627
0.28157201 0.087944902 0.58899999 4287400575
0.283189 0.0879528 0.58899999 4287269496
0.28480801 0.087961003 0.58899999 4287072631
0.28642699 0.087969497 0.58899999 4287006838
0.288537 0.088127598 0.58999997 4287073146
0.289671 0.087987401 0.58899999 4286809720
0.29129401 0.087996699 0.58899999 4287467652
0.29192501 0.087707601 0.58700001 4287270271
0.29354599 0.0877176 0.58700001 4287270271
0.29567099 0.0878774 0.588 4287270271
0.29780301 0.088037498 0.58899999 4287006839
0.30045101 0.088347502 0.59100002 4287006585
0.30157799 0.088209398 0.58999997 4287401343
0.302701 0.0880716 0.58899999 4287006324
0.30382001 0.087934099 0.588 4287137394
0.30545399 0.0879464 0.588 4287005808
0.30761299 0.0881088 0.58899999 4287006063
0.30977899 0.088271499 0.58999997 4287071856
0.31195199 0.088434599 0.59100002 4287532152
0.313602 0.088448502 0.59100002 4287269494
0.31578699 0.0886124 0.59200001 4287203701
0.31690699 0.088477403 0.59100002 4287204217
0.31856301 0.088492401 0.59100002 4287138424
0.31967801 0.088358097 0.58999997 4287270010
0.32188001 0.088523597 0.59100002 4287466875
0.32299399 0.088390097 0.58999997 4287401080
0.32465401 0.088406697 0.58999997 4287861117
0.32686999 0.088573501 0.59100002 4287137394
0.32798299 0.088441104 0.58999997 4286347874
0.32965001 0.088458903 0.58999997 4286479199
0.331319 0.088477202 0.58999997 4286281818
0.332991 0.088495903 0.58999997 4286216268
0.334665 0.088514999 0.58999997 4286676062
0.33577201 0.088384598 0.58899999 4286610531
0.337448 0.088404603 0.58899999 4286347620
0.33912599 0.088425003 0.58899999 4286939758
0.340808 0.088445902 0.58899999 4286873964
0.342491 0.0884673 0.58899999 4286479719
0.344762 0.088639401 0.58999997 4286347878
0.34527901 0.088361204 0.588 4286940017
0.346968 0.088384002 0.588 4287203703
0.349253 0.088557698 0.58899999 4286940531
0.35214099 0.088882297 0.59100002 4287334773
0.35324901 0.088756204 0.58999997 4287335026
0.35495499 0.088781103 0.58999997 4287400819
0.356664 0.088806503 0.58999997 4287203442
0.35898301 0.088982999 0.59100002 4287268980
0.35947999 0.088708296 0.58899999 4286479466
0.36119601 0.0887352 0.58899999 4287137910
0.362914 0.088762701 0.58899999 4286414187
0.364636 0.0887907 0.58899999 4287598200
0.36636099 0.088819399 0.58899999 4286808684
0.36746401 0.088697702 0.588 4286479464
0.36919299 0.0887274 0.588 4286413671
0.37092599 0.088757701 0.588 4285953122
0.37329599 0.088939503 0.58899999 4285230174
0.37440199 0.088820003 0.588 4281809706
0.37678501 0.089003198 0.58899999 4286941560
0.378535 0.089035898 0.58899999 4287598975
0.38158 0.089371704 0.59100002 4287072117
0.382696 0.089254498 0.58999997 4286874224
0.385764 0.089591898 0.59200001 4287071603
0.387539 0.0896274 0.59200001 4287137396
0.38931799 0.089663498 0.59200001 4287137394
0.390441 0.089548796 0.59100002 4287137390
0.392225 0.089586198 0.59100002 4286874218
0.394014 0.089624301 0.59100002 4287071596
0.39580801 0.089663103 0.59100002 4287137390
0.39760599 0.089702599 0.59100002 4287334515
0.39940801 0.089742802 0.59100002 4287269235
0.40053701 0.089631803 0.58999997 4286874222
0.40234599 0.0896734 0.58999997 4286874224
0.40484399 0.0898678 0.59100002 4286545259
0.40666601 0.089910902 0.59100002 4286873969
0.40849301 0.089954898 0.59100002 4286610797
0.40963101 0.089847296 0.58999997 4286479211
-0.198689 0.086845502 0.59299999 4287992198
-0.197427 0.086994603 0.59399998 4288189577
-0.19517 0.086704403 0.59200001 4288189578
-0.193251 0.086560696 0.59100002 4288255371
-0.191662 0.086563699 0.59100002 4288057991
-0.190394 0.086713202 0.59200001 4288057991
-0.18912201 0.086862803 0.59299999 4288124038
-0.18721101 0.086719498 0.59200001 4287992450
-0.18624701 0.0870158 0.59399998 4287795071
-0.184339 0.086872697 0.59299999 4287992450
-0.183053 0.087022603 0.59399998 4287466108
-0.18084501 0.0867332 0.59200001 4287465854
-0.179557 0.086883299 0.59299999 4287531648
-0.177663 0.086740501 0.59200001 4287597187
-0.176071 0.086744301 0.59200001 4287794309
-0.17418499 0.0866016 0.59100002 4287662980
-0.17288899 0.086751997 0.59200001 4287794566
-0.17158701 0.086902604 0.59299999 4288189324
-0.17027999 0.087053202 0.59399998 4287991945
-0.16868301 0.0870573 0.59399998 4287992199
-0.166805 0.086914897 0.59299999 4287860612
-0.164653 0.086626001 0.59100002 4287794819
-0.163065 0.0866303 0.59100002 4287794819
-0.161476 0.086634599 0.59100002 4287992199
-0.160157 0.086785503 0.59200001 4287926152
-0.158834 0.086936601 0.59299999 4287926153
-0.157239 0.086940996 0.59299999 4287794567
-0.15590701 0.087092198 0.59399998 4287728774
-0.15404999 0.086950101 0.59299999 4287531394
-0.152198 0.086808003 0.59200001 4287794820
-0.15086 0.086959302 0.59299999 4287531644
-0.14926501 0.086963996 0.59299999 4287597435
-0.14767 0.086968601 0.59299999 4287662713
-0.146321 0.087119997 0.59399998 4287729020
-0.14447901 0.0869781 0.59299999 4287597434
-0.143125 0.087129503 0.59399998 4287531642
-0.141765 0.087281004 0.59500003 4287794816
-0.14039899 0.087432504 0.59600002 4287860355
-0.138795 0.087437302 0.59600002 4288057988
-0.137191 0.0874421 0.59600002 4288057471
-0.135359 0.087300301 0.59500003 4288123264
-0.133757 0.087305099 0.59500003 4287860092
-0.131933 0.087163202 0.59399998 4288320643
-0.13055301 0.087314799 0.59500003 4287860607
-0.128951 0.087319702 0.59500003 4287597435
-0.12734801 0.087324597 0.59500003 4288715402
-0.125534 0.087182701 0.59399998 4288189571
-0.124142 0.087334298 0.59500003 4288321158
-0.122333 0.087192401 0.59399998 4288584587
-0.120733 0.087197199 0.59399998 4288255622
-0.119132 0.087201998 0.59399998 4288321417
-0.117333 0.087059997 0.59299999 4288189831
-0.11593 0.087211601 0.59399998 4288255365
-0.114521 0.087363198 0.59500003 4288584329
-0.112917 0.087367997 0.59500003 4288189571
-0.111125 0.087225899 0.59399998 4288321157
-0.109523 0.0872306 0.59399998 4288321157
-0.108103 0.087382197 0.59500003 4288321411
-0.106677 0.087533697 0.59600002 4288387204
-0.105245 0.087685198 0.597 4288584329
-0.10346 0.087543003 0.59600002 4288386436
-0.102023 0.087694503 0.597 4288057471
-0.100243 0.087552197 0.59600002 4288320897
-0.098303698 0.087262899 0.59399998 4288189311
-0.096700102 0.087267399 0.59399998 4287728506
-0.094936103 0.087124899 0.59299999 4286938730
-0.093649603 0.087423101 0.59500003 4286609512
-0.091888003 0.087280601 0.59399998 4286478440
-0.090587497 0.087578803 0.59600002 4287399542
-0.088977501 0.087582998 0.59600002 4287729020
-0.087367199 0.087587297 0.59600002 4287334262
-0.085756697 0.087591499 0.59600002 4287137396
-0.084146097 0.087595597 0.59600002 4287926912
-0.082258202 0.087305702 0.59399998 4288453256
-0.080652602 0.087309703 0.59399998 4288321670
-0.079046696 0.087313697 0.59399998 4288124036
-0.077701397 0.087611601 0.59600002 4288189574
-0.076089799 0.087615497 0.59600002 4288321160
-0.074852802 0.088060297 0.59899998 4288056958
-0.073110402 0.087917097 0.59799999 4287070063
-0.071731903 0.0882148 0.60000002 4286412132
-0.069758102 0.087777399 0.597 4286675304
-0.068028703 0.0876339 0.59600002 4287596407
-0.066304497 0.087490298 0.59500003 4288189057
-0.0648029 0.0876408 0.59600002 4288189572
-0.063295797 0.087791197 0.597 4288386950
-0.061783101 0.087941602 0.59799999 4288124291
-0.0602649 0.088091798 0.59899998 4288124291
-0.058741 0.088242099 0.60000002 4287795326
-0.056926001 0.087950997 0.59799999 4287794813
-0.055399101 0.088101096 0.59899998 4287532154
-0.053866699 0.088251099 0.60000002 4286873969
-0.0525028 0.088695303 0.60299999 4286939762
-0.050953701 0.088845201 0.60399997 4284374090
-0.049235899 0.088700801 0.60299999 4286873711
-0.047523201 0.088556297 0.602 4287728506
-0.045892201 0.088558897 0.602 4287794299
-0.0443344 0.088708498 0.60299999 4288320643
-0.042700399 0.088710897 0.60299999 4287925886
-0.0410662 0.088713199 0.60299999 4287465848
-0.039366499 0.0885683 0.602 4287268469
-0.037797399 0.088717602 0.60299999 4286939504
-0.0362828 0.089013897 0.60500002 4287071603
-0.034585498 0.088868797 0.60399997 4286545259
-0.032947998 0.088870697 0.60399997 4286610540
-0.031206699 0.088578202 0.602 4286347625
-0.029672701 0.088874198 0.60399997 4286479211
-0.027942101 0.088581502 0.602 4287136884
-0.026309701 0.088583097 0.602 4287137143
-0.0246362 0.088437296 0.60100001 4287005557
-0.023044599 0.088585898 0.602 4287531647
-0.021411899 0.088587098 0.602 4287071350
-0.0197463 0.088441104 0.60100001 4287334782
-0.0181765 0.088736497 0.60299999 4287926919
-0.0165684 0.088884696 0.60399997 4288124813
-0.0149548 0.089032702 0.60500002 4288059020
-0.0132917 0.088886403 0.60399997 4288387985
-0.0116147 0.088592798 0.602 4288190608
-0.0099982796 0.088740602 0.60299999 4288058252
-0.0083763702 0.088888302 0.60399997 4288453010
-0.0067267101 0.088741504 0.60299999 4287992713
-0.00509089 0.088741899 0.60299999 4288124298
-0.00346079 0.088889301 0.60399997 4288058759
-0.0018222301 0.088889398 0.60399997 4287664517
-0.000183668 0.088889502 0.60399997 4288256654
0.00145008 0.0885951 0.602 4288256915
0.0030883299 0.088742197 0.60299999 4287730571
0.0047320002 0.0888891 0.60399997 4288256913
0.00638108 0.089035898 0.60500002 4287796103
0.0080223102 0.089035504 0.60500002 4287598724
0.0096315704 0.088740699 0.60299999 4287992966
0.0112299 0.088445798 0.60100001 4287861126
0.0128602 0.088445097 0.60100001 4287992713
0.0145146 0.088591501 0.602 4288255370
0.0161743 0.088737696 0.60299999 4287861126
0.017780401 0.088589601 0.602 4287729794
0.019413199 0.088588499 0.602 4288255624
0.021045901 0.088587403 0.602 4287927173
0.022678601 0.088586196 0.602 4287992198
0.024391901 0.088879101 0.60399997 4288057991
0.0260299 0.0888777 0.60399997 4287137143
0.0276678 0.088876203 0.60399997 4286873971
0.029354099 0.089021698 0.60500002 4286807921
0.030994499 0.089019999 0.60500002 4287136884
0.0326887 0.0891653 0.60600001 4286873712
0.034218401 0.088869199 0.60399997 4286742126
0.0357964 0.088720098 0.60299999 4286940017
0.037431002 0.088718101 0.60299999 4286874224
0.039065499 0.088715903 0.60299999 4287466361
0.040767301 0.088860802 0.60399997 4287532154
0.042404201 0.0888585 0.60399997 4287268476
0.0439681 0.088708997 0.60299999 4287399809
0.045602102 0.088706598 0.60299999 4287531901
0.047235899 0.088703997 0.60299999 4287663740
0.048869599 0.088701397 0.60299999 4287663481
0.050419401 0.088551603 0.602 4287597688
0.052223101 0.088843003 0.60399997 4287729273
0.053858999 0.088840097 0.60399997 4287268980
0.055403002 0.088690102 0.60299999 4287137394
0.056941301 0.088540003 0.602 4287729531
0.058571398 0.088536903 0.602 4287926912
0.0603013 0.088680796 0.60299999 4287663740
0.061933801 0.0886776 0.60299999 4287795326
0.0634607 0.088527203 0.602 4287268469
0.065090097 0.088523798 0.602 4287597434
0.066608503 0.0883734 0.60100001 4287597434
0.068121299 0.088222802 0.60000002 4287071090
0.069628499 0.088072203 0.59899998 4287202934
0.071249001 0.088068597 0.59899998 4287137143
0.072991103 0.088211901 0.60000002 4286413418
0.074738301 0.088355199 0.60100001 4286216555
0.076490797 0.088498399 0.602 4283915345
0.078248501 0.088641502 0.60299999 4284113238
0.079878896 0.088637501 0.60299999 4286942598
0.081238799 0.088339597 0.60100001 4287732114
0.082587697 0.088041499 0.59899998 4287797393
0.0840661 0.087890498 0.59799999 4287797393
0.085682198 0.087886304 0.59799999 4287797392
0.087590098 0.088175997 0.60000002 4287600013
0.089211203 0.088171802 0.60000002 4287929232
0.090832099 0.088167503 0.60000002 4287731599
0.092144698 0.087869301 0.59799999 4287665806
0.093602903 0.087718002 0.597 4287600013
0.095055602 0.087566599 0.59600002 4287862672
0.096989296 0.087856002 0.59799999 4287797392
0.0986038 0.087851502 0.59799999 4287928464
0.100218 0.087847002 0.59799999 4287796878
0.101662 0.087695502 0.597 4287797132
0.1031 0.087544002 0.59600002 4287731338
0.104884 0.0876863 0.597 4287731339
0.106495 0.087681599 0.597 4287665545
0.108286 0.087823801 0.59799999 4287862924
0.109715 0.087672196 0.597 4287534474
0.111139 0.087520704 0.59600002 4287863185
0.112746 0.087515898 0.59600002 4287928979
0.114161 0.087364301 0.59500003 4287731086
0.115765 0.087359503 0.59500003 4287928465
0.116975 0.0870611 0.59299999 4287731086
0.118773 0.0872031 0.59399998 4287994257
0.120171 0.087051503 0.59299999 4287731339
0.121769 0.087046601 0.59299999 4287928717
0.123367 0.087041803 0.59299999 4287797131
0.124965 0.087036997 0.59299999 4287599752
0.126348 0.0868854 0.59200001 4287862671
0.128159 0.087027296 0.59299999 4287796878
0.129537 0.086875699 0.59200001 4287862671
0.131574 0.087164298 0.59399998 4287731085
0.132725 0.086865999 0.59200001 4287731339
0.134773 0.087154597 0.59399998 4287928717
0.136602 0.087296501 0.59500003 4287797132
0.13843501 0.087438397 0.59600002 4287797132
0.140039 0.087433502 0.59600002 4287993743
0.141406 0.087282002 0.59500003 4287862157
0.142767 0.087130599 0.59399998 4287599499
0.144365 0.087125801 0.59399998 4287862925
0.145717 0.086974397 0.59299999 4287928718
0.147312 0.086969703 0.59299999 4287797131
0.148908 0.086965002 0.59299999 4287797131
0.150756 0.087107003 0.59399998 4287468167
0.152098 0.086955696 0.59299999 4287862155
0.154211 0.087244399 0.59500003 4287927948
0.155549 0.087093197 0.59399998 4287599499
0.156617 0.086795397 0.59200001 4287533706
0.158209 0.086791001 0.59200001 4287730824
0.15980101 0.086786501 0.59200001 4287730824
0.16166499 0.086928703 0.59299999 4287401857
0.163259 0.086924396 0.59299999 4287599236
0.16485301 0.086920097 0.59299999 4287401859
0.166447 0.086915903 0.59299999 4287336580
0.167758 0.086765103 0.59200001 4287533960
0.169636 0.086907603 0.59299999 4287862155
0.17123 0.086903498 0.59299999 4287598983
0.173115 0.087045997 0.59399998 4287664778
