# .PCD v0.7 - Point Cloud Data file format
VERSION 0.7
FIELDS x y z rgb
SIZE 4 4 4 4
TYPE F F F U
COUNT 1 1 1 1
WIDTH 1081
HEIGHT 1
VIEWPOINT 0 0 0 1 0 0 0
POINTS 1081
DATA ascii
0.304571 -0.107553 0.801 4287661665
0.30673099 -0.107552 0.801 4287924837
0.30889201 -0.107552 0.801 4287859560
0.311441 -0.107686 0.80199999 4287465317
0.31282401 -0.107417 0.80000001 4287794281
0.315377 -0.107552 0.801 4287991144
0.317936 -0.107686 0.80199999 4288056937
0.32050201 -0.107821 0.80299997 4286873693
0.323073 -0.107957 0.80400002 4287532138
0.32484201 -0.107823 0.80299997 4288322172
0.32701299 -0.107825 0.80299997 4288256381
0.329595 -0.10796 0.80400002 4288585607
0.332596 -0.108231 0.80599999 4288782988
0.33602399 -0.108636 0.80900002 4288585609
0.33863199 -0.108772 0.81 4288124542
0.34082699 -0.108775 0.81 4288059004
0.343445 -0.108912 0.81099999 4287927418
0.345218 -0.108781 0.81 4288914313
0.34827301 -0.109053 0.81199998 4288716934
0.35047701 -0.109056 0.81199998 4287861370
0.35354999 -0.109329 0.81400001 4287927679
0.35576099 -0.109333 0.81400001 4289177230
0.35797301 -0.109337 0.81400001 4288453507
0.35974401 -0.109208 0.81300002 4288190335
0.36284599 -0.109482 0.815 4288256383
0.36596 -0.109756 0.81699997 4288453760
0.36863601 -0.109896 0.81800002 4287861625
0.37086499 -0.109902 0.81800002 4287927418
0.37264001 -0.109774 0.81699997 4288519553
0.37486899 -0.10978 0.81699997 4288255608
0.37709901 -0.109787 0.81699997 4286347096
0.38025999 -0.110063 0.81900001 4286806358
0.382965 -0.110205 0.81999999 4287201369
0.38567799 -0.110348 0.82099998 4287135574
0.38839799 -0.11049 0.82200003 4286938195
0.39064899 -0.110499 0.82200003 4287793504
0.392425 -0.110374 0.82099998 4287925090
0.39467701 -0.110383 0.82099998 4287727207
0.39693099 -0.110393 0.82099998 4287727722
0.399672 -0.110537 0.82200003 4288188273
0.401443 -0.110413 0.82099998 4288451444
0.403211 -0.11029 0.81999999 4288320109
0.405469 -0.110301 0.81999999 4288451950
0.40872401 -0.110582 0.82200003 4287924839
0.411991 -0.110863 0.824 4285951047
0.41426599 -0.110875 0.824 4287201369
0.41603801 -0.110754 0.82300001 4288714606
0.418823 -0.110902 0.824 4288518248
0.421615 -0.11105 0.82499999 4287991137
0.42492899 -0.111334 0.82700002 4288254308
0.42825601 -0.111618 0.829 4287203155
0.43159699 -0.111902 0.83099997 4287006292
0.43338501 -0.111783 0.82999998 4286743144
0.43306899 -0.111126 0.82499999 4282334254
0.43483999 -0.111007 0.824 4288321921
0.43713701 -0.111024 0.824 4288059756
0.44050401 -0.111311 0.82599998 4288190067
0.44281301 -0.111329 0.82599998 4288518519
0.44566199 -0.111482 0.82700002 4288518519
0.447979 -0.111501 0.82700002 4288255863
0.45084301 -0.111655 0.82800001 4288321654
0.453715 -0.11181 0.829 4288124275
0.455495 -0.111695 0.82800001 4287795310
0.45727301 -0.111581 0.82700002 4288124022
0.459604 -0.111603 0.82700002 4288124022
0.46193799 -0.111625 0.82700002 4288190078
0.464275 -0.111647 0.82700002 4288124542
0.467179 -0.111805 0.82800001 4287795832
0.47066 -0.112099 0.82999998 4287795832
0.47415501 -0.112393 0.83200002 4288124795
0.47594601 -0.112283 0.83099997 4288322174
0.47716001 -0.112038 0.829 4288322174
0.479523 -0.112064 0.829 4288256381
0.48247001 -0.112225 0.82999998 4288059004
0.48542699 -0.112388 0.83099997 4288190590
0.48839399 -0.112551 0.83200002 4288782727
0.49136999 -0.112715 0.833 4288585093
0.49376199 -0.112744 0.833 4288979851
0.495563 -0.112638 0.83200002 4288716940
0.497363 -0.112533 0.83099997 4287861631
-0.198267 -0.076165497 0.55599999 4290167762
-0.196417 -0.076030098 0.55500001 4290101969
-0.194923 -0.076031901 0.55500001 4289970897
-0.19412699 -0.076307699 0.55699998 4290102481
-0.192974 -0.076446697 0.55800003 4290430934
-0.192159 -0.076722801 0.56 4290102483
-0.190653 -0.076724999 0.56 4290036690
-0.189147 -0.076727301 0.56 4290102483
-0.187306 -0.076592602 0.55900002 4290036435
-0.18613499 -0.076732099 0.56 4289970642
-0.18462899 -0.076734699 0.56 4290036690
-0.18312401 -0.076737396 0.56 4290102483
-0.18129399 -0.0766031 0.55900002 4289905104
-0.179791 -0.076605901 0.55900002 4290102483
-0.17892601 -0.076882899 0.56099999 4290168021
-0.177735 -0.077023 0.56199998 4289970642
-0.17653801 -0.0771631 0.56300002 4290036435
-0.175025 -0.077166297 0.56300002 4290168021
-0.17320301 -0.077032499 0.56199998 4290168021
-0.171082 -0.0767617 0.56 4290168021
-0.169274 -0.076627903 0.55900002 4289971155
-0.168072 -0.076768503 0.56 4289708243
-0.16686399 -0.076909102 0.56099999 4289709272
-0.16594601 -0.077186801 0.56300002 4291027189
-0.164433 -0.077190503 0.56300002 4291357182
-0.16292 -0.077194199 0.56300002 4291160831
-0.161406 -0.077197902 0.56300002 4290701309
-0.15989301 -0.077201702 0.56300002 4290832895
-0.15866099 -0.077342696 0.56400001 4290108920
-0.157424 -0.077483803 0.565 4289582834
-0.15562899 -0.077350602 0.56400001 4289714422
-0.15384001 -0.0772174 0.56300002 4289451764
-0.151785 -0.0769471 0.56099999 4289451250
-0.150277 -0.076951198 0.56099999 4289253616
-0.14850301 -0.076818101 0.56 4288990444
-0.14621 -0.076410703 0.55699998 4288924394
-0.14419299 -0.076140501 0.55500001 4288595429
-0.142186 -0.075870201 0.55299997 4288069085
-0.139936 -0.075462803 0.55000001 4287871452
-0.13820501 -0.075329699 0.54900002 4287739866
-0.137226 -0.075608402 0.551 4288660455
-0.136976 -0.076298699 0.55599999 4288660455
-0.13572399 -0.0764402 0.55699998 4288397031
-0.133984 -0.076307297 0.55599999 4286752206
-0.132488 -0.076311603 0.55599999 4286357185
-0.130992 -0.076315999 0.55599999 4285171619
-0.129728 -0.076457597 0.55699998 4285762216
-0.12822901 -0.076461896 0.55699998 4285170081
-0.12673 -0.0764663 0.55699998 4284643990
-0.124781 -0.076196097 0.55500001 4284972955
-0.122842 -0.075925902 0.55299997 4284774799
-0.120695 -0.075518303 0.55000001 4282864998
-0.11943 -0.075659901 0.551 4282535519
-0.118374 -0.075938903 0.55299997 4282404447
-0.117096 -0.076080598 0.55400002 4283654514
-0.115812 -0.076222301 0.55500001 4284838788
-0.114111 -0.0760893 0.55400002 4283325549
-0.112821 -0.076231003 0.55500001 4283259756
-0.111526 -0.076372698 0.55599999 4283717737
-0.110028 -0.076376997 0.55599999 4283192674
-0.108724 -0.0765187 0.55699998 4283257953
-0.107415 -0.076660402 0.55800003 4283586401
-0.10629 -0.076939397 0.56 4284507503
-0.10478 -0.076943703 0.56 4284310121
-0.101759 -0.076952301 0.56 4284178534
-0.100785 -0.077368699 0.56300002 4284178534
-0.0996188 -0.077647798 0.565 4284310120
-0.0984414 -0.077926897 0.56699997 4284704364
-0.097081997 -0.078068502 0.56800002 4284441706
-0.095885403 -0.078347601 0.56999999 4284376167
-0.094512098 -0.078489199 0.57099998 4284244327
-0.093133301 -0.078630798 0.57200003 4284507753
-0.091748901 -0.078772403 0.57300001 4284507753
-0.090358801 -0.078913897 0.574 4284705132
-0.088963203 -0.079055503 0.57499999 4284507753
-0.087561898 -0.079196997 0.57599998 4284441960
-0.086154997 -0.079338402 0.57700002 4284573292
-0.084742598 -0.079479903 0.57800001 4284310120
-0.083180599 -0.079483703 0.57800001 4284375913
-0.081900798 -0.0797626 0.57999998 4284573546
-0.080471501 -0.079903997 0.58099997 4284639338
-0.079036601 -0.080045298 0.58200002 4284704617
-0.077463001 -0.080049001 0.58200002 4284375397
-0.0758892 -0.080052599 0.58200002 4284704362
-0.074442901 -0.080193803 0.583 4284770157
-0.072990999 -0.080334902 0.58399999 4284901227
-0.071778104 -0.080751099 0.58700001 4285032554
-0.070429102 -0.081029803 0.58899999 4284176466
-0.069069199 -0.081308298 0.59100002 4282465587
-0.0673557 -0.081174098 0.58999997 4282859310
-0.065870397 -0.081315003 0.59100002 4283056175
-0.064488299 -0.081593499 0.59299999 4282595622
-0.062989101 -0.081734203 0.59399998 4282858535
-0.0614843 -0.081874996 0.59500003 4282924328
-0.059873302 -0.081878103 0.59500003 4283055914
-0.058262099 -0.081881098 0.59500003 4283121707
-0.056650799 -0.081883997 0.59500003 4283187245
-0.055039302 -0.081886902 0.59500003 4283121454
-0.053697001 -0.082302503 0.59799999 4283187247
-0.0521641 -0.082442902 0.59899998 4282989354
-0.050457001 -0.082307898 0.59799999 4283120938
-0.048673399 -0.082035199 0.59600002 4282595363
-0.046821501 -0.081624798 0.59299999 4282661156
-0.045062099 -0.081351899 0.59100002 4282397729
-0.043460399 -0.081354201 0.59100002 4282068766
-0.042071 -0.081769399 0.59399998 4282067999
-0.040665299 -0.082184598 0.597 4282199846
-0.039243098 -0.082599699 0.60000002 4283646786
-0.037553798 -0.082464099 0.59899998 4284502872
-0.035749901 -0.082052998 0.59600002 4286279293
-0.033904798 -0.081504203 0.59200001 4286148223
-0.032190502 -0.081230603 0.58999997 4285621881
-0.0304868 -0.080956899 0.588 4286871693
-0.028843099 -0.080820799 0.58700001 4286212993
-0.0272511 -0.080822296 0.58700001 4283975246
-0.0257902 -0.081236899 0.58999997 4283251007
-0.024272 -0.081513599 0.59200001 4283843394
-0.022781 -0.081927903 0.59500003 4283908670
-0.0212382 -0.082204498 0.597 4283053355
-0.019783 -0.082894102 0.602 4282790181
-0.018361 -0.083859101 0.60900003 4282921765
-0.0171753 -0.0862009 0.62599999 4282855972
-0.015946699 -0.0888182 0.64499998 4282855972
-0.0141968 -0.088818997 0.64499998 4282790695
-0.0122538 -0.087442704 0.63499999 4282462503
-0.0105143 -0.087305598 0.634 4281080851
-0.0087941401 -0.087306097 0.634 4281080597
-0.00708507 -0.087444298 0.63499999 4281409562
-0.0053452202 -0.0871692 0.63300002 4281737756
-0.0036334 -0.087307103 0.634 4282263331
-0.00191915 -0.0875827 0.63599998 4282000159
-0.000194958 -0.088271298 0.64099997 4282592296
0.00156842 -0.089648403 0.65100002 4282395431
0.00347826 -0.093504101 0.67900002 4282460710
0.0056575802 -0.099425301 0.722 4282394917
0.0078381402 -0.102317 0.74299997 4282592296
0.0099204397 -0.103005 0.74800003 4282395431
0.011934 -0.102867 0.74699998 4282593065
0.0139607 -0.102866 0.74699998 4283317813
0.0160303 -0.10314 0.74900001 4282989101
0.0180865 -0.103277 0.75 4282660901
0.0201749 -0.103552 0.75199997 4282726949
0.022185501 -0.103413 0.75099999 4282201119
0.024255 -0.103549 0.75199997 4282135326
0.026295001 -0.103548 0.75199997 4282266657
0.028372601 -0.103684 0.75300002 4282135841
0.030495901 -0.103958 0.755 4282267427
0.0325437 -0.103956 0.755 4282464803
0.034591399 -0.103954 0.755 4282332958
0.036541998 -0.103677 0.75300002 4282332958
0.038584001 -0.103675 0.75300002 4282727202
0.040626001 -0.103673 0.75300002 4282792740
0.043121099 -0.104772 0.76099998 4282857765
0.0464314 -0.107661 0.78200001 4282726179
0.050600398 -0.112201 0.815 4282726179
0.053781901 -0.114264 0.82999998 4283055914
0.0560994 -0.114398 0.83099997 4282989605
0.058562599 -0.114808 0.83399999 4283252776
0.061406501 -0.115906 0.84200001 4283581741
0.064596198 -0.117555 0.85399997 4283779120
0.068320803 -0.120029 0.87199998 4283910706
0.072872303 -0.123742 0.89899999 4283976499
0.100157 -0.154559 1.123 4283779120
0.104394 -0.156343 1.136 4283910706
0.106997 -0.15565 1.131 4284042292
0.062312301 -0.081322096 0.59100002 4284768579
0.063155197 -0.080355801 0.58399999 4284704615
0.064292498 -0.079802297 0.57999998 4285891997
0.065862201 -0.079798996 0.57999998 4286156462
0.0674318 -0.079795703 0.57999998 4286090161
0.069239102 -0.0800675 0.58200002 4285763513
0.070813701 -0.080064103 0.58200002 4285107381
0.0725125 -0.080198199 0.583 4285435314
0.0740894 -0.0801946 0.583 4285566900
0.075406604 -0.079915904 0.58099997 4285304498
0.076845199 -0.0797747 0.57999998 4285238451
0.078413501 -0.079770997 0.57999998 4285304498
0.080257297 -0.080042303 0.58200002 4285502137
0.081971198 -0.0801761 0.583 4285173174
0.083546899 -0.080172203 0.583 4285173174
0.085414499 -0.0804433 0.58499998 4285632179
0.087292597 -0.0807143 0.58700001 4285566386
0.088575803 -0.080435298 0.58499998 4285763765
0.090156101 -0.080431297 0.58499998 4285500593
0.091736197 -0.0804272 0.58499998 4285697972
0.093635201 -0.080697998 0.58700001 4285566386
0.095220298 -0.080693796 0.58700001 4285763767
0.096640296 -0.080552101 0.58600003 4285698488
0.098222204 -0.080547802 0.58600003 4285764281
0.099803999 -0.080543503 0.58600003 4285503164
0.101559 -0.0806766 0.58700001 4283790489
0.103318 -0.080809698 0.588 4284250526
0.105083 -0.080942698 0.58899999 4285829044
0.106672 -0.080938302 0.58899999 4285762736
0.108261 -0.080933802 0.58899999 4285959862
0.110223 -0.081204101 0.59100002 4284576399
0.112952 -0.082024001 0.597 4279835184
0.116864 -0.083668001 0.60900003 4280162859
0.121814 -0.085998699 0.62599999 4280162859
0.12626401 -0.087917097 0.63999999 4281018168
0.12958901 -0.089010999 0.648 4281086264
0.132146 -0.089555398 0.65200001 4281744184
0.13493 -0.090236999 0.65700001 4282138941
0.13774 -0.090918504 0.662 4282270781
0.140367 -0.091462702 0.66600001 4283849559
0.14322799 -0.092143998 0.671 4283652180
0.146116 -0.092825398 0.676 4283717974
0.148812 -0.093369298 0.68000001 4284046685
0.151086 -0.093638502 0.68199998 4284244064
0.153595 -0.094044998 0.685 4283980892
0.15612 -0.094451502 0.68800002 4284375390
0.15934999 -0.095269702 0.69400001 4283321671
0.162147 -0.095813401 0.69800001 4282400308
0.16566999 -0.096768796 0.70499998 4282597426
0.16899399 -0.097586803 0.71100003 4282465580
0.171628 -0.097993001 0.71399999 4282202408
0.17524999 -0.098948099 0.72100002 4282333994
0.180876 -0.101001 0.736 4282860338
0.19031 -0.105112 0.76599997 4282860338
0.196639 -0.107439 0.78299999 4282926385
0.19925299 -0.107707 0.78500003 4281742110
0.201877 -0.107976 0.787 4281413399
0.204253 -0.108107 0.78799999 4281544724
0.20637199 -0.108101 0.78799999 4281610010
0.208755 -0.108233 0.78899997 4282465573
0.211144 -0.108364 0.79000002 4284175676
0.213268 -0.108358 0.79000002 4284439362
0.215391 -0.108353 0.79000002 4285492051
0.21696401 -0.108073 0.78799999 4285951832
0.219083 -0.108067 0.78799999 4286742117
0.220359 -0.10765 0.78500003 4286808417
0.222469 -0.107645 0.78500003 4286216531
0.224865 -0.107777 0.78600001 4286544990
0.22755501 -0.108046 0.78799999 4286018646
0.229381 -0.107903 0.787 4286544990
0.23149601 -0.107898 0.787 4286808162
0.233908 -0.10803 0.78799999 4286413406
0.23632599 -0.108162 0.78899997 4286677092
0.238748 -0.108295 0.79000002 4286413666
0.240871 -0.10829 0.79000002 4286939750
0.242687 -0.108148 0.78899997 4286807648
0.244497 -0.108006 0.78799999 4286807133
0.24692801 -0.108139 0.78899997 4287069789
0.248733 -0.107998 0.78799999 4286937944
0.251488 -0.108267 0.79000002 4287201367
0.25361201 -0.108263 0.79000002 4287135323
0.25573501 -0.108259 0.79000002 4287003737
0.25818601 -0.108392 0.79100001 4286872151
0.26064101 -0.108526 0.792 4287266909
0.26277101 -0.108522 0.792 4287332702
0.2649 -0.108518 0.792 4287595872
0.26703 -0.108515 0.792 4287398493
0.26949999 -0.108649 0.79299998 4287332702
0.271633 -0.108646 0.79299998 4287661665
0.27376601 -0.108643 0.79299998 4287661667
0.27590001 -0.10864 0.79299998 4287529826
0.278384 -0.108774 0.79400003 4287793253
0.28087401 -0.108909 0.79500002 4287530081
0.28336999 -0.109043 0.796 4287595619
0.28551301 -0.109041 0.796 4287792998
0.288017 -0.109176 0.79699999 4287332702
0.289799 -0.109037 0.796 4287530340
0.29157701 -0.108898 0.79500002 4287596388
0.29371801 -0.108897 0.79500002 4287135837
0.29660401 -0.109169 0.79699999 4287399007
0.29912701 -0.109305 0.79799998 4287662179
0.301278 -0.109304 0.79799998 4287464286
0.30342999 -0.109304 0.79799998 4287333214
0.30558199 -0.109303 0.79799998 4287465055
0.307735 -0.109303 0.79799998 4287530593
0.310276 -0.109439 0.79900002 4287267937
0.312042 -0.109303 0.79799998 4287465570
0.31459001 -0.10944 0.79900002 4287596386
0.31674799 -0.10944 0.79900002 4287596388
0.31890601 -0.109441 0.79900002 4287662695
0.32146701 -0.109579 0.80000001 4286742107
0.32363001 -0.10958 0.80000001 4287730035
0.325793 -0.109581 0.80000001 4288190588
0.327957 -0.109583 0.80000001 4288191363
0.33053499 -0.109722 0.801 4288257156
0.333949 -0.110135 0.80400002 4288388230
0.33654499 -0.110274 0.80500001 4288387714
0.33872601 -0.110277 0.80500001 4288124797
0.34090701 -0.11028 0.80500001 4287861625
0.34223801 -0.110009 0.80299997 4288322174
0.345274 -0.110287 0.80500001 4288848518
0.347891 -0.110427 0.80599999 4287927418
0.35138199 -0.110842 0.80900002 4288059004
0.35358 -0.110847 0.80900002 4289177485
0.35533899 -0.110714 0.80800003 4288650886
0.35709399 -0.110582 0.80699998 4288256128
0.35973501 -0.110724 0.80800003 4288453760
0.363278 -0.111141 0.81099999 4288651139
0.36593801 -0.111284 0.81199998 4288124797
0.36860499 -0.111427 0.81300002 4287861625
0.37082201 -0.111434 0.81300002 4288256381
0.37349901 -0.111578 0.81400001 4288452987
0.37526 -0.111448 0.81300002 4287531371
0.37841001 -0.111729 0.815 4286872665
0.38110501 -0.111874 0.81599998 4287398748
0.383807 -0.112019 0.81699997 4287267162
0.386044 -0.112028 0.81699997 4287201367
0.388282 -0.112037 0.81699997 4287464286
0.390522 -0.112046 0.81699997 4287859046
0.392764 -0.112056 0.81699997 4288188272
0.39548999 -0.112203 0.81800002 4287464549
0.39871001 -0.112488 0.81999999 4287793515
0.40047601 -0.112361 0.81900001 4288122479
0.40174699 -0.112098 0.81699997 4286609491
0.403997 -0.11211 0.81699997 4288188523
0.40674701 -0.112259 0.81800002 4288254057
0.409504 -0.112408 0.81900001 4287859297
0.41176501 -0.112421 0.81900001 4285753921
0.41352299 -0.112297 0.81800002 4287135574
0.41629499 -0.112448 0.81900001 4288057444
0.419074 -0.112599 0.81999999 4288254823
0.42134699 -0.112614 0.81999999 4288123237
0.42465499 -0.112904 0.82200003 4287663200
0.427977 -0.113194 0.824 4287006292
0.43131199 -0.113484 0.82599998 4286546265
0.43151101 -0.112951 0.82200003 4284374090
0.43274599 -0.112693 0.81999999 4283189816
0.43450201 -0.112573 0.81900001 4288059255
0.438389 -0.113003 0.82200003 4288058482
0.44014999 -0.112884 0.82099998 4288321393
0.44298699 -0.11304 0.82200003 4288057704
0.44529 -0.113059 0.82200003 4288452464
0.44868499 -0.113354 0.824 4288124773
0.45045099 -0.113237 0.82300001 4288387439
0.45221499 -0.11312 0.82200003 4288189554
0.45508301 -0.113279 0.82300001 4288452472
0.457403 -0.113301 0.82300001 4288321401
0.459167 -0.113185 0.82200003 4287926391
0.46092901 -0.11307 0.82099998 4285624150
0.463817 -0.113232 0.82200003 4286413920
0.46614701 -0.113256 0.82200003 4288058745
0.46904999 -0.113418 0.82300001 4288058745
0.470817 -0.113305 0.82200003 4288058743
0.47315699 -0.113331 0.82200003 4288058743
0.47549999 -0.113357 0.82200003 4288256379
0.47900999 -0.11366 0.824 4288190586
0.48195001 -0.113826 0.82499999 4288190586
0.4849 -0.113992 0.82599998 4287664242
0.48785901 -0.114159 0.82700002 4287664244
0.490235 -0.114188 0.82700002 4287730039
0.49202001 -0.11408 0.82599998 4287532405
0.49499899 -0.114249 0.82700002 4287926905
0.497989 -0.114419 0.82800001 4287861625
-0.197909 -0.077526003 0.55500001 4290102228
-0.196061 -0.077387899 0.55400002 4290102228
-0.19421899 -0.0772499 0.55299997 4290102483
-0.19307899 -0.077391401 0.55400002 4290168274
-0.191935 -0.077533104 0.55500001 4290168274
-0.190098 -0.077395402 0.55400002 4290102483
-0.18826801 -0.077257901 0.55299997 4290036690
-0.18678001 -0.077260204 0.55299997 4290036690
-0.185628 -0.077402197 0.55400002 4290102483
-0.18480299 -0.077684097 0.55599999 4289970897
-0.182978 -0.077546902 0.55500001 4290168276
-0.181813 -0.077689297 0.55599999 4290234069
-0.180318 -0.077692099 0.55599999 4290168021
-0.17882299 -0.0776949 0.55599999 4290233814
-0.17764799 -0.077837497 0.55699998 4290233814
-0.17614999 -0.077840596 0.55699998 4290102228
-0.17496701 -0.077983402 0.55800003 4290036690
-0.173778 -0.078126296 0.55900002 4290234069
-0.17227501 -0.0781295 0.55900002 4289970897
-0.17016201 -0.0778533 0.55699998 4290036435
-0.16775601 -0.077437297 0.55400002 4290102741
-0.165667 -0.0771612 0.55199999 4289578202
-0.163886 -0.077024899 0.551 4290499819
-0.162995 -0.077307999 0.55299997 4290632178
-0.16150799 -0.077311598 0.55299997 4290239992
-0.16002201 -0.077315301 0.55299997 4289845748
-0.15796199 -0.077039301 0.551 4289845749
-0.156197 -0.076903298 0.55000001 4288332257
-0.155 -0.077046901 0.551 4288200671
-0.154076 -0.077330403 0.55299997 4288200417
-0.15286601 -0.077474199 0.55400002 4288003296
-0.15137701 -0.0774782 0.55400002 4287871453
-0.149617 -0.077342302 0.55299997 4287607766
-0.147594 -0.0770666 0.551 4287081422
-0.14558201 -0.076791003 0.54900002 4286949836
-0.143581 -0.076515302 0.54699999 4286752197
-0.141591 -0.076239601 0.54500002 4285962680
-0.14038201 -0.076383598 0.546 4285764787
-0.138659 -0.076247901 0.54500002 4284975271
-0.136942 -0.076112099 0.54400003 4286488255
-0.135728 -0.076256201 0.54500002 4287211725
-0.134754 -0.076540299 0.54699999 4286751429
-0.13377 -0.076824397 0.54900002 4284514730
-0.132534 -0.0769687 0.55000001 4283920022
-0.130816 -0.076833002 0.54900002 4281747283
-0.129103 -0.076697402 0.54799998 4283258989
-0.127395 -0.076561801 0.54699999 4283062384
-0.12615301 -0.076706097 0.54799998 4283260016
-0.124905 -0.076850399 0.54900002 4283194222
-0.123427 -0.076854803 0.54900002 4283193963
-0.121949 -0.076859102 0.54900002 4282996839
-0.12069 -0.077003501 0.55000001 4282140492
-0.119426 -0.077147901 0.551 4282074444
-0.11837 -0.077432297 0.55299997 4281614662
-0.117092 -0.077576801 0.55400002 4282930006
-0.116017 -0.077861197 0.55599999 4283192927
-0.114725 -0.078005701 0.55699998 4283719016
-0.113427 -0.078150198 0.55800003 4283784809
-0.111923 -0.078154601 0.55800003 4284179308
-0.110419 -0.078158997 0.55800003 4284178281
-0.108915 -0.078163303 0.55800003 4284178281
-0.107603 -0.0783078 0.55900002 4284507500
-0.106665 -0.078732401 0.56199998 4284310121
-0.105524 -0.079016998 0.56400001 4284573293
-0.104556 -0.079441696 0.56699997 4284639086
-0.103027 -0.079446003 0.56699997 4284573292
-0.101676 -0.079590499 0.56800002 4284507499
-0.100143 -0.079594798 0.56800002 4284770671
-0.098958001 -0.079879403 0.56999999 4284770157
-0.097590603 -0.080023803 0.57099998 4284507499
-0.096385799 -0.080308303 0.57300001 4284639085
-0.095169999 -0.080592901 0.57499999 4284639085
-0.093780398 -0.0807373 0.57599998 4284441960
-0.092545301 -0.081021801 0.57800001 4284507753
-0.090984397 -0.081026003 0.57800001 4284441960
-0.089578003 -0.081170298 0.579 4284573546
-0.087861903 -0.081034102 0.57800001 4284704362
-0.086599 -0.081318602 0.57999998 4284572778
-0.0850318 -0.081322603 0.57999998 4284573292
-0.083464503 -0.0813265 0.57999998 4284441706
-0.082038201 -0.081470698 0.58099997 4284507753
-0.0806062 -0.081614703 0.58200002 4284639339
-0.079032898 -0.0816186 0.58200002 4284572776
-0.077592403 -0.081762597 0.583 4284704362
-0.076016001 -0.0817663 0.583 4284638571
-0.074566998 -0.0819102 0.58399999 4284506985
-0.073237397 -0.082194403 0.58600003 4284835434
-0.0720191 -0.082618698 0.58899999 4285031784
-0.070425697 -0.082622297 0.58899999 4282925885
-0.069065802 -0.082906298 0.59100002 4282399794
-0.067352399 -0.082769401 0.58999997 4282990896
-0.065867104 -0.082913101 0.59100002 4282793001
-0.064267501 -0.082916401 0.59100002 4282793001
-0.062879898 -0.083200201 0.59299999 4283121707
-0.061274499 -0.083203398 0.59299999 4283055914
-0.059769601 -0.083346799 0.59399998 4283121707
-0.058161199 -0.083349802 0.59399998 4283121707
-0.0566479 -0.083493099 0.59500003 4283121452
-0.0550364 -0.083495997 0.59500003 4282989866
-0.053604402 -0.083779499 0.597 4283187247
-0.051900201 -0.083641902 0.59600002 4282858282
-0.0503699 -0.083784997 0.597 4282660903
-0.0485892 -0.083506897 0.59500003 4282595108
-0.046819098 -0.0832287 0.59299999 4282791972
-0.044983398 -0.082810096 0.58999997 4282265629
-0.0435316 -0.083093204 0.59200001 4281804825
-0.042139601 -0.083516501 0.59500003 4281804827
-0.040731199 -0.083939902 0.59799999 4282923055
-0.039241001 -0.084222697 0.60000002 4283712318
-0.037677199 -0.084365197 0.60100001 4283976014
-0.035987899 -0.084226802 0.60000002 4285357927
-0.034074798 -0.083526798 0.59500003 4285818742
-0.032297801 -0.083107501 0.59200001 4285358707
-0.030537 -0.082687996 0.58899999 4286147705
-0.0288416 -0.082408898 0.58700001 4285225068
-0.0272961 -0.082550801 0.588 4283185214
-0.0258325 -0.082973398 0.59100002 4282856245
-0.0243116 -0.083255596 0.59299999 4283053361
-0.0228181 -0.083678097 0.59600002 4283053102
-0.0212726 -0.083960101 0.59799999 4282855974
-0.0199134 -0.085084401 0.60600001 4282987558
-0.0186313 -0.0867704 0.61799997 4282987558
-0.0176681 -0.0904219 0.64399999 4282987558
-0.016267199 -0.0923886 0.65799999 4282987558
-0.0141519 -0.090283297 0.64300001 4283054121
-0.0121952 -0.088739499 0.63200003 4280817932
-0.010464 -0.088599697 0.63099998 4281080597
-0.0087659201 -0.088740699 0.63200003 4281343769
-0.0070512099 -0.088741101 0.63200003 4281672228
-0.0053364802 -0.088741399 0.63200003 4281737501
-0.0036331899 -0.089022502 0.634 4282000926
-0.00191904 -0.089303501 0.63599998 4282263331
-0.00019525101 -0.090145998 0.64200002 4282329124
0.00159001 -0.092673503 0.66000003 4282329124
0.0035805099 -0.098149501 0.699 4282329124
0.0057434598 -0.102923 0.73299998 4282263331
0.00786936 -0.104748 0.74599999 4282329124
0.0099198902 -0.105029 0.74800003 4282395431
0.0119493 -0.105028 0.74800003 4282922030
0.0139787 -0.105027 0.74800003 4283252273
0.016029401 -0.105167 0.74900001 4282725927
0.018061399 -0.105166 0.74900001 4282397984
0.020173799 -0.105586 0.75199997 4282529570
0.0222138 -0.105585 0.75199997 4282398498
0.024286 -0.105724 0.75300002 4282201119
0.0263285 -0.105723 0.75300002 4282464291
0.028333301 -0.105581 0.75199997 4282266657
0.030453799 -0.10586 0.75400001 4282595877
0.032498799 -0.105858 0.75400001 4282595875
0.034543701 -0.105856 0.75400001 4282464544
0.036588501 -0.105854 0.75400001 4282661668
0.038582001 -0.105712 0.75300002 4282530082
0.040569901 -0.105569 0.75199997 4282726949
0.043062199 -0.10669 0.75999999 4282397984
0.046310201 -0.109495 0.77999997 4282397984
0.050349399 -0.113844 0.81099999 4282661156
0.053519901 -0.115947 0.82599998 4282990121
0.056028899 -0.116506 0.82999998 4283318570
0.058770102 -0.117485 0.83700001 4283647534
0.0620596 -0.119447 0.85100001 4283581741
0.065802999 -0.122111 0.87 4283384363
0.070510902 -0.12631799 0.89999998 4283384363
0.097109802 -0.157602 1.123 4283581741
0.101311 -0.159421 1.136 4283384362
0.103745 -0.15843301 1.1289999 4283318570
0.060298301 -0.082362197 0.58700001 4284702795
0.0613603 -0.081657603 0.58200002 4285230182
0.062611297 -0.081233501 0.579 4284902510
0.0639567 -0.080949701 0.57700002 4284443509
0.065518297 -0.080946401 0.57700002 4283785598
0.066847198 -0.080662601 0.57499999 4285036698
0.068402998 -0.080659203 0.57499999 4286224578
0.069958597 -0.080655798 0.57499999 4285896897
0.071762703 -0.080932803 0.57700002 4285568446
0.073196299 -0.080789 0.57599998 4285831870
0.074754097 -0.080785401 0.57599998 4285896897
0.076311603 -0.080781698 0.57599998 4285765311
0.077868998 -0.080778003 0.57599998 4285897411
0.079563998 -0.080914497 0.57700002 4285634496
0.081404902 -0.0811911 0.579 4285700289
0.083113097 -0.081327401 0.57999998 4285634497
0.084826499 -0.081463702 0.58099997 4285305531
0.086396404 -0.081459701 0.58099997 4285634497
0.087966099 -0.081455603 0.58099997 4285700289
0.089381397 -0.081311397 0.57999998 4285766082
0.090791203 -0.081167102 0.579 4285897668
0.092673898 -0.081443302 0.58099997 4286029255
0.094242796 -0.0814391 0.58099997 4285635011
0.095811397 -0.081434801 0.58099997 4285503171
0.0972123 -0.081290402 0.57999998 4285502911
0.098948099 -0.081426203 0.58099997 4285765056
0.100343 -0.081281699 0.57999998 4286356418
0.102435 -0.081697799 0.583 4284776356
0.10383 -0.081553198 0.58200002 4283262599
0.105943 -0.081969097 0.58499998 4283918216
0.107705 -0.082104802 0.58600003 4283917184
0.110591 -0.083081 0.59299999 4281417031
0.114461 -0.084757499 0.60500002 4279311646
0.119546 -0.087274402 0.62300003 4279311646
0.124144 -0.089370698 0.63800001 4280693299
0.127443 -0.090486303 0.64600003 4283060564
0.13018399 -0.091181502 0.65100002 4282007618
0.13234299 -0.091456503 0.653 4282072895
0.13492399 -0.092011496 0.65700001 4281875769
0.137527 -0.092566401 0.66100001 4282204734
0.140572 -0.093401402 0.667 4282796871
0.143436 -0.094096199 0.67199999 4284112732
0.146111 -0.094650902 0.676 4283980894
0.148807 -0.095205598 0.68000001 4283980639
0.15130199 -0.095620103 0.68300003 4283915101
0.153814 -0.096034698 0.68599999 4284243550
0.156341 -0.096449196 0.68900001 4284374620
0.159115 -0.097003601 0.69300002 4283189570
0.162374 -0.097837903 0.699 4282531893
0.165665 -0.098672204 0.70499998 4282465838
0.168988 -0.099506304 0.71100003 4282597166
0.171142 -0.099640697 0.71200001 4282465580
0.175488 -0.101035 0.722 4282465580
0.18185399 -0.103548 0.74000001 4282597166
0.19104899 -0.1076 0.76899999 4282597166
0.195629 -0.108993 0.77899998 4282531113
0.198232 -0.109267 0.78100002 4284307777
0.200332 -0.109261 0.78100002 4286873703
0.202951 -0.109535 0.78299999 4285887062
0.205318 -0.109669 0.78399998 4286808164
0.207691 -0.109803 0.78500003 4286938980
0.209802 -0.109797 0.78500003 4286478431
0.212182 -0.109931 0.78600001 4286017878
0.214568 -0.110065 0.787 4285886292
0.216408 -0.10992 0.78600001 4284439099
0.217687 -0.109494 0.78299999 4284439100
0.21923 -0.109209 0.78100002 4283451961
0.22133 -0.109204 0.78100002 4282860331
0.22371501 -0.109338 0.78200001 4282926375
0.226106 -0.109473 0.78299999 4282531617
0.22821 -0.109468 0.78299999 4283123754
0.230315 -0.109463 0.78299999 4282728996
0.23331 -0.109877 0.78600001 4282268454
0.235422 -0.109872 0.78600001 4282334500
0.237535 -0.109867 0.78600001 4283650361
0.239342 -0.109723 0.78500003 4284440130
0.24145199 -0.109718 0.78500003 4284834381
0.243872 -0.109853 0.78600001 4285426509
0.246298 -0.109988 0.787 4286412890
0.248098 -0.109844 0.78600001 4286806637
0.25052899 -0.10998 0.787 4287070568
0.25264499 -0.109976 0.787 4287465064
0.25476 -0.109971 0.787 4286872927
0.25687599 -0.109968 0.787 4286939234
0.258663 -0.109824 0.78600001 4287333992
0.26077601 -0.10982 0.78600001 4286807647
0.26322499 -0.109957 0.787 4287004512
0.26534101 -0.109953 0.787 4287070305
0.26745799 -0.10995 0.787 4287267171
0.269575 -0.109947 0.787 4287201891
0.27134699 -0.109804 0.78600001 4287267685
0.273462 -0.109801 0.78600001 4287136099
0.27592701 -0.109939 0.787 4287136098
0.278045 -0.109936 0.787 4287268190
0.28087601 -0.110213 0.78899997 4286873430
0.28299999 -0.110211 0.78899997 4287266909
0.28548601 -0.110349 0.79000002 4287398754
0.28688499 -0.110067 0.78799999 4286873180
0.28900799 -0.110066 0.78799999 4286873180
0.2915 -0.110204 0.78899997 4286675801
0.29437 -0.110482 0.79100001 4287202144
0.297252 -0.11076 0.79299998 4287399009
0.29901201 -0.11062 0.792 4287464288
0.30152801 -0.110759 0.79299998 4287333214
0.30405 -0.110898 0.79400003 4287267676
0.30619201 -0.110898 0.79400003 4287530593
0.30833501 -0.110897 0.79400003 4287267421
0.310478 -0.110898 0.79400003 4287398757
0.31301501 -0.111038 0.79500002 4287530079
0.31516299 -0.111038 0.79500002 4287136090
0.31691101 -0.110899 0.79400003 4287991144
0.31945899 -0.11104 0.79500002 4286807386
0.32201299 -0.111181 0.796 4287401068
0.324166 -0.111182 0.796 4287993207
0.32631901 -0.111184 0.796 4288519814
0.328473 -0.111186 0.796 4288322949
0.331875 -0.111607 0.79900002 4288256897
0.33445701 -0.11175 0.80000001 4288585348
0.33704501 -0.111892 0.801 4287993209
0.33879301 -0.111756 0.80000001 4287861623
0.34053701 -0.111619 0.79900002 4288322174
0.342704 -0.111623 0.79900002 4288651137
0.345305 -0.111766 0.80000001 4287861625
0.34878001 -0.11219 0.80299997 4287927416
0.35096201 -0.112194 0.80299997 4288059002
0.352705 -0.112059 0.80199999 4289177485
0.354444 -0.111924 0.801 4288387967
0.35662401 -0.11193 0.801 4288453758
0.360149 -0.112355 0.80400002 4288322172
0.36278999 -0.1125 0.80500001 4288322174
0.365437 -0.112646 0.80599999 4288387967
0.368092 -0.112793 0.80699998 4288848261
0.37167099 -0.113219 0.81 4288584575
0.37342101 -0.113087 0.80900002 4287991408
0.37563199 -0.113094 0.80900002 4286675031
0.377377 -0.112963 0.80800003 4286741070
0.38005701 -0.113111 0.80900002 4287596127
0.382745 -0.113259 0.81 4287530334
0.38591501 -0.113548 0.81199998 4287069528
0.38766399 -0.113418 0.81099999 4287464033
0.38940799 -0.113288 0.81 4287464549
0.391633 -0.113298 0.81 4287859307
0.39434499 -0.113448 0.81099999 4287596135
0.396575 -0.113459 0.81099999 4288122479
0.398808 -0.113471 0.81099999 4287925351
0.40104201 -0.113482 0.81099999 4286083402
0.404273 -0.113775 0.81300002 4288254823
0.40651599 -0.113787 0.81300002 4288254569
0.40876201 -0.1138 0.81300002 4288122983
0.41100901 -0.113814 0.81300002 4285885507
0.41275099 -0.113688 0.81199998 4287596386
0.41551101 -0.113842 0.81300002 4288451950
0.41776499 -0.113857 0.81300002 4288122985
0.42105401 -0.114152 0.815 4287728742
0.424357 -0.114448 0.81699997 4286873693
0.42871699 -0.115024 0.82099998 4287137380
0.42942801 -0.114621 0.81800002 4286414175
0.43065199 -0.114358 0.81599998 4281939749
0.43239799 -0.114235 0.815 4287664246
0.43627399 -0.114674 0.81800002 4288387965
0.43802401 -0.114552 0.81699997 4288124528
0.44084999 -0.114711 0.81800002 4288649581
0.443142 -0.114731 0.81800002 4288189282
0.445438 -0.114751 0.81800002 4287991651
0.44718799 -0.114631 0.81699997 4288320616
0.44948599 -0.114653 0.81699997 4288451697
0.45178699 -0.114674 0.81699997 4288451705
0.45464599 -0.114837 0.81800002 4288254833
0.45751399 -0.115 0.81900001 4288189301
0.45926899 -0.114883 0.81800002 4287399784
0.46101999 -0.114766 0.81699997 4287992175
0.46333599 -0.114791 0.81699997 4287926128
0.46508601 -0.114675 0.81599998 4288255093
0.46797901 -0.114841 0.81699997 4288057715
0.470305 -0.114867 0.81699997 4288255094
0.47379199 -0.115175 0.81900001 4288189300
0.47613001 -0.115203 0.81900001 4288386679
0.477889 -0.11509 0.81800002 4288518265
0.480232 -0.115119 0.81800002 4288584312
0.48375899 -0.11543 0.81999999 4288584312
0.486709 -0.1156 0.82099998 4287662956
0.487881 -0.115349 0.81900001 4286939233
0.490841 -0.115522 0.81999999 4287597678
0.494412 -0.115835 0.82200003 4287992436
0.49679101 -0.115868 0.82200003 4288320887
0.49917299 -0.115901 0.82200003 4288255608
-0.199402 -0.079021901 0.55500001 4290168021
-0.197194 -0.0787386 0.55299997 4290233814
-0.19570599 -0.078740202 0.55299997 4290299862
-0.193866 -0.078599498 0.55199999 4290036688
-0.19238099 -0.078601301 0.55199999 4290168274
-0.191587 -0.078887999 0.55400002 4290168274
-0.189753 -0.078747697 0.55299997 4290299860
-0.187925 -0.078607403 0.55199999 4290299346
-0.18677799 -0.0787521 0.55299997 4290299346
-0.185626 -0.078896798 0.55400002 4290036690
-0.184801 -0.0791841 0.55599999 4290036688
-0.18264601 -0.078901798 0.55400002 4290168274
-0.181483 -0.079046898 0.55500001 4290102483
-0.179667 -0.078907199 0.55400002 4290168021
-0.178499 -0.0790525 0.55500001 4290168021
-0.177007 -0.079055399 0.55500001 4290102228
-0.17488199 -0.078773499 0.55299997 4289970642
-0.17370901 -0.078919001 0.55400002 4290036435
-0.17222001 -0.078922197 0.55400002 4289773518
-0.17134801 -0.079210304 0.55599999 4289839311
-0.169548 -0.079071201 0.55500001 4289773263
-0.16684499 -0.0785046 0.551 4289510350
-0.163863 -0.077795602 0.546 4288985296
-0.161801 -0.077514097 0.54400003 4289381600
-0.160338 -0.077517599 0.54400003 4289250786
-0.15945999 -0.077806197 0.546 4288923626
-0.157993 -0.077809803 0.546 4288528868
-0.155665 -0.077385999 0.54299998 4287936217
-0.15392201 -0.077247202 0.542 4286488257
-0.152183 -0.077108398 0.54100001 4286158778
-0.15128601 -0.077397302 0.54299998 4286553534
-0.150379 -0.077686302 0.54500002 4286224055
-0.148913 -0.077690199 0.54500002 4286091702
-0.147448 -0.0776942 0.54500002 4285433261
-0.14625099 -0.077840798 0.546 4285828011
-0.144518 -0.077702299 0.54500002 4285827750
-0.142527 -0.077421203 0.54299998 4285235348
-0.14054701 -0.077140197 0.54100001 4284379264
-0.139864 -0.0775721 0.54400003 4283721334
-0.13891 -0.077861503 0.546 4283261289
-0.13744099 -0.077865697 0.546 4285300366
-0.13597199 -0.0778699 0.546 4284905354
-0.13474999 -0.078016803 0.54699999 4284313217
-0.134009 -0.078449003 0.55000001 4282404447
-0.133011 -0.078738697 0.55199999 4282733153
-0.13152599 -0.078743003 0.55199999 4281876036
-0.129805 -0.078604802 0.551 4282073411
-0.12832201 -0.078609198 0.551 4283257432
-0.126839 -0.078613602 0.551 4282928467
-0.125811 -0.078903399 0.55299997 4283060310
-0.124322 -0.078907803 0.55299997 4282731345
-0.123055 -0.079054996 0.55400002 4282731088
-0.121564 -0.0790594 0.55400002 4282533709
-0.120505 -0.079349302 0.55599999 4282468170
-0.119222 -0.079496503 0.55699998 4282994514
-0.116847 -0.079933703 0.56 4284639339
-0.11575 -0.080223702 0.56199998 4284639085
-0.114439 -0.080370903 0.56300002 4284639085
-0.112922 -0.080375403 0.56300002 4284770672
-0.111206 -0.080237098 0.56199998 4284770672
-0.109886 -0.080384403 0.56300002 4284573039
-0.108754 -0.080674402 0.565 4284507247
-0.10761 -0.080964498 0.56699997 4284573039
-0.106268 -0.081111699 0.56800002 4284638318
-0.103567 -0.081406198 0.56999999 4284638571
-0.099474497 -0.081847899 0.57300001 4284507753
-0.098099001 -0.081995003 0.574 4284902511
-0.096717902 -0.082142197 0.57499999 4284376167
-0.095331296 -0.082289398 0.57599998 4284507753
-0.093938999 -0.082436502 0.57700002 4284573546
-0.092701197 -0.082726501 0.579 4284507753
-0.091137603 -0.082730703 0.579 4284507753
-0.089573801 -0.082734898 0.579 4284376167
-0.088161796 -0.082881898 0.57999998 4284638569
-0.086744197 -0.083028898 0.58099997 4284572776
-0.085174397 -0.083033003 0.58099997 4284310120
-0.083748303 -0.083179899 0.58200002 4284638569
-0.082175396 -0.0831839 0.58200002 4284704364
-0.080740802 -0.083330698 0.583 4284770157
-0.079164803 -0.083334602 0.583 4284704364
-0.077588603 -0.083338402 0.583 4284967022
-0.076142602 -0.083485201 0.58399999 4284375399
-0.074690998 -0.083631799 0.58499998 4284704364
-0.073483802 -0.084064402 0.588 4285098092
-0.072137803 -0.084353998 0.58999997 4284834152
-0.070661299 -0.084500499 0.59100002 4282794298
-0.069179103 -0.084647 0.59200001 4282728752
-0.0674631 -0.084507503 0.59100002 4282924587
-0.065863803 -0.0845109 0.59100002 4282990380
-0.064373001 -0.084657297 0.59200001 4282793001
-0.062770598 -0.0846605 0.59200001 4282924326
-0.061374702 -0.084949799 0.59399998 4283121191
-0.059766501 -0.084952898 0.59399998 4283252777
-0.058256101 -0.085098997 0.59500003 4282923812
-0.056644902 -0.085101999 0.59500003 4282924328
-0.055126 -0.085248001 0.59600002 4282858535
-0.053511798 -0.085250899 0.59600002 4282726694
-0.051897399 -0.085253701 0.59600002 4282661417
-0.050451599 -0.0855425 0.59799999 4282727210
-0.048831601 -0.0855451 0.59799999 4282529315
-0.046974499 -0.085118502 0.59500003 4282331936
-0.045209698 -0.084834903 0.59299999 4282002973
-0.043602802 -0.084837303 0.59299999 4282002456
-0.042279001 -0.085411899 0.597 4282133538
-0.040797099 -0.085700303 0.59899998 4283317559
-0.039304301 -0.085988604 0.60100001 4283449146
-0.037675198 -0.085990697 0.60100001 4283514686
-0.036105901 -0.086135797 0.602 4284698708
-0.034187499 -0.0854223 0.597 4285291621
-0.0323506 -0.084851801 0.59299999 4285029479
-0.030639 -0.084567398 0.59100002 4285292135
-0.0289874 -0.084425896 0.58999997 4284632660
-0.0274338 -0.084570602 0.59100002 4283053883
-0.0259185 -0.084858201 0.59299999 4282855976
-0.024392299 -0.085145801 0.59500003 4282920999
-0.022931701 -0.0857196 0.59899998 4282855460
-0.0214849 -0.086436301 0.60399997 4283052839
-0.020207999 -0.088011697 0.61500001 4283053351
-0.0191126 -0.090731896 0.634 4282987558
-0.018298101 -0.095455602 0.667 4283052839
-0.016414599 -0.095027201 0.66399997 4282855972
-0.0141512 -0.092022702 0.64300001 4282396964
-0.0122524 -0.090878502 0.63499999 4280752139
-0.0104966 -0.090592898 0.63300002 4280817678
-0.0087793004 -0.090593398 0.63300002 4281212437
-0.00707313 -0.090737 0.634 4281540889
-0.00536151 -0.090880498 0.63499999 4281868826
-0.0036444501 -0.0910239 0.63599998 4282197793
-0.00193101 -0.091596499 0.63999999 4282263586
-0.000197065 -0.092741497 0.648 4282329377
0.00162847 -0.096748799 0.676 4282131998
0.0036725099 -0.102617 0.71700001 4282263586
0.0058136499 -0.106194 0.74199998 4282263586
0.0079005603 -0.107196 0.74900001 4282329377
0.0099458601 -0.107338 0.75 4282659111
0.0119966 -0.107481 0.75099999 4283317553
0.0140153 -0.107337 0.75 4282857513
0.016071299 -0.107479 0.75099999 4282595110
0.018108601 -0.107478 0.75099999 4282266912
0.0201727 -0.10762 0.75199997 4282135326
0.0222125 -0.107619 0.75199997 4282069531
0.024284599 -0.107761 0.75300002 4281872152
0.026362 -0.107903 0.75400001 4282266912
0.0284825 -0.108187 0.75599998 4282135840
0.030573299 -0.108329 0.75700003 4282069533
0.032626301 -0.108327 0.75700003 4282135324
0.034633402 -0.108182 0.75599998 4282596130
0.036635 -0.108037 0.755 4282398749
0.0386311 -0.107892 0.75400001 4282332703
0.040675499 -0.10789 0.75400001 4282398498
0.043116499 -0.108889 0.76099998 4282726949
0.046248298 -0.111462 0.77899998 4282792742
0.050160401 -0.115609 0.80800003 4282990121
0.0533874 -0.117895 0.824 4283055914
0.0563634 -0.119466 0.83499998 4282989866
0.059749901 -0.121752 0.85100001 4282924073
0.063368902 -0.124324 0.86900002 4283187500
0.093727402 -0.160071 1.119 4282792487
0.097796403 -0.16178299 1.131 4283121707
0.101038 -0.162064 1.133 4283450156
0.058605898 -0.083809502 0.58600003 4284175938
0.059576102 -0.082948297 0.57999998 4286085230
0.0610408 -0.082802102 0.579 4285626485
0.0625 -0.082655899 0.57800001 4285100400
0.063953497 -0.082509696 0.57700002 4285231732
0.065401398 -0.082363397 0.57599998 4285165682
0.066727497 -0.082074098 0.574 4285231476
0.0682806 -0.082070701 0.574 4284707462
0.069833398 -0.082067199 0.574 4286090406
0.071510397 -0.082206599 0.57499999 4286423492
0.072938502 -0.082060099 0.574 4286160320
0.074620597 -0.082199402 0.57499999 4286292167
0.076042898 -0.0820527 0.574 4286423755
0.07773 -0.082191899 0.57499999 4286227147
0.079146497 -0.082045197 0.574 4286095562
0.081119902 -0.082470097 0.57700002 4286029769
0.082822599 -0.082609102 0.57800001 4286095562
0.084530503 -0.0827481 0.579 4286161355
0.085946299 -0.0826011 0.57800001 4286424527
0.087659203 -0.082739897 0.579 4286227147
0.088914998 -0.082450002 0.57700002 4286293455
0.0906303 -0.082588799 0.57800001 4286096076
0.092191197 -0.082584597 0.57800001 4285898699
0.094076298 -0.082866102 0.57999998 4286161871
0.095147602 -0.082433201 0.57700002 4285832904
0.096705198 -0.082428902 0.57700002 4286095048
0.098092303 -0.082281701 0.57599998 4286226376
0.099992797 -0.082562998 0.57800001 4286160067
0.101904 -0.082844302 0.57999998 4285960115
0.103647 -0.082982697 0.58099997 4284313481
0.105758 -0.083406702 0.58399999 4284180861
0.108436 -0.084259003 0.58999997 4279706159
0.112079 -0.085825197 0.60100001 4279245608
0.116726 -0.088105299 0.61699998 4280035116
0.12146 -0.090384997 0.63300002 4280035116
0.125112 -0.091807798 0.64300001 4281548092
0.128029 -0.092659302 0.64899999 4282797386
0.130978 -0.093510799 0.65499997 4282534214
0.133149 -0.093791001 0.65700001 4281809976
0.135535 -0.094214 0.66000003 4281941562
0.138146 -0.0947797 0.66399997 4282073148
0.14140999 -0.095773503 0.671 4283323216
0.144071 -0.096339002 0.67500001 4283454548
0.146754 -0.096904397 0.67900002 4283717467
0.14902 -0.097184397 0.68099999 4283980639
0.15174 -0.097749703 0.685 4283849308
0.154257 -0.0981723 0.68800002 4284111964
0.15701699 -0.098737501 0.69199997 4284243034
0.159798 -0.099302597 0.69599998 4282861120
0.163065 -0.100153 0.70200002 4282466091
0.16612899 -0.100861 0.70700002 4282663472
0.16922 -0.101568 0.71200001 4282465580
0.171617 -0.101848 0.71399999 4282663213
0.17694101 -0.103839 0.72799999 4282465834
0.183568 -0.106543 0.74699998 4282400040
0.192534 -0.110531 0.77499998 4282400040
0.19587401 -0.111238 0.77999997 4282202915
0.19848 -0.111517 0.78200001 4286018394
0.200326 -0.111369 0.78100002 4286281818
0.20294499 -0.111648 0.78299999 4285952339
0.205051 -0.111642 0.78299999 4286280790
0.20768499 -0.111921 0.78500003 4286741341
0.209529 -0.111773 0.78399998 4286741087
0.211906 -0.111909 0.78500003 4285886032
0.213744 -0.111761 0.78399998 4287070558
0.21585201 -0.111755 0.78399998 4286544467
0.217125 -0.111322 0.78100002 4286544476
0.219225 -0.111317 0.78100002 4286544992
0.221608 -0.111454 0.78200001 4287071334
0.223996 -0.111591 0.78299999 4287005541
0.225812 -0.111443 0.78200001 4286939748
0.227622 -0.111295 0.78100002 4287399785
0.22972099 -0.11129 0.78100002 4287268198
0.23241401 -0.11157 0.78299999 4286939748
0.234519 -0.111565 0.78299999 4286676576
0.236623 -0.11156 0.78299999 4287071850
0.238728 -0.111556 0.78299999 4286742883
0.240832 -0.111551 0.78299999 4286281567
0.242937 -0.111546 0.78299999 4286018141
0.245042 -0.111542 0.78299999 4285031246
0.247146 -0.111537 0.78299999 4284635215
0.24957 -0.111676 0.78399998 4284109124
0.25167701 -0.111671 0.78399998 4282859047
0.254109 -0.11181 0.78500003 4282530851
0.256872 -0.112091 0.787 4282727977
0.25865901 -0.111945 0.78600001 4282991147
0.26044101 -0.111799 0.78500003 4282860067
0.262887 -0.111937 0.78600001 4283649583
0.265338 -0.112076 0.787 4286478682
0.26745501 -0.112073 0.787 4287004513
0.26957199 -0.11207 0.787 4287268199
0.271689 -0.112067 0.787 4287268199
0.27415499 -0.112207 0.78799999 4287597164
0.27627501 -0.112204 0.78799999 4286808162
0.27839601 -0.112202 0.78799999 4287203175
0.28087401 -0.112342 0.78899997 4287071840
0.282639 -0.112197 0.78799999 4287268966
0.28476101 -0.112195 0.78799999 4287400299
0.286883 -0.112194 0.78799999 4287334506
0.28863901 -0.11205 0.787 4287400299
0.29112899 -0.112191 0.78799999 4287005543
0.293253 -0.112189 0.78799999 4286676576
0.29612601 -0.112473 0.79000002 4286544990
0.29825601 -0.112472 0.79000002 4287070820
0.300767 -0.112614 0.79100001 4286676062
0.302901 -0.112614 0.79100001 4286610268
0.304649 -0.112471 0.79000002 4286872926
0.30678099 -0.112471 0.79000002 4286676054
0.30891401 -0.112471 0.79000002 4286610008
0.311441 -0.112614 0.79100001 4286873180
0.31318101 -0.112472 0.79000002 4287399523
0.314917 -0.112331 0.78899997 4286741593
0.317451 -0.112474 0.79000002 4287202405
0.31999201 -0.112618 0.79100001 4286742369
0.32253799 -0.112762 0.792 4287993209
0.32427099 -0.112621 0.79100001 4287993211
0.32641199 -0.112623 0.79100001 4288651655
0.32980001 -0.113053 0.79400003 4288519553
0.33195099 -0.113056 0.79400003 4288585346
0.33410299 -0.113059 0.79400003 4287861621
0.33625501 -0.113062 0.79400003 4288585344
0.33798301 -0.112923 0.79299998 4288059255
0.34056401 -0.113069 0.79400003 4288519551
0.343151 -0.113215 0.79500002 4288190329
0.34617901 -0.113504 0.79699999 4287795571
0.34878099 -0.113651 0.79799998 4287992950
0.35095099 -0.113656 0.79799998 4288256122
0.35267901 -0.113519 0.79699999 4288585344
0.35484901 -0.113525 0.79699999 4288453758
0.357467 -0.113673 0.79799998 4288585346
0.360542 -0.113964 0.80000001 4288914311
0.36363 -0.114255 0.80199999 4288585348
0.36673 -0.114547 0.80400002 4288322176
0.36984301 -0.114839 0.80599999 4288387457
0.372044 -0.114847 0.80599999 4288912519
0.37378201 -0.114712 0.80500001 4287530097
0.37505001 -0.114435 0.80299997 4287333721
0.37724701 -0.114444 0.80299997 4287070288
0.37991899 -0.114595 0.80400002 4287069528
0.383073 -0.11489 0.80599999 4286608724
0.38528299 -0.114899 0.80599999 4287267171
0.38797599 -0.115052 0.80699998 4287398756
