# .PCD v0.7 - Point Cloud Data file format
VERSION 0.7
FIELDS x y z rgb
SIZE 4 4 4 4
TYPE F F F U
COUNT 1 1 1 1
WIDTH 1074
HEIGHT 1
VIEWPOINT 0 0 0 1 0 0 0
POINTS 1074
DATA ascii
-0.0511855 0.074281998 0.648 4289637017
-0.048742302 0.073252603 0.639 4289636504
-0.0456856 0.071191303 0.62099999 4290031008
-0.043009799 0.069588304 0.60699999 4289768606
-0.0407506 0.068558499 0.59799999 4289571231
-0.038867101 0.068101697 0.59399998 4289636770
-0.034747299 0.063517399 0.55400002 4289176473
-0.0321046 0.0613405 0.53500003 4289636266
0.090343699 0.0597433 0.52200001 4285559681
0.094916403 0.061799899 0.54000002 4285559681
0.103512 0.0663739 0.57999998 4285626248
0.111599 0.0704896 0.616 4285363336
0.115652 0.071973003 0.62900001 4285494662
0.117908 0.072311997 0.63200003 4285494662
0.119991 0.072536603 0.634 4285691526
0.122085 0.072761104 0.63599998 4285494142
0.124384 0.073100001 0.639 4285361788
0.126304 0.073210001 0.63999999 4282730060
0.12822901 0.073320001 0.64099997 4283518538
0.13015901 0.073430002 0.64200002 4283386435
0.1323 0.073654301 0.64399999 4283386688
0.134036 0.073649898 0.64399999 4283452476
0.13556001 0.073531099 0.64300001 4283649855
0.13750499 0.073641002 0.64399999 4283518271
0.139456 0.073750801 0.64499998 4283715648
0.140974 0.073632002 0.64399999 4283649855
0.142709 0.073627502 0.64399999 4283518268
0.14444201 0.073623098 0.64399999 4283189816
0.147084 0.0740759 0.648 4283584572
0.148828 0.0740714 0.648 4283584315
0.150572 0.074066803 0.648 4283650107
0.152081 0.0739481 0.64700001 4283649594
0.15406001 0.074057899 0.648 4283780926
0.156285 0.074281998 0.64999998 4283451961
0.15779001 0.074163198 0.64899999 4283583547
0.159536 0.074158803 0.64899999 4283846719
0.160785 0.073925801 0.64700001 4283912766
0.163278 0.074264199 0.64999998 4284044351
0.16502599 0.074259803 0.64999998 4283781179
0.166774 0.074255399 0.64999998 4284044352
0.168781 0.074365303 0.65100002 4284241730
0.170531 0.074360996 0.65100002 4284044351
0.172282 0.074356697 0.65100002 4284110144
0.174299 0.074466601 0.65200001 4284175937
0.175781 0.074348196 0.65100002 4283846972
0.17780399 0.074458197 0.65200001 4284110145
0.179005 0.074225597 0.64999998 4283781179
0.180474 0.074107297 0.64899999 4283846972
0.18249901 0.074217401 0.64999998 4284110398
0.184246 0.0742134 0.64999998 4284110397
0.186278 0.074323602 0.65100002 4284176190
0.18802799 0.074319601 0.65100002 4284176190
0.189777 0.074315697 0.65100002 4283979326
0.19182 0.074426003 0.65200001 4284110658
0.19386899 0.074536398 0.653 4283979326
0.195923 0.074646801 0.65399998 4284571463
0.19768 0.074643098 0.65399998 4284965706
0.198827 0.074411198 0.65200001 4284702534
0.200579 0.074407697 0.65200001 4284373569
0.20202 0.074290097 0.65100002 4284439362
0.203456 0.074172601 0.64999998 4284374083
0.205203 0.074169204 0.64999998 4284373569
0.206312 0.073937804 0.648 4284176958
0.20805299 0.0739346 0.648 4284176958
0.209795 0.0739315 0.648 4284703300
0.212189 0.074156597 0.64999998 4284571714
0.214265 0.074267797 0.65100002 4284374335
0.216014 0.074264899 0.65100002 4284242235
0.21776401 0.074262097 0.65100002 4284505409
0.21917699 0.074145399 0.64999998 4284439363
0.221264 0.074256897 0.65100002 4284505155
0.223014 0.074254401 0.65100002 4284768581
0.224419 0.074137896 0.64999998 4284571202
0.226515 0.0742497 0.65100002 4284965958
0.228616 0.074361503 0.65200001 4284834888
0.23037 0.074359402 0.65200001 4284768581
0.232123 0.074357398 0.65200001 4285031751
0.233519 0.074241497 0.65100002 4284834374
0.23527101 0.074239701 0.65100002 4285228878
0.236294 0.07401 0.64899999 4285096786
0.238041 0.074008502 0.64899999 4285163093
0.24015801 0.074121103 0.64999998 4284769095
0.24228001 0.0742338 0.65100002 4285163853
0.243659 0.074118599 0.64999998 4284637507
0.245409 0.074117601 0.64999998 4284834886
0.247161 0.074116699 0.64999998 4285163093
0.249295 0.074229904 0.65100002 4284900432
0.25066501 0.074115299 0.64999998 4285032014
0.252417 0.074114799 0.64999998 4285032526
0.25377899 0.074000403 0.64899999 4284900940
0.25553 0.074000202 0.64899999 4285163851
0.25688499 0.073886096 0.648 4284966472
0.25903299 0.074000202 0.64899999 4285361230
0.26038399 0.073886402 0.648 4285163851
0.261729 0.073772803 0.64700001 4285032265
0.26306999 0.073659301 0.64600003 4285163851
0.265636 0.073887996 0.648 4285032265
0.26780099 0.074002899 0.64899999 4285163592
0.26914099 0.073889904 0.648 4285294923
0.27047601 0.073777102 0.64700001 4285163337
0.27264801 0.073892497 0.648 4285492302
0.27482599 0.074008003 0.64899999 4285360718
0.276584 0.074009798 0.64899999 4285426771
0.27834299 0.074011698 0.64899999 4285295185
0.27967101 0.073899701 0.648 4285492565
0.28142899 0.073902003 0.648 4285689944
0.28275099 0.073790401 0.64700001 4285294671
0.28450799 0.073793001 0.64700001 4285294671
0.28626499 0.073795803 0.64700001 4285624143
0.28846899 0.073912904 0.648 4285229646
0.29023099 0.073916197 0.648 4285492565
0.29154399 0.073805504 0.64700001 4285492564
0.29285201 0.073695101 0.64600003 4285032013
0.29506701 0.073812999 0.64700001 4285031753
0.29774901 0.0740453 0.64899999 4285623888
0.29998001 0.074163698 0.64999998 4285491788
0.30129001 0.0740541 0.64899999 4285492304
0.30212799 0.073830597 0.64700001 4285821269
0.30389601 0.073835596 0.64700001 4285887060
0.30519199 0.073726602 0.64600003 4285690195
0.30791 0.073960297 0.648 4285624143
0.30968499 0.0739659 0.648 4286018131
0.31145999 0.073971801 0.648 4285623888
0.31323701 0.073977999 0.648 4285623888
0.314529 0.073870197 0.64700001 4285690195
0.31679499 0.073991001 0.648 4285953367
0.31906801 0.074112102 0.64899999 4285492818
0.32085299 0.074119203 0.64899999 4285755990
0.32263899 0.074126698 0.64899999 4285821529
0.32442701 0.074134298 0.64899999 4285624408
0.32672 0.074256502 0.64999998 4285689944
0.328008 0.074150503 0.64899999 4285953369
0.32980099 0.074158996 0.64899999 4285493322
0.331085 0.074053504 0.648 4285954126
0.33287799 0.074062496 0.648 4285952863
0.334674 0.074071899 0.648 4286149995
0.33647099 0.074081503 0.648 4286084961
0.33774701 0.073977098 0.64700001 4286610539
0.34007001 0.074101597 0.648 4286479970
0.34187201 0.074112102 0.648 4286085212
0.34420699 0.074237302 0.64899999 4286479968
0.34601599 0.0742485 0.64899999 4286545761
0.34782699 0.074259996 0.64899999 4286414179
0.34964001 0.074271701 0.64899999 4286742889
0.350914 0.074169397 0.648 4286611303
0.353273 0.074296303 0.64899999 4286610539
0.354545 0.074194498 0.648 4287137129
0.35636401 0.074207596 0.648 4286610785
0.35763299 0.0741065 0.64700001 4286742369
0.36000901 0.074234799 0.648 4286084955
0.36295199 0.074478097 0.64999998 4286479713
0.364225 0.074377999 0.64899999 4286414177
0.36549401 0.074278198 0.648 4286808933
0.36675999 0.074178703 0.64700001 4287072105
0.36916301 0.074308902 0.648 4286940519
0.37100101 0.074324898 0.648 4286611556
0.373418 0.074455902 0.64899999 4286742889
0.376421 0.074702099 0.65100002 4286742889
0.37885699 0.074833997 0.65200001 4287400819
0.38071799 0.074851602 0.65200001 4286940523
0.38140699 0.074639902 0.64999998 4287006061
0.38267899 0.074543402 0.64899999 4287203440
0.38453901 0.074562103 0.64899999 4287203956
0.38699901 0.074696101 0.64999998 4286743152
0.388868 0.074715696 0.64999998 4286874483
0.39014 0.074620701 0.64899999 4286151530
0.39140999 0.074525997 0.648 4284046153
0.39388999 0.074661903 0.64899999 4283782981
0.39577001 0.0746831 0.64899999 4286810227
0.39887899 0.074934997 0.65100002 4287270008
0.40138701 0.0750724 0.65200001 4287598461
0.40390399 0.075210303 0.653 4287664001
0.40518799 0.075118303 0.65200001 4287203196
0.40647 0.075026698 0.65100002 4287663747
0.409004 0.075166099 0.65200001 4287533183
0.41028801 0.075075403 0.65100002 4287795585
0.412202 0.075100496 0.65100002 4287466875
0.41348499 0.075010598 0.64999998 4287598206
0.41732201 0.075383 0.653 4287663999
0.41989601 0.075525098 0.65399998 4287795587
0.42183599 0.075552396 0.65399998 4287466622
0.42248401 0.075349003 0.65200001 4287532415
0.42442599 0.075377204 0.65200001 4288124291
0.426373 0.075405903 0.65200001 4288124805
0.42898101 0.075550899 0.653 4287071862
0.42962 0.075349301 0.65100002 4287335036
0.43224001 0.075495496 0.65200001 4287532929
0.433539 0.075410597 0.65100002 4287796101
0.43617401 0.075557999 0.65200001 4287401596
0.43814901 0.075590096 0.65200001 4287598975
0.440804 0.075738803 0.653 4287927426
0.44211301 0.075656101 0.65200001 4287729531
0.444103 0.075690001 0.65200001 4287532152
0.446098 0.075724602 0.65200001 4287005550
0.45016 0.076108404 0.65499997 4286808171
0.45148501 0.076028101 0.65399998 4287005036
0.45350301 0.076064602 0.65399998 4287268209
-0.19912601 0.071978398 0.64600003 4289704359
-0.19739 0.071981899 0.64600003 4289967533
-0.195049 0.071762502 0.64399999 4290296498
-0.193619 0.071877502 0.64499998 4290362291
-0.191291 0.071658298 0.64300001 4290164912
-0.18956301 0.071661897 0.64300001 4289703847
-0.187544 0.071554199 0.64200002 4289374880
-0.18668699 0.071892403 0.64499998 4289900710
-0.185241 0.072007701 0.64600003 4289769124
-0.183505 0.072011597 0.64600003 4289769124
-0.181206 0.071792603 0.64399999 4289637538
-0.179197 0.071685001 0.64300001 4289571745
-0.177193 0.071577497 0.64200002 4289835431
-0.175468 0.071581602 0.64200002 4289769640
-0.174013 0.071697101 0.64300001 4289769638
-0.172552 0.071812801 0.64399999 4290230444
-0.170821 0.071816899 0.64399999 4290230189
-0.16909 0.071821101 0.64399999 4290427823
-0.167099 0.071713798 0.64300001 4290690479
-0.16537 0.071718 0.64300001 4290427307
-0.16389599 0.071833797 0.64399999 4289966242
-0.162416 0.071949601 0.64499998 4290097826
-0.16068099 0.0719539 0.64499998 4290229412
-0.159192 0.072069801 0.64600003 4290032549
-0.157455 0.072074197 0.64600003 4289900195
-0.155476 0.071966901 0.64499998 4289636771
-0.15374 0.071971297 0.64499998 4289045138
-0.152005 0.071975701 0.64499998 4288715916
-0.15003601 0.071868502 0.64399999 4288913295
-0.148533 0.0719845 0.64499998 4288386951
-0.146797 0.071988903 0.64499998 4288321157
-0.14551 0.072216503 0.64700001 4287992193
-0.143546 0.072109297 0.64600003 4288189572
-0.141368 0.071890503 0.64399999 4288255364
-0.139633 0.071894899 0.64399999 4287926399
-0.138327 0.072122499 0.64600003 4288123264
-0.13679799 0.072238602 0.64700001 4288189057
-0.13505501 0.072242998 0.64700001 4288254850
-0.133312 0.072247401 0.64700001 4287860093
-0.131365 0.072140098 0.64600003 4288189058
-0.12962399 0.072144397 0.64600003 4288715401
-0.127685 0.072037101 0.64499998 4288649608
-0.12575001 0.071929701 0.64399999 4288583815
-0.123821 0.071822301 0.64300001 4288846726
-0.122277 0.071938299 0.64399999 4288977798
-0.120728 0.072054297 0.64499998 4288977798
-0.119172 0.072170198 0.64600003 4288780417
-0.11743 0.072174497 0.64600003 4288977798
-0.115866 0.072290398 0.64700001 4288715141
-0.114296 0.072406299 0.648 4288912266
-0.112547 0.072410502 0.648 4289110159
-0.110627 0.072302803 0.64700001 4289241999
-0.108712 0.072195202 0.64600003 4289504657
-0.107133 0.072310999 0.64700001 4289241484
-0.105386 0.072315 0.64700001 4289504656
-0.103478 0.072207198 0.64600003 4289175692
-0.101733 0.072211102 0.64600003 4289109645
-0.100143 0.072326802 0.64700001 4289241745
-0.0982427 0.072218902 0.64600003 4289175952
-0.096646301 0.072334498 0.64700001 4289175952
-0.094751 0.072226502 0.64600003 4289439124
-0.0930048 0.072230197 0.64600003 4289505171
-0.091258302 0.0722339 0.64600003 4289307792
-0.089788698 0.072461203 0.648 4289438864
-0.088036403 0.072464801 0.648 4289570449
-0.086150698 0.0723565 0.64700001 4289636243
-0.084139697 0.072136298 0.64499998 4289898645
-0.082394801 0.072139703 0.64499998 4289833621
-0.080649696 0.0721431 0.64499998 4289833621
-0.079149 0.072370097 0.64700001 4289965207
-0.077756897 0.072709002 0.64999998 4290031001
-0.075880602 0.072600402 0.64899999 4289965207
-0.073895402 0.072379798 0.64700001 4289834136
-0.0719207 0.072159097 0.64499998 4289899929
-0.070065498 0.072050303 0.64399999 4289702550
-0.068321504 0.072053298 0.64399999 4289768342
-0.066577397 0.072056197 0.64399999 4289702550
-0.064933799 0.072170898 0.64499998 4289373331
-0.063088603 0.072061799 0.64399999 4289965468
-0.0612486 0.071952596 0.64300001 4290030747
-0.059506401 0.071955197 0.64300001 4289833369
-0.0578539 0.072069697 0.64399999 4289964954
-0.0562829 0.072296098 0.64600003 4290096540
-0.054616399 0.072410397 0.64700001 4290031001
-0.053026099 0.072636701 0.64899999 4290031261
-0.0511088 0.072415203 0.64700001 4289702810
-0.0489733 0.071857803 0.64200002 4289833882
-0.0461291 0.070180997 0.62699997 4290162848
-0.043295201 0.068392001 0.611 4289900190
-0.040888701 0.067162603 0.60000002 4290031781
-0.038738001 0.066268899 0.59200001 4289505184
-0.035062499 0.062576503 0.55900002 4288913301
-0.032166101 0.060003299 0.53600001 4289965483
0.090866297 0.058666602 0.52499998 4285362302
0.095974602 0.061009798 0.546 4285230975
0.104409 0.065363899 0.58499998 4285428869
0.111785 0.068935297 0.61699998 4285560455
0.115288 0.070048504 0.62699997 4285560455
0.117726 0.070491202 0.63099998 4285625734
0.119806 0.070710503 0.63300002 4285230975
0.121897 0.070929699 0.63499999 4285033591
0.124193 0.071260497 0.63800001 4285033330
0.126111 0.071368001 0.639 4282401095
0.128033 0.071475297 0.63999999 4283321159
0.129961 0.071582697 0.64099997 4283452229
0.131688 0.071578398 0.64099997 4283189306
0.13320699 0.0714624 0.63999999 4283123513
0.135142 0.071569704 0.64099997 4283057718
0.13708299 0.071676902 0.64200002 4283386683
0.13924401 0.071895801 0.64399999 4283255097
0.14076 0.071779802 0.64300001 4283255096
0.142491 0.071775399 0.64300001 4283649854
0.143998 0.071659401 0.64200002 4283255096
0.146181 0.071878299 0.64399999 4283386936
0.14814401 0.071985498 0.64499998 4283452729
0.149647 0.0718695 0.64399999 4283518522
0.151381 0.071865097 0.64399999 4283649340
0.15311401 0.071860701 0.64399999 4283583547
0.155568 0.072191097 0.64700001 4284043584
0.157065 0.072075099 0.64600003 4283977791
0.159049 0.072182298 0.64700001 4283846205
0.16054 0.072066396 0.64600003 4283846459
0.16278 0.072285198 0.648 4283518007
0.164777 0.072392501 0.64899999 4283846972
0.166265 0.0722766 0.648 4283847226
0.167748 0.072160803 0.64700001 4283649593
0.169488 0.072156601 0.64700001 4283780665
0.171492 0.072263896 0.648 4283846972
0.173768 0.072482802 0.64999998 4284110144
0.175246 0.072367102 0.64899999 4284110144
0.17726301 0.072474502 0.64999998 4284044351
0.178183 0.072135903 0.64700001 4284307777
0.179922 0.072131902 0.64700001 4283847226
0.18166099 0.072127901 0.64700001 4283781432
0.183966 0.072346903 0.64899999 4284176444
0.185424 0.072231501 0.648 4284110397
0.187454 0.072339103 0.64899999 4284110912
0.18861499 0.0721123 0.64700001 4284045119
0.19035301 0.072108597 0.64700001 4284176451
0.192388 0.072216302 0.648 4284176705
0.194429 0.072324097 0.64899999 4284176704
0.196172 0.072320499 0.64899999 4283979065
0.19730601 0.072094098 0.64700001 4284241983
0.199044 0.072090603 0.64700001 4284373569
0.200782 0.072087198 0.64700001 4284439362
0.202208 0.071972497 0.64600003 4284505156
0.203943 0.071969204 0.64600003 4284373569
0.20536 0.071854599 0.64499998 4284898893
0.207093 0.071851499 0.64499998 4284702020
0.20915 0.071959801 0.64600003 4284702786
0.211539 0.072179601 0.648 4284505407
0.213609 0.072288103 0.64899999 4284243257
0.215685 0.072396703 0.64999998 4284308544
0.216763 0.072171196 0.648 4283847486
0.21816801 0.072057098 0.64700001 4284175937
0.219907 0.072054602 0.64700001 4284504386
0.222331 0.072274901 0.64899999 4284373569
0.224076 0.072272502 0.64899999 4284636225
0.225821 0.0722702 0.64899999 4284636995
0.22721601 0.072156698 0.648 4284505155
0.228958 0.072154596 0.648 4284636741
0.230345 0.072041303 0.64700001 4284702788
0.232445 0.072150797 0.648 4284702535
0.23418801 0.072149001 0.648 4284570949
0.235568 0.072035998 0.64700001 4284965707
0.23730899 0.072034501 0.64700001 4285032014
0.23942 0.072144397 0.648 4284637255
0.241165 0.0721431 0.648 4284769095
0.24291 0.072141901 0.648 4284704061
0.244655 0.072140902 0.648 4285229644
0.24678101 0.072251298 0.64899999 4285031507
0.24853 0.0722505 0.64899999 4284769099
0.24989399 0.072138503 0.648 4284703308
0.25164101 0.072137997 0.648 4284900427
0.25299701 0.072026297 0.64700001 4285032526
0.25474301 0.072025999 0.64700001 4284966731
0.25609201 0.071914598 0.64600003 4284834888
0.25783601 0.071914598 0.64600003 4284966220
0.25957999 0.0719148 0.64600003 4284900427
0.26132399 0.071915098 0.64600003 4285163600
0.26306999 0.071915597 0.64600003 4285360979
0.26522499 0.072027601 0.64700001 4285098319
0.266974 0.072028399 0.64700001 4285163853
0.268309 0.071918003 0.64600003 4285492818
0.26963899 0.071807802 0.64499998 4284769348
0.27180499 0.071920402 0.64600003 4285426519
0.27397799 0.072033197 0.64700001 4285163346
0.27573001 0.072034799 0.64700001 4285229397
0.277484 0.072036602 0.64700001 4285360983
0.278806 0.071927302 0.64600003 4285032018
0.28055799 0.071929403 0.64600003 4285295445
0.28231099 0.071931802 0.64600003 4285295185
0.28362501 0.071823001 0.64499998 4285360978
0.28626201 0.072048403 0.64700001 4285689943
0.288021 0.072051302 0.64700001 4285295186
0.29022801 0.072165802 0.648 4285623897
0.29109001 0.071946397 0.64600003 4285887323
0.292395 0.071838498 0.64499998 4285623890
0.294608 0.071953602 0.64600003 4284965958
0.296368 0.071957499 0.64600003 4285228615
0.29859099 0.072072998 0.64700001 4285820752
0.29989201 0.071966 0.64600003 4285623888
0.30118901 0.071859099 0.64499998 4285887062
0.30295101 0.071863897 0.64499998 4285887576
0.30424201 0.071757503 0.64399999 4285690197
0.30647901 0.071874097 0.64499998 4285755988
0.308723 0.071990997 0.64600003 4286018899
0.310974 0.072108097 0.64700001 4285295176
0.31274799 0.072114103 0.64700001 4285624140
0.314037 0.072008803 0.64600003 4285952592
0.31629899 0.072126701 0.64700001 4286018901
0.318077 0.072133303 0.64700001 4285689681
0.31936201 0.072028697 0.64600003 4286084439
0.32064301 0.071924403 0.64499998 4285952855
0.32242 0.071931802 0.64499998 4286282080
0.32520401 0.072162502 0.64700001 4285953369
0.32648399 0.072058901 0.64600003 4285821783
0.32826799 0.072067097 0.64600003 4285887574
0.33005399 0.072075598 0.64600003 4285690195
0.33235601 0.072195999 0.64700001 4285887576
0.33414799 0.072205 0.64700001 4286018908
0.33542201 0.072102703 0.64600003 4285690203
0.336171 0.071889102 0.64399999 4285690203
0.338485 0.072010599 0.64499998 4285690201
0.34027901 0.072020702 0.64499998 4286019166
0.34260499 0.072142899 0.64600003 4285887322
0.34493899 0.072265297 0.64700001 4285624150
0.34620801 0.072164699 0.64600003 4285887580
0.34801301 0.072176099 0.64600003 4286479717
0.349278 0.072076097 0.64499998 4286479717
0.350539 0.071976297 0.64399999 4287137129
0.35234401 0.071988702 0.64399999 4286676828
0.354702 0.072113097 0.64499998 4286807647
0.35706699 0.072237901 0.64600003 4286742369
0.35888401 0.072251201 0.64600003 4286545506
0.36126301 0.072376803 0.64700001 4286283095
0.36252701 0.072278999 0.64600003 4286151003
0.364351 0.072293296 0.64600003 4286282589
0.365612 0.072196104 0.64499998 4286940519
0.36800799 0.072323099 0.64600003 4286808933
0.36984101 0.072338603 0.64600003 4286611556
0.372251 0.072466403 0.64700001 4286677349
0.374091 0.072482601 0.64700001 4287006316
0.375934 0.072499201 0.64700001 4287005803
0.378364 0.0726282 0.648 4286808937
0.37962899 0.072533503 0.64700001 4286940268
0.38148099 0.072551198 0.64700001 4286874730
0.38215101 0.072345003 0.64499998 4287006063
0.38519299 0.0725879 0.64700001 4286874738
0.38765299 0.072719097 0.648 4286348139
0.39012 0.072850697 0.64899999 4285756002
0.389577 0.072421402 0.64499998 4285033048
0.391442 0.0724416 0.64499998 4283190842
0.39269999 0.072349802 0.64399999 4286875250
0.395794 0.072595499 0.64600003 4287730559
0.39951801 0.0729542 0.64899999 4287664254
0.40264499 0.073201098 0.65100002 4287795585
0.40392199 0.073111199 0.64999998 4287467136
0.40519801 0.073021598 0.64899999 4287335552
0.40772599 0.073157497 0.64999998 4287467136
0.40963301 0.073181398 0.64999998 4287598976
0.41091099 0.073093198 0.64899999 4287796355
0.41218701 0.073005296 0.648 4287401597
0.41473901 0.073143303 0.64899999 4287927687
0.41794401 0.073394597 0.65100002 4287993734
0.41987401 0.073421001 0.65100002 4287729794
0.42116001 0.073335104 0.64999998 4287335034
0.423096 0.073362403 0.64999998 4287334775
0.42503601 0.073390298 0.64999998 4288059012
0.42763799 0.073531702 0.65100002 4287729792
0.42893001 0.073447697 0.64999998 4287335036
0.43154699 0.073590301 0.65100002 4287663999
0.43350801 0.073620401 0.65100002 4287663999
0.43614301 0.073764198 0.65200001 4287729792
0.43744501 0.073682301 0.65100002 4287532413
0.439421 0.0737141 0.65100002 4287927426
0.44140199 0.073746502 0.65100002 4287730045
0.44338799 0.073779501 0.65100002 4287861117
0.44538 0.073813103 0.65100002 4286808684
0.448751 0.074074201 0.653 4286873965
0.45075899 0.0741091 0.653 4286281827
0.452773 0.074144699 0.653 4287399795
-0.19931 0.069687702 0.64099997 4290296498
-0.197896 0.069799699 0.64200002 4290296498
-0.196171 0.069803096 0.64200002 4290165427
-0.194144 0.069697797 0.64099997 4289836462
-0.192422 0.069701299 0.64099997 4289835692
-0.190402 0.069596097 0.63999999 4289770154
-0.188977 0.069708496 0.64099997 4289703847
-0.187255 0.069712102 0.64099997 4289703845
-0.186112 0.0699334 0.64300001 4289769638
-0.184384 0.069937102 0.64300001 4289901224
-0.182657 0.069940902 0.64300001 4289769640
-0.18036599 0.069727197 0.64099997 4289769640
-0.178644 0.069731101 0.64099997 4289703847
-0.176921 0.069734998 0.64099997 4289769640
-0.175198 0.069738999 0.64099997 4289769640
-0.173476 0.069743 0.64099997 4289835431
-0.171753 0.069747001 0.64099997 4289901479
-0.17003 0.069751099 0.64099997 4289835431
-0.16830701 0.069755197 0.64099997 4289901479
-0.166583 0.069759302 0.64099997 4290098856
-0.16486 0.0697634 0.64099997 4289966756
-0.16313601 0.069767602 0.64099997 4289966756
-0.161916 0.069989502 0.64300001 4290032549
-0.16018701 0.069993697 0.64300001 4290427307
-0.158457 0.069997899 0.64300001 4290493616
-0.156728 0.070002198 0.64300001 4290427568
-0.155239 0.070115298 0.64399999 4290163882
-0.15326799 0.070010699 0.64300001 4290229160
-0.15130199 0.069906101 0.64200002 4289966242
-0.149574 0.0699104 0.64200002 4289768861
-0.147847 0.069914699 0.64200002 4289702811
-0.146346 0.070027903 0.64300001 4289637275
-0.14461499 0.070032202 0.64300001 4289571482
-0.142884 0.070036501 0.64300001 4289637275
-0.14093301 0.069931902 0.64200002 4289505944
-0.139421 0.070045099 0.64300001 4289308565
-0.13768899 0.070049398 0.64300001 4289308052
-0.135957 0.070053697 0.64300001 4288979087
-0.13401601 0.069949098 0.64200002 4289241746
-0.13208 0.069844402 0.64099997 4288846734
-0.13014901 0.069739699 0.63999999 4288386951
-0.12882601 0.069961898 0.64200002 4288123778
-0.12689701 0.069857098 0.64099997 4287992192
-0.12516899 0.0698613 0.64099997 4287926399
-0.123248 0.0697565 0.63999999 4288320383
-0.121902 0.069978699 0.64200002 4288517761
-0.12017 0.069982901 0.64200002 4288780931
-0.118439 0.069986999 0.64200002 4288649345
-0.116525 0.069882102 0.64099997 4288780931
-0.114974 0.069995202 0.64200002 4288517761
-0.113771 0.070326403 0.64499998 4288583555
-0.11203 0.070330396 0.64499998 4288846473
-0.110289 0.070334502 0.64499998 4289109645
-0.108379 0.070229404 0.64399999 4288978313
-0.106806 0.070342399 0.64499998 4288715141
-0.104901 0.070237301 0.64399999 4289109645
-0.103162 0.070241198 0.64399999 4289043852
-0.101422 0.070244998 0.64399999 4289109645
-0.099682398 0.070248798 0.64399999 4289307024
-0.0979423 0.070252597 0.64399999 4288912780
-0.096052602 0.070147298 0.64300001 4288781194
-0.094314702 0.070150897 0.64300001 4288781194
-0.092576496 0.0701546 0.64300001 4288781194
-0.091120698 0.070376404 0.64499998 4289109645
-0.089376599 0.070380002 0.64499998 4289372817
-0.087496497 0.070274301 0.64399999 4289438094
-0.085488401 0.070059501 0.64200002 4289438610
-0.083882198 0.070172101 0.64300001 4289307278
-0.082142703 0.070175402 0.64300001 4289307278
-0.080402903 0.070178702 0.64300001 4289438864
-0.078907602 0.070400298 0.64499998 4289438864
-0.077401198 0.070621803 0.64700001 4289241485
-0.075533003 0.070515797 0.64600003 4289833622
-0.073555797 0.070300497 0.64399999 4289439124
-0.0717007 0.070194401 0.64300001 4289702296
-0.069850802 0.0700882 0.64200002 4289899929
-0.068112299 0.070091099 0.64200002 4289702550
-0.066373497 0.0700939 0.64200002 4289965208
-0.064634502 0.070096701 0.64200002 4289899675
-0.062895298 0.070099398 0.64200002 4289965469
-0.061060701 0.0699929 0.64099997 4290293666
-0.059323899 0.0699955 0.64099997 4290162080
-0.057496998 0.0698888 0.63999999 4289964955
-0.055849701 0.070000403 0.64099997 4290030233
-0.0541967 0.070111997 0.64200002 4289899415
-0.052783299 0.070551202 0.64600003 4289702550
-0.0510321 0.070553496 0.64600003 4289965722
-0.049051799 0.070228003 0.64300001 4289900443
-0.046351898 0.068810202 0.63 4289900190
-0.0434389 0.066955402 0.61299998 4290097569
-0.041095 0.065865003 0.60299999 4289966242
-0.039001498 0.065102197 0.59600002 4289637023
-0.035565902 0.061936099 0.56699997 4289702817
-0.032287501 0.058769699 0.53799999 4289901740
-0.0304843 0.058115698 0.53200001 4290887625
0.091215797 0.057464499 0.52700001 4285230463
0.096505404 0.059859999 0.54900002 4285296256
0.105305 0.064326704 0.58999997 4285626248
0.11197 0.067375503 0.61799997 4285691787
0.11474 0.068025701 0.62400001 4285626248
0.116983 0.068348698 0.62699997 4285362562
0.119432 0.068780601 0.63099998 4285230463
0.121517 0.0689945 0.63300002 4285427834
0.123808 0.069317304 0.63599998 4283058517
0.125523 0.069313198 0.63599998 4283255627
0.127437 0.069417901 0.63700002 4283452745
0.129357 0.069522701 0.63800001 4283320643
0.131282 0.069627397 0.639 4283320895
0.13300399 0.069623202 0.639 4283255356
0.134936 0.069727898 0.63999999 4283320889
0.13665999 0.069723599 0.63999999 4283123510
0.13860001 0.069828197 0.64099997 4282926131
0.14032599 0.069823898 0.64099997 4283320375
0.14227401 0.069928601 0.64200002 4283912512
0.144227 0.0700332 0.64300001 4283386682
0.146185 0.070137799 0.64399999 4283321143
0.147689 0.070024498 0.64300001 4283781179
0.14941899 0.070020199 0.64300001 4283649594
0.150915 0.069907099 0.64200002 4283912252
0.15288 0.070011698 0.64300001 4283846205
0.154851 0.070116296 0.64399999 4283977277
0.156826 0.070220903 0.64499998 4283845691
0.15880699 0.070325397 0.64600003 4283846205
0.16054501 0.070321202 0.64600003 4283649080
0.162533 0.070425801 0.64700001 4283649594
0.16427299 0.070421599 0.64700001 4283913019
0.1655 0.070199698 0.64499998 4283913018
0.167493 0.070304401 0.64600003 4283781432
0.16923 0.070300199 0.64600003 4284044604
0.171496 0.070513703 0.648 4283913018
0.17323799 0.070509598 0.648 4283715386
0.17498 0.0705055 0.648 4284044351
0.17672101 0.070501499 0.648 4284044090
0.178187 0.070388697 0.64700001 4283846711
0.179648 0.070275903 0.64600003 4283912502
0.181384 0.070271999 0.64600003 4283978549
0.183403 0.070376903 0.64700001 4283913270
0.18542799 0.0704818 0.648 4284241983
0.187169 0.070478 0.648 4284242498
0.188618 0.070365503 0.64700001 4284242244
0.190062 0.070253 0.64600003 4284176451
0.192095 0.070358098 0.64700001 4284308291
0.19383299 0.070354603 0.64700001 4284110649
0.19557101 0.070350997 0.64700001 4284505409
0.19669899 0.070130102 0.64499998 4284373569
0.19874001 0.070235401 0.64600003 4283978812
0.200165 0.0701233 0.64499998 4284373316
0.20221099 0.070228703 0.64600003 4284570695
0.20394599 0.0702255 0.64600003 4284373055
0.20568199 0.0702224 0.64600003 4284307514
0.20741799 0.070219301 0.64600003 4284241721
0.209153 0.070216298 0.64600003 4284176697
0.211215 0.070321999 0.64700001 4284505407
0.213283 0.070427798 0.648 4284440130
0.21502399 0.070425101 0.648 4284571463
0.21643101 0.0703137 0.64700001 4284702028
0.217833 0.070202403 0.64600003 4284439110
0.219909 0.070308499 0.64700001 4284438595
0.221991 0.070414796 0.648 4284372800
0.22373299 0.070412397 0.648 4284636227
0.225127 0.070301503 0.64700001 4284570948
0.22686701 0.070299298 0.64700001 4284570948
0.22825401 0.070188597 0.64600003 4284702535
0.229991 0.070186697 0.64600003 4284505155
0.232088 0.070293501 0.64700001 4284308037
0.233467 0.070183098 0.64600003 4284176452
0.23520499 0.070181496 0.64600003 4284768588
0.236577 0.070071302 0.64499998 4284702795
0.238313 0.070069902 0.64499998 4284637256
0.24005 0.070068598 0.64499998 4284374337
0.241786 0.070067398 0.64499998 4284242751
0.243524 0.0700664 0.64499998 4284637255
0.24564099 0.070174098 0.64600003 4284637255
0.247765 0.0702819 0.64700001 4284242757
0.24912301 0.0701726 0.64600003 4284768842
0.25125301 0.070280597 0.64700001 4284900428
0.25260699 0.070171602 0.64600003 4284703561
0.253562 0.069954097 0.64399999 4284703561
0.25450599 0.069736697 0.64200002 4284900427
0.25663799 0.069845296 0.64300001 4284900428
0.25877601 0.069954 0.64399999 4285097553
0.260515 0.069954298 0.64399999 4285163859
0.26184699 0.069846101 0.64300001 4285163604
0.263585 0.069846697 0.64300001 4285032273
0.26573601 0.069956101 0.64399999 4285558870
0.26706201 0.069848299 0.64300001 4285427284
0.268801 0.069849402 0.64300001 4285164112
0.270962 0.069959201 0.64399999 4285295186
0.27312899 0.070069201 0.64499998 4285427031
0.27445 0.069962099 0.64399999 4285295190
0.27576599 0.069855198 0.64300001 4285360983
0.277078 0.069748402 0.64200002 4285755996
0.27925301 0.069859102 0.64300001 4285427029
0.28143501 0.069969997 0.64399999 4285689943
0.28274301 0.069863804 0.64300001 4285426772
0.28493199 0.0699751 0.64399999 4285624151
0.28668201 0.069977798 0.64399999 4285623897
0.288881 0.070089497 0.64499998 4285294932
0.28973401 0.0698753 0.64300001 4285689690
0.291031 0.069770001 0.64200002 4285557843
0.29323599 0.069882199 0.64300001 4285294925
0.29498801 0.069885999 0.64300001 4284965444
0.297203 0.069998696 0.64399999 4285360202
0.29849499 0.069894098 0.64300001 4285689683
0.30025101 0.069898501 0.64300001 4286215773
0.30200699 0.069903098 0.64300001 4285887323
0.30423701 0.070016697 0.64399999 4285690201
0.30552399 0.069913 0.64300001 4285624402
0.307284 0.0699182 0.64300001 4286018901
0.309526 0.0700325 0.64399999 4285689934
0.31129101 0.070038199 0.64399999 4285821005
0.31305799 0.0700441 0.64399999 4286215249
0.31482601 0.070050299 0.64399999 4286149970
0.31708699 0.0701655 0.64499998 4286018901
0.318367 0.070063397 0.64399999 4286216280
0.31964201 0.069961503 0.64300001 4285690197
0.32141301 0.0699687 0.64300001 4286084953
0.324191 0.0701937 0.64499998 4286216541
0.32597101 0.070201397 0.64499998 4286084955
0.32724401 0.070100501 0.64399999 4286216539
0.32902399 0.070108697 0.64399999 4286282332
0.33131999 0.070226103 0.64499998 4286216288
0.33310601 0.070234798 0.64499998 4286545506
0.334894 0.070243798 0.64499998 4286282593
0.336162 0.070144199 0.64399999 4286413924
0.33847499 0.0702627 0.64499998 4286413926
0.33974099 0.070163697 0.64399999 4286216292
0.34206399 0.070282802 0.64499998 4285887069
0.343862 0.070293203 0.64499998 4285163600
0.34566101 0.070303999 0.64499998 4286084702
0.34692401 0.070206001 0.64399999 4285953116
0.34818301 0.070108302 0.64300001 4285887322
0.34998301 0.070119902 0.64300001 4286215773
0.351785 0.070131898 0.64300001 4285754706
0.354139 0.070253201 0.64399999 4285754960
0.35650101 0.070374899 0.64499998 4285754960
0.358316 0.0703879 0.64499998 4285624150
0.36013201 0.070401199 0.64499998 4286018402
0.36195099 0.070414796 0.64499998 4286018655
0.364337 0.070537902 0.64600003 4285888337
0.36559701 0.070442997 0.64499998 4286479966
0.367993 0.0705669 0.64600003 4286479711
0.36982501 0.070581898 0.64600003 4286743142
0.371084 0.070487998 0.64499998 4286413666
0.37291899 0.070503697 0.64499998 4286742632
0.37475601 0.070519798 0.64499998 4286742378
0.37776399 0.070754901 0.64700001 4287202929
0.37902501 0.070662402 0.64600003 4287006063
0.38028401 0.070570201 0.64499998 4286808684
0.38094801 0.070368901 0.64300001 4286940015
0.383984 0.0706058 0.64499998 4286808431
0.38703501 0.070843197 0.64700001 4287137141
0.38949999 0.070971496 0.648 4286742383
0.38895401 0.070552602 0.64399999 4286413418
0.39081499 0.070572101 0.64399999 4282663986
0.39207 0.0704825 0.64300001 4284968023
0.39454699 0.070612498 0.64399999 4287402364
0.398265 0.070962302 0.64700001 4287664768
0.400767 0.071093403 0.648 4287335803
0.40327799 0.071225002 0.64899999 4287270011
0.404551 0.071137503 0.648 4287270271
0.407702 0.0713799 0.64999998 4287665029
0.408979 0.071293302 0.64899999 4287270271
0.409621 0.071097203 0.64700001 4287993734
0.41089001 0.071011297 0.64600003 4287335550
0.412797 0.071035802 0.64600003 4287664515
0.41663399 0.071390897 0.64899999 4288058757
0.418558 0.071416497 0.64899999 4287730308
0.41983801 0.071332499 0.648 4287927171
0.421767 0.071359001 0.648 4287532668
0.424355 0.0714963 0.64899999 4287795840
0.426296 0.071523897 0.64899999 4287861378
0.42758101 0.071441799 0.648 4287532413
0.43019101 0.071580701 0.64899999 4287466620
0.43214601 0.071610004 0.64899999 4287401082
0.43477499 0.071750097 0.64999998 4287730047
0.43607 0.071670003 0.64899999 4287532668
0.437365 0.071590401 0.648 4287730047
0.439336 0.071621798 0.648 4287730561
0.44267401 0.071874999 0.64999998 4287861117
0.444662 0.071907602 0.64999998 4287203442
0.44665501 0.071940899 0.64999998 4286545000
0.448654 0.071974702 0.64999998 4286741864
0.45065701 0.072009198 0.64999998 4286873450
-0.199002 0.067851402 0.63999999 4290033840
-0.19697499 0.067748599 0.639 4290165427
-0.195563 0.067857899 0.63999999 4289968048
-0.19323801 0.067649201 0.63800001 4290099634
-0.19212499 0.067864701 0.63999999 4290297012
-0.190108 0.067762204 0.639 4289968301
-0.188686 0.067871802 0.63999999 4290230705
-0.186967 0.0678754 0.63999999 4290164910
-0.185247 0.067878999 0.63999999 4290361777
-0.18352801 0.067882702 0.63999999 4290099119
-0.18180799 0.067886397 0.63999999 4290493363
-0.17980701 0.067784101 0.639 4290427315
-0.178369 0.067893997 0.63999999 4290427570
-0.176649 0.067897797 0.63999999 4290427570
-0.17492899 0.067901701 0.63999999 4290361777
-0.172668 0.067693397 0.63800001 4290427568
-0.17068499 0.067591302 0.63700002 4290098858
-0.169238 0.067701302 0.63800001 4290295982
-0.167785 0.0678114 0.639 4290296237
-0.166327 0.067921601 0.63999999 4290427823
-0.164864 0.068031803 0.64099997 4290295982
-0.16314 0.068035901 0.64099997 4290295467
-0.16141701 0.068039998 0.64099997 4290164135
-0.159444 0.067938 0.63999999 4290229928
-0.157722 0.067942098 0.63999999 4289901479
-0.156001 0.0679463 0.63999999 4289835686
-0.154761 0.068162799 0.64200002 4289835431
-0.152795 0.0680608 0.64099997 4290098089
-0.15083501 0.067958802 0.63999999 4290032295
-0.14888 0.067856804 0.639 4290163367
-0.14715999 0.067860998 0.639 4290097828
-0.145667 0.067971401 0.63999999 4290229412
-0.14372 0.067869402 0.639 4290360998
-0.142221 0.067979798 0.63999999 4290229926
-0.140718 0.0680902 0.64099997 4290295719
-0.139208 0.0682007 0.64200002 4290295460
-0.137265 0.068098597 0.64099997 4289966495
-0.135327 0.067996599 0.63999999 4289834909
-0.133185 0.067788303 0.63800001 4289966495
-0.13167199 0.067898698 0.639 4289703323
-0.129747 0.067796603 0.63800001 4289374358
-0.12822799 0.067906998 0.639 4289571224
-0.126901 0.068123698 0.64099997 4289373845
-0.125368 0.068234101 0.64200002 4289373845
-0.123445 0.068131998 0.64099997 4289307792
-0.121716 0.068136103 0.64099997 4288978827
-0.119987 0.068140097 0.64099997 4288846726
-0.118074 0.068037897 0.63999999 4288912517
-0.116165 0.067935601 0.639 4288320380
-0.11462 0.068045899 0.63999999 4288584068
-0.113246 0.068262503 0.64200002 4288715141
-0.111339 0.068160199 0.64099997 4288583815
-0.10978 0.0682704 0.64200002 4288452229
-0.108047 0.068274297 0.64200002 4288780680
-0.106479 0.068384498 0.64300001 4288517508
-0.104579 0.068282001 0.64200002 4288451715
-0.102685 0.068179399 0.64099997 4288912266
-0.100954 0.068183199 0.64099997 4289109645
-0.099221803 0.068186902 0.64099997 4288846473
-0.097641803 0.068296999 0.64200002 4288978573
-0.095906898 0.068300597 0.64200002 4289044367
-0.094171599 0.068304203 0.64200002 4289110159
-0.092436098 0.068307802 0.64200002 4288912780
-0.090841703 0.068417698 0.64300001 4289109645
-0.088964403 0.068314798 0.64200002 4288912266
-0.087092303 0.068211801 0.64099997 4289306508
-0.0852255 0.0681087 0.63999999 4289109645
-0.083755098 0.068324901 0.64200002 4289373071
-0.082018197 0.068328202 0.64200002 4289109899
-0.0804061 0.0684378 0.64300001 4289241485
-0.078666098 0.068441004 0.64300001 4289175692
-0.077045403 0.068550602 0.64399999 4289044106
-0.075302199 0.068553701 0.64399999 4289175692
-0.073330402 0.068343803 0.64200002 4289175438
-0.071703702 0.0684532 0.64300001 4289043852
-0.0697449 0.068243198 0.64099997 4289307278
-0.0681151 0.068352498 0.64200002 4289044106
-0.0662729 0.068248801 0.64099997 4289175692
-0.064637199 0.068357997 0.64200002 4289307538
-0.062799998 0.068254203 0.64099997 4289439124
-0.061063301 0.068256803 0.64099997 4289702043
-0.059326399 0.068259299 0.64099997 4289636250
-0.0575893 0.068261802 0.64099997 4289767575
-0.0558521 0.068264201 0.64099997 4290096026
-0.054114699 0.068266504 0.64099997 4289899415
-0.0525405 0.068481803 0.64300001 4289570964
-0.050876301 0.068590499 0.64399999 4289965468
-0.0490539 0.068486102 0.64300001 4289702810
-0.046648201 0.067529596 0.634 4290097568
-0.043582499 0.065507703 0.61500001 4289900189
-0.0412331 0.0644444 0.60500002 4289768604
-0.0391341 0.063700497 0.59799999 4289834402
-0.035693001 0.060612898 0.56900001 4289900196
-0.032228898 0.057205599 0.537 4289900457
-0.0304856 0.056674302 0.53200001 4290428620
0.088944398 0.055510301 0.52200001 4285625734
0.091565199 0.0562515 0.52899998 4285296511
0.096860401 0.058587398 0.551 4285428097
0.105309 0.062730603 0.58999997 4285494662
0.111611 0.065491199 0.616 4285626248
0.114377 0.066125199 0.62199998 4285494662
0.116614 0.066440202 0.625 4285625734
0.118868 0.066755101 0.62800002 4285362302
0.121329 0.067176297 0.63200003 4285098869
0.123423 0.067384802 0.634 4282532681
0.12552699 0.067593202 0.63599998 4282992453
0.127041 0.067482904 0.63499999 4283189571
0.128956 0.067584999 0.63599998 4282992191
0.13067 0.067580901 0.63599998 4283386688
0.1328 0.067789197 0.63800001 4283123516
0.134519 0.067785002 0.63800001 4283057717
0.13645101 0.067887098 0.639 4283188789
0.138172 0.067882903 0.639 4283123510
0.140331 0.068091199 0.64099997 4283649340
0.142057 0.068086997 0.64099997 4284043838
0.143783 0.068082698 0.64099997 4283846719
0.14550801 0.068078503 0.64099997 4283649594
0.14700399 0.0679681 0.63999999 4283846458
0.148959 0.068070099 0.64099997 4283649079
0.15044899 0.067959704 0.63999999 4283911737
0.152409 0.068061702 0.64099997 4283779896
0.15413301 0.0680575 0.64099997 4283845691
0.156344 0.068265699 0.64300001 4283911484
0.15831999 0.068367697 0.64399999 4283911998
0.160052 0.068363503 0.64399999 4283649340
0.16178399 0.068359397 0.64399999 4284044352
0.16326199 0.068249099 0.64300001 4283847226
0.16473401 0.068138801 0.64200002 4283847479
0.16672 0.068240903 0.64300001 4283847225
0.168972 0.068449102 0.64499998 4283847225
0.170706 0.068444997 0.64499998 4284241984
0.17270701 0.0685471 0.64600003 4283847226
0.174174 0.068437003 0.64499998 4283715640
0.175634 0.068327002 0.64399999 4284044090
0.17709 0.068217002 0.64300001 4284175674
0.178818 0.068213098 0.64300001 4284241721
0.18082599 0.068315297 0.64399999 4284307514
0.18312401 0.068523698 0.64600003 4284110649
0.18457299 0.068413898 0.64499998 4284044604
0.18659499 0.068516202 0.64600003 4283913279
0.187747 0.068300404 0.64399999 4284308037
0.189478 0.068296798 0.64399999 4283979326
0.191208 0.068293199 0.64399999 4284176190
0.192938 0.068289697 0.64399999 4284176444
0.19466799 0.068286203 0.64399999 4284373821
0.19609299 0.068176799 0.64300001 4284439362
0.198128 0.068279497 0.64399999 4284110912
0.19954801 0.0681701 0.64300001 4284044865
0.20127501 0.068166897 0.64300001 4284241984
0.202687 0.068057701 0.64200002 4284438848
0.20504799 0.068266697 0.64399999 4284044342
0.206778 0.068263598 0.64399999 4284241721
0.208509 0.0682607 0.64399999 4284242235
0.209912 0.068151802 0.64300001 4284439616
0.211969 0.068255 0.64399999 4284045378
0.21403199 0.068358198 0.64499998 4284308295
0.21543001 0.068249598 0.64399999 4284439370
0.216824 0.068141103 0.64300001 4284438856
0.21855199 0.068138599 0.64300001 4284241731
0.220623 0.068242103 0.64399999 4284439109
0.221664 0.068027899 0.64200002 4284439363
0.223738 0.068131603 0.64300001 4284768328
0.225467 0.068129502 0.64300001 4284439877
0.22719599 0.068127498 0.64300001 4284110912
0.228569 0.068019599 0.64200002 4284505416
0.231013 0.068229698 0.64399999 4284308295
0.23274601 0.068227999 0.64399999 4284571210
0.234843 0.0683323 0.64499998 4284505417
0.235845 0.0681189 0.64300001 4284373830
0.23794501 0.068223402 0.64399999 4284834381
0.239306 0.068116203 0.64300001 4284374084
0.241413 0.068220899 0.64399999 4284374084
0.24277 0.068113901 0.64300001 4284505670
0.244882 0.068218902 0.64399999 4284242498
0.246617 0.068218097 0.64399999 4284834892
0.248353 0.068217397 0.64399999 4284768842
0.25008899 0.068216801 0.64399999 4284834892
0.251825 0.068216398 0.64399999 4284900685
0.253562 0.0682161 0.64399999 4285492571
0.25450599 0.068003997 0.64200002 4285295439
0.25663799 0.0681099 0.64300001 4285492565
0.257972 0.068004102 0.64200002 4285098064
0.25930101 0.0678984 0.64099997 4285098066
0.26103199 0.067898802 0.64099997 4285098066
0.26276401 0.067899302 0.64099997 4285163859
0.26491001 0.068005897 0.64200002 4285229905
0.26622999 0.067900799 0.64099997 4284900940
0.267546 0.067795902 0.63999999 4285032271
0.26969901 0.0679029 0.64099997 4285427029
0.27143401 0.067904197 0.64099997 4285032018
0.27359599 0.068011597 0.64200002 4285097811
0.27447799 0.067801401 0.63999999 4285492822
0.27578101 0.067697197 0.639 4285164112
0.27794799 0.067805097 0.63999999 4285163339
0.28012201 0.067913197 0.64099997 4285163337
0.28230101 0.068021402 0.64200002 4285294925
0.28448701 0.068129897 0.64300001 4285623890
0.28578901 0.068026602 0.64200002 4285557843
0.28798199 0.068135403 0.64300001 4285163599
0.289731 0.068138503 0.64300001 4285492304
0.29102799 0.068035699 0.64200002 4285952855
0.29232001 0.067933202 0.64099997 4286018132
0.294067 0.0679368 0.64099997 4285096516
0.29581401 0.0679406 0.64099997 4285623120
0.29709801 0.067838602 0.63999999 4285820246
0.299312 0.067948803 0.64099997 4285820246
0.301063 0.067953303 0.64099997 4285558358
0.30328801 0.0680639 0.64200002 4285953116
0.305044 0.068068802 0.64200002 4285690454
0.30680099 0.068073899 0.64200002 4285624659
0.308559 0.068079099 0.64200002 4285822034
0.31031901 0.068084702 0.64200002 4285821519
0.31208 0.068090402 0.64200002 4286149970
0.314331 0.068202399 0.64300001 4285886545
0.316098 0.068208702 0.64300001 4286084439
0.31836 0.068321198 0.64399999 4285887060
0.31913799 0.068115696 0.64200002 4285953367
0.32090601 0.068122603 0.64200002 4286084694
0.322173 0.068023697 0.64099997 4286151001
0.32444701 0.068137199 0.64200002 4286084953
0.32622001 0.068144903 0.64200002 4285953367
0.327483 0.068046696 0.64099997 4286151003
0.329256 0.068054803 0.64099997 4286020430
0.33103099 0.068063296 0.64099997 4286217555
0.333327 0.068178102 0.64200002 4286348382
0.33458701 0.068080902 0.64099997 4286479466
0.33689201 0.068196401 0.64200002 4286347627
0.33814901 0.0680997 0.64099997 4286347621
0.34046301 0.068215698 0.64200002 4285755484
0.34225199 0.068225801 0.64200002 4285360979
0.34457901 0.068342499 0.64300001 4285492565
0.34637401 0.068353198 0.64300001 4285558358
0.34762999 0.068257898 0.64200002 4286018909
0.348883 0.068162799 0.64099997 4285755222
0.35013199 0.068067998 0.63999999 4286018394
0.35192701 0.068079904 0.63999999 4285887062
0.354278 0.068198398 0.64099997 4285821015
0.35608101 0.0682109 0.64099997 4285886809
0.35788599 0.0682237 0.64099997 4285886819
0.360816 0.068449803 0.64300001 4285887069
0.36263099 0.068463303 0.64300001 4285887576
0.36444899 0.068477102 0.64300001 4286413918
0.36570001 0.068384796 0.64200002 4285953367
0.36752 0.068399303 0.64200002 4285953367
0.36876801 0.068307601 0.64099997 4286149980
0.37059101 0.068322703 0.64099997 4286149981
0.37183499 0.068231702 0.63999999 4286084188
0.37541199 0.068567403 0.64300001 4286347106
0.37666199 0.068477102 0.64200002 4286610792
0.37849799 0.068493702 0.64200002 4286677096
0.37974599 0.068403997 0.64099997 4286545512
0.38277599 0.068634801 0.64300001 4286742636
0.384624 0.068652697 0.64300001 4287268982
0.387077 0.068777703 0.64399999 4286873969
0.388331 0.068689398 0.64300001 4286216553
0.38958201 0.068601601 0.64200002 4284900948
0.39144 0.068620898 0.64200002 4282336303
0.39330199 0.068640701 0.64200002 4287599742
0.39639801 0.068874799 0.64399999 4287533949
0.39827201 0.0688954 0.64399999 4287073399
0.40077099 0.069023497 0.64499998 4287467389
0.40265599 0.069045097 0.64499998 4287336318
0.40517101 0.0691742 0.64600003 4287401857
0.40706599 0.069196701 0.64600003 4287533183
0.40769801 0.069005303 0.64399999 4287730308
0.40895799 0.068921402 0.64300001 4287335289
0.411495 0.069052398 0.64399999 4287466875
0.41468301 0.0692911 0.64600003 4287927171
0.41724199 0.069423199 0.64700001 4287861896
0.41851601 0.069341198 0.64600003 4288059012
0.42109001 0.069474302 0.64700001 4287401082
0.42302001 0.069500603 0.64700001 4287335287
0.42561099 0.069634899 0.648 4287664254
0.427553 0.069662198 0.648 4288190084
0.430163 0.069797598 0.64899999 4287532154
0.43211699 0.069826096 0.64899999 4287532154
0.43340701 0.069747403 0.648 4287795071
0.43469599 0.069669202 0.64700001 4287663999
0.43665901 0.069699101 0.64700001 4287795587
0.43930501 0.069837399 0.648 4287664769
0.441962 0.0699763 0.64899999 4288059012
0.443946 0.070008002 0.64899999 4287400568
0.44593501 0.0700403 0.64899999 4287202676
0.44793001 0.070073202 0.64899999 4286873451
0.45062301 0.070214704 0.64999998 4286478693
-0.199784 0.065810598 0.63700002 4289967531
-0.198072 0.065813698 0.63700002 4289770154
-0.19636101 0.065816902 0.63700002 4289902254
-0.194344 0.065716803 0.63599998 4289968047
-0.192636 0.065720104 0.63599998 4289902254
-0.190928 0.065723501 0.63599998 4289836461
-0.18951599 0.065830201 0.63700002 4289968301
-0.187805 0.065833703 0.63700002 4290034094
-0.186386 0.065940499 0.63800001 4290230703
-0.184672 0.065944098 0.63800001 4289967533
-0.18295801 0.065947697 0.63800001 4290099119
-0.181244 0.0659514 0.63800001 4289901740
-0.17952999 0.065954998 0.63800001 4289901485
-0.178094 0.066062197 0.639 4289901485
-0.176377 0.0660659 0.639 4289901740
-0.17438599 0.065966301 0.63800001 4289967533
-0.17213 0.065763399 0.63599998 4290164910
-0.17015301 0.0656638 0.63499999 4290099117
-0.16871101 0.065771103 0.63599998 4289967533
-0.167264 0.065878399 0.63700002 4290099117
-0.166072 0.066089198 0.639 4290230189
-0.164611 0.066196598 0.63999999 4289967017
-0.16289 0.066200599 0.63999999 4289967017
-0.16066501 0.065997802 0.63800001 4290229928
-0.1587 0.065898299 0.63700002 4290098342
-0.15674099 0.065798901 0.63599998 4290032295
