# .PCD v0.7 - Point Cloud Data file format
VERSION 0.7
FIELDS x y z rgb
SIZE 4 4 4 4
TYPE F F F U
COUNT 1 1 1 1
WIDTH 1128
HEIGHT 1
VIEWPOINT 0 0 0 1 0 0 0
POINTS 1128
DATA ascii
0.079903901 0.199816 0.72299999 4284111713
0.0812902 0.198429 0.71799999 4285492607
0.083228901 0.19842499 0.71799999 4288717205
0.085404798 0.198973 0.72000003 4288849556
0.087955303 0.20035 0.72500002 4288914329
0.089788601 0.200069 0.72399998 4288848791
0.091869697 0.20034 0.72500002 4288519826
0.093697399 0.200059 0.72399998 4288454031
0.095783703 0.20033 0.72500002 4288454031
0.0980101 0.20087799 0.727 4289441180
0.099972203 0.200873 0.727 4288585871
0.101934 0.200868 0.727 4288782996
0.103896 0.20086201 0.727 4288782996
0.105858 0.200857 0.727 4289309342
0.107968 0.20112801 0.72799999 4289573028
0.110083 0.201399 0.72899997 4288586133
0.112049 0.20139401 0.72899997 4288717205
0.114016 0.201388 0.72899997 4288651412
0.115982 0.20138299 0.72899997 4288651157
0.117949 0.201378 0.72899997 4289111710
0.119586 0.20082 0.727 4288717211
0.12138 0.20053799 0.72600001 4288914590
0.123677 0.201085 0.72799999 4288848797
0.126158 0.20190801 0.73100001 4288651418
0.12795401 0.201626 0.73000002 4289242526
0.129923 0.201621 0.73000002 4288848022
0.13153 0.20106301 0.72799999 4287597440
0.13367601 0.201334 0.72899997 4288123779
0.135827 0.20160399 0.73000002 4287992192
0.13798399 0.201875 0.73100001 4287860606
0.139955 0.20186999 0.73100001 4288124291
0.14211901 0.202141 0.73199999 4288848014
0.14409199 0.202135 0.73199999 4288189829
0.146265 0.202406 0.73299998 4288189831
0.148038 0.202124 0.73199999 4288387208
0.150011 0.20211899 0.73199999 4287532154
0.152192 0.20239 0.73299998 4287992450
0.154167 0.20238499 0.73299998 4288584842
0.15635601 0.202656 0.73400003 4288584842
0.158334 0.20265099 0.73400003 4288782221
0.160748 0.203198 0.736 4288387208
0.162953 0.20346899 0.73699999 4288321415
0.16471501 0.203188 0.736 4288584589
0.16669799 0.203183 0.736 4288189829
0.16845199 0.202903 0.73500001 4288058245
0.170665 0.203174 0.736 4288255622
0.172648 0.203169 0.736 4288190084
0.174631 0.20316499 0.736 4287926399
0.176374 0.202885 0.73500001 4287926652
0.178112 0.202604 0.73400003 4287598200
0.18009 0.2026 0.73400003 4287926652
0.18256401 0.20314801 0.736 4288256130
0.184798 0.20342 0.73699999 4288058751
0.18703701 0.203693 0.73799998 4288321668
0.189282 0.20396499 0.73900002 4287861119
0.191533 0.204238 0.74000001 4287729533
0.19378901 0.20451 0.741 4287663740
0.195521 0.20423099 0.74000001 4287926659
0.197249 0.203952 0.73900002 4288124038
0.19950999 0.204225 0.74000001 4288189578
0.201233 0.20394599 0.73900002 4288057992
0.203225 0.203944 0.73900002 4288124038
0.205217 0.203941 0.73900002 4288518794
0.20749 0.20421501 0.74000001 4288453256
0.209768 0.20448899 0.741 4288584842
0.211766 0.204487 0.741 4288387463
0.213764 0.204486 0.741 4288519049
0.21605401 0.20476 0.74199998 4287992705
0.21834899 0.205035 0.74299997 4288387208
0.220057 0.204758 0.74199998 4288387208
0.222358 0.205033 0.74299997 4288518794
0.224664 0.205309 0.74400002 4288255622
0.22667199 0.20530801 0.74400002 4288452744
0.22868 0.20530801 0.74400002 4288386950
0.23099799 0.205585 0.745 4288321157
0.233009 0.205585 0.745 4288452743
0.235021 0.205586 0.745 4288452743
0.23671401 0.205311 0.74400002 4288058498
0.23840301 0.205036 0.74299997 4288255877
0.24041 0.205038 0.74299997 4288321415
0.242744 0.20531499 0.74400002 4287926912
0.245083 0.205594 0.745 4288058498
0.247097 0.205596 0.745 4287664244
0.249111 0.205599 0.745 4288058243
0.25112501 0.20560201 0.745 4287992452
0.25347999 0.205881 0.74599999 4288386956
0.25584099 0.20616101 0.74699998 4288058245
0.25751701 0.205889 0.74599999 4287926657
0.259536 0.20589299 0.74599999 4287926912
0.261556 0.205898 0.74599999 4287861119
0.26392901 0.20617899 0.74699998 4287926912
0.265953 0.206184 0.74699998 4287795071
0.267259 0.20563801 0.745 4288058245
0.26964 0.20592 0.74599999 4287861380
0.271662 0.205927 0.74599999 4287663999
0.27441901 0.206486 0.74800003 4287598975
0.27644899 0.20649301 0.74800003 4287401596
0.278851 0.20677701 0.74900001 4287401596
0.280509 0.20650899 0.74800003 4287795838
0.28254101 0.20651799 0.74800003 4287664254
0.284953 0.20680299 0.74900001 4287663485
0.28660601 0.206536 0.74800003 4287992450
0.28863999 0.20654599 0.74800003 4287268727
0.28989699 0.20600399 0.74599999 4287005557
0.29231799 0.20629101 0.74699998 4287466622
0.29395801 0.206026 0.74599999 4287269243
0.29638699 0.206314 0.74699998 4287072378
0.29842201 0.20632599 0.74699998 4287204218
0.30045801 0.206339 0.74699998 4286348141
0.30249599 0.206352 0.74699998 4286677620
0.30412599 0.20609 0.74599999 4283256123
0.30616301 0.206104 0.74599999 4283322430
0.307374 0.205566 0.74400002 4282730293
0.308992 0.205305 0.74299997 4283322430
0.31144199 0.205597 0.74400002 4283520323
0.31389901 0.205889 0.745 4283848774
0.316787 0.206459 0.74699998 4284046667
0.31840599 0.2062 0.74599999 4283980874
0.32045099 0.206218 0.74599999 4283520324
0.321632 0.20568401 0.74400002 4283322691
0.32367399 0.20570301 0.74400002 4284572758
0.325717 0.205723 0.74400002 4285099102
0.32732001 0.205466 0.74299997 4286217322
0.32936299 0.205487 0.74299997 4287270010
0.330962 0.20523199 0.74199998 4287072631
0.33300501 0.205254 0.74199998 4287532668
0.335049 0.205277 0.74199998 4287466875
0.33755001 0.205577 0.74299997 4287532668
0.3396 0.20560101 0.74299997 4288059012
0.34165201 0.205626 0.74299997 4288453515
0.34370601 0.205652 0.74299997 4287598976
0.345761 0.205678 0.74299997 4287664768
0.34781799 0.205705 0.74299997 4287533183
0.349877 0.205732 0.74299997 4287533183
0.352411 0.206037 0.74400002 4287927940
0.35399899 0.205789 0.74299997 4288387975
0.355584 0.205542 0.74199998 4288388230
0.35668299 0.205018 0.74000001 4288321921
0.359227 0.20532601 0.741 4288519302
0.36226699 0.20591301 0.74299997 4288321410
0.36531901 0.20649999 0.745 4288452996
0.367892 0.206811 0.74599999 4286544999
0.36898401 0.20629101 0.74400002 4287466101
0.37006801 0.205771 0.74199998 4288190590
0.372145 0.205807 0.74199998 4287795579
0.37472901 0.206121 0.74299997 4288058491
0.37681401 0.206159 0.74299997 4287400568
0.378901 0.20619699 0.74299997 4287597694
0.38047799 0.20595901 0.74199998 4285821300
0.383082 0.206277 0.74299997 4284571748
0.385176 0.20631801 0.74299997 4288322951
0.38831601 0.206916 0.745 4287928444
0.390421 0.20695899 0.745 4288124795
0.392528 0.207003 0.745 4288322174
0.39410901 0.20677 0.74400002 4288059004
0.39675099 0.207094 0.745 4288256128
0.39779601 0.206585 0.74299997 4288125056
0.399371 0.20635401 0.74199998 4288256391
0.40148401 0.206403 0.74199998 4288453256
0.40414301 0.20673101 0.74299997 4288190082
0.40626499 0.206782 0.74299997 4288519047
0.408939 0.207112 0.74400002 4288124289
0.41051701 0.20688599 0.74299997 4287926912
0.41264799 0.20694 0.74299997 4287992703
0.41478199 0.206995 0.74299997 4288124544
0.41691899 0.20705099 0.74299997 4287992703
0.41849601 0.20682999 0.74199998 4288058498
0.42063701 0.20688801 0.74199998 4287729533
0.42335099 0.20722599 0.74299997 4288058498
0.42607501 0.20756599 0.74400002 4288058496
0.42765701 0.207348 0.74299997 4287927163
0.43039399 0.20769 0.74400002 4287927163
0.432558 0.207754 0.74400002 4287795577
0.43589601 0.208378 0.74599999 4287861372
0.43689901 0.207886 0.74400002 4287663993
0.43907601 0.207954 0.74400002 4287400566
0.44125599 0.208023 0.74400002 4287598200
0.44403699 0.208373 0.745 4287532407
0.44742599 0.209005 0.74699998 4287861117
0.45023 0.20935801 0.74800003 4287597947
0.45122901 0.208873 0.74599999 4287597947
0.45222101 0.208388 0.74400002 4287202934
0.454427 0.208465 0.74400002 4287531641
0.45725101 0.20882399 0.745 4287663227
0.45946899 0.208904 0.745 4288321668
0.46293101 0.209546 0.74699998 4288321668
0.46578699 0.20991001 0.74800003 4287927426
0.46865499 0.21027499 0.74900001 4287862147
0.46901801 0.209519 0.74599999 4288125319
0.47189501 0.209887 0.74699998 4288124291
0.47351399 0.209695 0.74599999 4286874222
0.477045 0.210348 0.74800003 4286676071
0.478672 0.210159 0.74699998 4287860345
0.480941 0.210252 0.74699998 4287992699
0.48256999 0.21006601 0.74599999 4286940011
0.485497 0.210444 0.74699998 4287466612
0.487131 0.210261 0.74599999 4288124544
0.48942 0.210361 0.74599999 4287927163
0.49171501 0.210463 0.74599999 4287861372
0.496003 0.211413 0.74900001 4287729531
0.49965 0.212084 0.75099999 4287729784
-0.19915 0.20141 0.73699999 4289572520
-0.197163 0.20141301 0.73699999 4289506213
-0.194912 0.201143 0.736 4289571491
-0.19319101 0.20141999 0.73699999 4289439905
-0.19146401 0.20169599 0.73799998 4289439645
-0.189732 0.20197301 0.73900002 4289308059
-0.187741 0.201977 0.73900002 4289176733
-0.18574999 0.20198099 0.73900002 4288914590
-0.184007 0.20225801 0.74000001 4289704106
-0.18201301 0.202262 0.74000001 4290164396
-0.18001901 0.20226701 0.74000001 4289243294
-0.17778499 0.201998 0.73900002 4289440158
-0.17603201 0.20227601 0.74000001 4289637537
-0.173803 0.202007 0.73900002 4289571745
-0.17227601 0.202558 0.741 4289440675
-0.17027999 0.202563 0.741 4289440420
-0.168056 0.20229401 0.74000001 4289638054
-0.166287 0.202573 0.741 4289571745
-0.164068 0.20230401 0.74000001 4288189829
-0.162074 0.202309 0.74000001 4288453001
-0.159647 0.201768 0.73799998 4288583815
-0.15787201 0.20204601 0.73900002 4288649608
-0.15567 0.20177799 0.73799998 4288715401
-0.153889 0.202057 0.73900002 4288978573
-0.151692 0.20178901 0.73799998 4289241745
-0.14990599 0.202068 0.73900002 4288321157
-0.14791401 0.20207299 0.73900002 4288979088
-0.145725 0.201805 0.73799998 4289373845
-0.143736 0.201811 0.73799998 4289045138
-0.141938 0.20209 0.73900002 4289242519
-0.139946 0.202095 0.73900002 4288716175
-0.13814101 0.202374 0.74000001 4288913300
-0.135594 0.20156001 0.73699999 4288781715
-0.133788 0.201839 0.73799998 4289176215
-0.131798 0.20184401 0.73799998 4289242008
-0.12980799 0.20185 0.73799998 4288715918
-0.127645 0.201582 0.73699999 4288452744
-0.125828 0.20186099 0.73799998 4288649609
-0.12367 0.201593 0.73699999 4288452744
-0.121682 0.201599 0.73699999 4288584332
-0.119857 0.201878 0.73799998 4288847250
-0.118026 0.20215701 0.73900002 4287992199
-0.116189 0.202436 0.74000001 4288189578
-0.114193 0.20244201 0.74000001 4289242265
-0.111894 0.20190001 0.73799998 4289374365
-0.109753 0.20163199 0.73699999 4289046170
-0.107619 0.201364 0.736 4289112477
-0.105776 0.20164301 0.73699999 4289309087
-0.103787 0.201648 0.73699999 4289111194
-0.101937 0.20192701 0.73799998 4289440159
-0.10008 0.202206 0.73900002 4289440159
-0.098218299 0.202485 0.74000001 4289045915
-0.096090898 0.202216 0.73900002 4288914329
-0.093841404 0.201674 0.73699999 4288980638
-0.091727197 0.201405 0.736 4289309603
-0.089618199 0.20113701 0.73500001 4289111710
-0.087395303 0.20059399 0.73299998 4289111710
-0.085416101 0.200599 0.73299998 4289177501
-0.083550699 0.20087799 0.73400003 4289243294
-0.081568502 0.200882 0.73400003 4289440420
-0.079477899 0.20061301 0.73299998 4289440420
-0.077392504 0.200344 0.73199999 4289177248
-0.075415403 0.200348 0.73199999 4289374113
-0.073237598 0.19980501 0.73000002 4289637285
-0.071265697 0.199809 0.73000002 4289374880
-0.069198698 0.19954 0.72899997 4289440673
-0.067321502 0.199818 0.73000002 4289637538
-0.065259703 0.19954801 0.72899997 4289505952
-0.063290097 0.199552 0.72899997 4289571745
-0.061236199 0.19928201 0.72799999 4289571745
-0.0592691 0.199285 0.72799999 4289308573
-0.0571444 0.198741 0.72600001 4289571744
-0.055258401 0.199019 0.727 4289243549
-0.053367 0.199296 0.72799999 4289506466
-0.05147 0.199573 0.72899997 4289637538
-0.049431801 0.199302 0.72799999 4289505952
-0.047464099 0.199305 0.72799999 4289768610
-0.045371301 0.19876 0.72600001 4289637024
-0.0434088 0.198763 0.72600001 4289308573
-0.041503299 0.19904 0.727 4289505951
-0.039538 0.19904201 0.727 4289111708
-0.037572499 0.199045 0.727 4289177501
-0.035509098 0.19849899 0.72500002 4289243549
-0.033548899 0.198502 0.72500002 4288980122
-0.0315887 0.198504 0.72500002 4288979354
-0.0295876 0.198232 0.72399998 4288979355
-0.0276682 0.198507 0.72500002 4288847769
-0.0256369 0.197962 0.72299999 4288650389
-0.0237146 0.198237 0.72399998 4288387985
-0.0218169 0.19878601 0.72600001 4288519571
-0.019881099 0.19906101 0.727 4288650643
-0.0178905 0.198789 0.72600001 4288125068
-0.0159052 0.198516 0.72500002 4288256138
-0.0139254 0.19824301 0.72399998 4288189831
-0.0119509 0.19797 0.72299999 4288255624
-0.0099818399 0.197697 0.722 4288190084
-0.00801815 0.19742399 0.72100002 4287926659
-0.0060682702 0.19742399 0.72100002 4288058245
-0.0041240901 0.197698 0.722 4287926659
-0.0021744899 0.197972 0.72299999 4288255624
-0.00021947701 0.198246 0.72399998 4288255370
0.00173374 0.197699 0.722 4288058245
0.0036965599 0.198246 0.72399998 4288124038
0.0056467601 0.197972 0.72299999 4288057988
0.0076230802 0.19851901 0.72500002 4288189831
0.0095705502 0.198245 0.72399998 4288058243
0.0114967 0.197696 0.722 4288057986
0.0134306 0.197422 0.72100002 4287992195
0.015359 0.197147 0.72000003 4288189572
0.0173542 0.197694 0.722 4287926657
0.0193066 0.19769201 0.722 4287926400
0.021259001 0.19769099 0.722 4287992192
0.023243601 0.197964 0.72299999 4287860864
0.025233399 0.198236 0.72399998 4287992450
0.0272287 0.19850799 0.72500002 4288123778
0.0291487 0.198232 0.72399998 4287992445
0.031106301 0.19823 0.72399998 4288057986
0.033018202 0.197954 0.72299999 4288189572
0.0349246 0.197679 0.722 4287992198
0.0368255 0.197402 0.72100002 4288255113
0.038774699 0.1974 0.72100002 4288189320
0.040780298 0.197671 0.722 4288189320
0.042732101 0.197669 0.722 4287794816
0.044683799 0.197666 0.722 4287860607
0.046635401 0.19766299 0.722 4288124036
0.048654199 0.197934 0.72299999 4287926657
0.0506083 0.19793101 0.72299999 4287663740
0.052489702 0.19765399 0.722 4287795326
0.054365601 0.197377 0.72100002 4287861119
0.056235898 0.1971 0.72000003 4288058498
0.0582624 0.19736999 0.72100002 4288058239
0.060127102 0.197093 0.72000003 4288321410
0.062245 0.19763599 0.722 4288189825
0.064106897 0.197359 0.72100002 4288255875
0.066146404 0.197629 0.722 4288190082
0.068002701 0.19735099 0.72100002 4288321670
0.069950402 0.197347 0.72100002 4288584842
0.071897998 0.19734301 0.72100002 4288584329
0.073948003 0.197612 0.722 4288650635
0.075792901 0.19733401 0.72100002 4288387208
0.077632397 0.197056 0.72000003 4287729792
0.079355799 0.196504 0.71799999 4284572252
0.080841899 0.19540501 0.71399999 4287994518
0.082769901 0.1954 0.71399999 4288521116
0.0850536 0.196217 0.71700001 4288718747
0.087474801 0.19730701 0.72100002 4288915098
0.089545399 0.197575 0.722 4288914584
0.091367804 0.19729701 0.72100002 4289046168
0.093314096 0.197292 0.72100002 4288454031
0.095260203 0.19728699 0.72100002 4288979859
0.097341098 0.197556 0.722 4289769375
0.099427201 0.197824 0.72299999 4288980375
0.101519 0.198092 0.72399998 4288651410
0.103472 0.19808701 0.72399998 4288717203
0.10528 0.197808 0.72299999 4288980891
0.107083 0.197529 0.722 4289506980
0.109182 0.197798 0.72299999 4288849305
0.111286 0.198066 0.72399998 4288716950
0.113396 0.19833399 0.72500002 4288585619
0.115352 0.198329 0.72500002 4288651412
0.117145 0.19805001 0.72399998 4289243294
0.118934 0.197771 0.72299999 4288716952
0.120884 0.19776499 0.72299999 4289309089
0.123003 0.198033 0.72399998 4288914845
0.125301 0.198575 0.72600001 4288717211
0.127083 0.198296 0.72500002 4289111710
0.12886 0.198017 0.72399998 4288848538
0.130632 0.19773801 0.72299999 4287597955
0.132764 0.19800501 0.72399998 4287992452
0.135088 0.19854701 0.72600001 4287532154
0.137234 0.198815 0.727 4287795326
0.139194 0.198809 0.727 4288058498
0.14115401 0.19880401 0.727 4288584842
0.143113 0.198799 0.727 4288650380
0.145273 0.199067 0.72799999 4288716173
0.14703199 0.198788 0.727 4288650380
0.14878701 0.19850899 0.72600001 4286742385
0.151159 0.19905099 0.72799999 4287005046
0.15312099 0.199045 0.72799999 4288715664
0.155296 0.199313 0.72899997 4288255113
0.15726 0.19930799 0.72899997 4288321163
0.159661 0.19984999 0.73100001 4288255370
0.161631 0.199845 0.73100001 4287926405
0.163377 0.19956701 0.73000002 4288321163
0.16511799 0.199288 0.72899997 4288124038
0.167311 0.19955701 0.73000002 4287795073
0.16951001 0.199826 0.73100001 4287926657
0.17171399 0.200094 0.73199999 4288190084
0.17344899 0.199816 0.73100001 4288255877
0.175179 0.19953901 0.73000002 4287992705
0.177146 0.199534 0.73000002 4287203187
0.179603 0.200077 0.73199999 4287334773
0.18232 0.200893 0.73500001 4288190082
0.184551 0.201162 0.736 4288979598
0.186534 0.201158 0.736 4288979600
0.188518 0.20115399 0.736 4288782221
0.191019 0.20169701 0.73799998 4288781966
0.192746 0.20141999 0.73699999 4288387722
0.19446801 0.20114399 0.736 4288453517
0.19618399 0.200867 0.73500001 4288519310
0.198165 0.200864 0.73500001 4288847761
0.20041899 0.20113499 0.736 4288584589
0.202402 0.201132 0.736 4288584589
0.20466401 0.20140301 0.73699999 4287992450
0.20693099 0.201674 0.73799998 4288057985
0.209204 0.20194501 0.73900002 4287729274
0.21119601 0.201943 0.73900002 4287597688
0.21318901 0.201941 0.73900002 4287860606
0.215473 0.202213 0.74000001 4287794813
0.21746901 0.20221099 0.74000001 4288321417
0.21916801 0.201937 0.73900002 4288386956
0.221461 0.202209 0.74000001 4288452749
0.22345699 0.202208 0.74000001 4288453003
0.225454 0.202208 0.74000001 4288453003
0.227143 0.20193399 0.73900002 4288650382
0.22944801 0.202208 0.74000001 4288189829
0.231758 0.202481 0.741 4288321415
0.233758 0.202481 0.741 4288453256
0.235441 0.202209 0.74000001 4288124291
0.23743901 0.20220999 0.74000001 4288059012
0.239114 0.201938 0.73900002 4287993219
0.241437 0.202213 0.74000001 4287926920
0.243765 0.20248801 0.741 4288057992
0.245768 0.20249 0.741 4287794819
0.24777099 0.202493 0.741 4287926912
0.25011101 0.202769 0.74199998 4288255877
0.25211799 0.20277201 0.74199998 4288453001
0.25481001 0.20332199 0.74400002 4287795326
0.256477 0.203052 0.74299997 4287729533
0.258488 0.20305599 0.74299997 4287992705
0.26014799 0.202787 0.74199998 4288058498
0.26251099 0.20306499 0.74299997 4287992705
0.264523 0.20307 0.74299997 4288189829
0.266177 0.202803 0.74199998 4288124038
0.268188 0.20280799 0.74199998 4287992966
0.27056301 0.203088 0.74299997 4287729792
0.273312 0.203641 0.745 4287927426
0.275702 0.203922 0.74599999 4288321670
0.27772599 0.20392901 0.74599999 4288255877
0.279376 0.20366301 0.745 4288058496
0.28139901 0.20367201 0.745 4287926912
0.28342301 0.20367999 0.745 4287926912
0.285447 0.20368899 0.745 4288058498
0.28747201 0.20369899 0.745 4287861119
0.288721 0.203162 0.74299997 4287400568
0.29074201 0.203172 0.74299997 4287597947
0.29276499 0.203183 0.74299997 4287466361
0.294788 0.20319401 0.74299997 4287268727
0.296812 0.203206 0.74299997 4287334520
0.29883701 0.203218 0.74299997 4287071862
0.30045801 0.202957 0.74199998 4287203448
0.30289 0.203244 0.74299997 4287401082
0.30491799 0.20325799 0.74299997 4287466875
0.30735999 0.203546 0.74400002 4287269496
0.30897701 0.20328701 0.74299997 4287467389
0.31058899 0.20302901 0.74199998 4287533182
0.312619 0.203044 0.74199998 4287467389
0.31465 0.203061 0.74199998 4287072631
0.316255 0.202804 0.741 4287665283
0.317855 0.202548 0.74000001 4287073146
0.320317 0.202839 0.741 4287401857
0.32278401 0.203132 0.74199998 4287533443
0.325259 0.20342401 0.74299997 4287401597
0.32686001 0.20317 0.74199998 4286875252
0.328899 0.203191 0.74199998 4286019943
0.33049399 0.20293801 0.741 4285690978
0.33253399 0.20296 0.741 4285690978
0.33502701 0.203256 0.74199998 4285361499
0.33752599 0.20355199 0.74299997 4284638290
0.33957601 0.203576 0.74299997 4283716682
0.34070799 0.203052 0.741 4283125052
0.343218 0.20335101 0.74199998 4283585603
0.34527001 0.20337699 0.74199998 4283585603
0.34779099 0.203677 0.74299997 4283848774
0.34890699 0.20315599 0.741 4285098841
0.350961 0.203183 0.741 4285559392
0.352541 0.20293701 0.74000001 4285690464
0.35411701 0.202692 0.73900002 4286808945
0.35617101 0.202722 0.73900002 4287204217
0.35822701 0.20275199 0.73900002 4288059527
0.36077201 0.203058 0.74000001 4288124805
0.36283499 0.20309 0.74000001 4287993733
0.36539301 0.20339701 0.741 4288322184
0.36696601 0.20315599 0.74000001 4287598459
0.368536 0.202916 0.73900002 4288387463
0.37060499 0.202951 0.73900002 4288124291
0.372675 0.202987 0.73900002 4288124038
0.37474799 0.203023 0.73900002 4288190588
0.37580299 0.202511 0.73699999 4287599219
0.378387 0.20282499 0.73799998 4287073145
0.38046399 0.20286401 0.73799998 4283058762
0.38358 0.203454 0.74000001 4287468409
0.38618901 0.20377 0.741 4288258177
0.388805 0.204087 0.74199998 4288190588
0.39090401 0.20412999 0.74199998 4288124793
0.393004 0.204174 0.74199998 4287927932
0.394575 0.203944 0.741 4287862139
0.39560801 0.203439 0.73900002 4288256897
0.39717001 0.20321 0.73799998 4287796091
0.39927101 0.20325799 0.73799998 4287598712
0.40191799 0.203582 0.73900002 4287861372
0.40457401 0.203907 0.74000001 4287861372
0.40723801 0.20423301 0.741 4288321668
0.40880701 0.204009 0.74000001 4288058751
0.410373 0.203786 0.73900002 4287597945
0.41193601 0.203564 0.73799998 4287729533
0.414058 0.203619 0.73799998 4287992705
0.41618299 0.203675 0.73799998 4288190084
0.41887799 0.204008 0.73900002 4287795326
0.421583 0.20434199 0.74000001 4287729531
0.423724 0.204401 0.74000001 4287729786
0.425293 0.20418601 0.73900002 4287795577
0.42801699 0.204523 0.74000001 4287466867
0.43075001 0.204863 0.741 4287795832
0.43290901 0.204927 0.741 4287861370
0.43507099 0.204992 0.741 4287532407
0.43664801 0.20478199 0.74000001 4287861372
0.439408 0.205126 0.741 4287598198
0.44217801 0.20547201 0.74199998 4287663993
0.44495901 0.205819 0.74299997 4287466102
0.44714701 0.205891 0.74299997 4287992446
0.448735 0.205687 0.74199998 4287925885
0.45093 0.205761 0.74199998 4287860092
0.45251799 0.205559 0.741 4287860092
0.45471799 0.20563599 0.741 4287663481
0.45753899 0.205992 0.74199998 4287926653
0.45975199 0.206072 0.74199998 4287861372
0.46383601 0.206986 0.745 4287926910
0.46606699 0.20706899 0.745 4287861372
0.467675 0.20687599 0.74400002 4288059012
0.46928099 0.20668299 0.74299997 4287532154
0.47152099 0.20677 0.74299997 4287334516
0.47504199 0.207416 0.745 4286873450
0.47793901 0.207785 0.74599999 4287531381
0.48020399 0.207877 0.74599999 4288058238
0.482474 0.20796999 0.74599999 4288190078
0.484101 0.20778701 0.745 4287729527
0.48507401 0.20732599 0.74299997 4287664246
0.48604 0.206865 0.741 4287795830
0.48897699 0.20724399 0.74199998 4287730039
0.491265 0.20734601 0.74199998 4287795832
0.49621901 0.20856699 0.74599999 4287598453
0.49986699 0.209232 0.74800003 4287729786
-0.198612 0.198883 0.73500001 4289637799
-0.196364 0.198615 0.73400003 4289440420
-0.19438601 0.19861899 0.73400003 4289374112
-0.192408 0.198622 0.73400003 4289374366
-0.19094899 0.199167 0.736 4289373852
-0.18896601 0.19917101 0.736 4289045401
-0.186983 0.199175 0.736 4289440159
-0.185 0.19917899 0.736 4289440934
-0.182768 0.19891199 0.73500001 4289770154
-0.180788 0.198916 0.73500001 4289703845
-0.17880701 0.19892099 0.73500001 4289045915
-0.176827 0.198925 0.73500001 4289242779
-0.17532299 0.199471 0.73699999 4289308572
-0.17310201 0.199205 0.736 4289374882
-0.171584 0.199751 0.73799998 4289506468
-0.169595 0.199756 0.73799998 4289703592
-0.166925 0.19894899 0.73500001 4289572006
-0.16494501 0.198954 0.73500001 4289373851
-0.162965 0.19895899 0.73500001 4288189831
-0.161422 0.199506 0.73699999 4288584587
-0.15922 0.19924 0.736 4288254850
-0.157023 0.198975 0.73500001 4288781194
-0.15483101 0.198709 0.73400003 4288781194
-0.15327001 0.199256 0.736 4288912780
-0.151492 0.199532 0.73699999 4288583815
-0.149506 0.19953801 0.73699999 4289110674
-0.14751901 0.199543 0.73699999 4289110674
-0.145533 0.199549 0.73699999 4289110674
-0.14315701 0.19901299 0.73500001 4289308055
-0.141176 0.199019 0.73500001 4288979090
-0.139194 0.19902401 0.73500001 4288123527
-0.13777301 0.19984201 0.73799998 4289110422
-0.135415 0.199306 0.736 4289242265
-0.133431 0.199312 0.736 4288913043
-0.131089 0.19877601 0.73400003 4289242008
-0.12910999 0.198782 0.73400003 4288321163
-0.127131 0.198787 0.73400003 4288584078
-0.125322 0.199064 0.73500001 4288649871
-0.123172 0.198799 0.73400003 4288255113
-0.121027 0.198534 0.73299998 4288650125
-0.11905 0.198539 0.73299998 4288912529
-0.117393 0.19908699 0.73500001 4288123528
-0.115567 0.19936299 0.736 4288715665
-0.113581 0.199369 0.736 4289307805
-0.111293 0.19883201 0.73400003 4289505184
-0.109163 0.198567 0.73299998 4289243294
-0.107039 0.198301 0.73199999 4289111708
-0.105207 0.198578 0.73299998 4289243294
-0.103229 0.19858301 0.73299998 4289045915
-0.101251 0.198588 0.73299998 4289045915
-0.099543698 0.199136 0.73500001 4289374365
-0.097692601 0.199412 0.736 4289045400
-0.095705897 0.199417 0.736 4288980377
-0.093719102 0.199422 0.736 4289375135
-0.091607504 0.199156 0.73500001 4289177501
-0.089379303 0.19861899 0.73299998 4289374882
-0.087042399 0.19781099 0.73000002 4289308319
-0.0851878 0.19808701 0.73100001 4289308573
-0.083327703 0.19836301 0.73199999 4289374366
-0.081239797 0.19809601 0.73100001 4289439905
-0.079048701 0.197559 0.72899997 4289177503
-0.076973997 0.197293 0.72799999 4289177248
-0.075110704 0.197568 0.72899997 4289242527
-0.0731415 0.19757199 0.72899997 4289045401
-0.071074598 0.19730601 0.72799999 4289045915
-0.069107898 0.19731 0.72799999 4289440159
-0.067048803 0.197043 0.727 4289505952
-0.064905599 0.196505 0.72500002 4289177503
-0.062946603 0.19650801 0.72500002 4289111710
-0.0609034 0.19624101 0.72399998 4289309089
-0.058947001 0.196245 0.72399998 4289045917
-0.056911699 0.195977 0.72299999 4289243294
-0.0549578 0.195981 0.72299999 4289243294
-0.053077001 0.196255 0.72399998 4289572261
-0.051261399 0.19680101 0.72600001 4289572006
-0.049231201 0.19653299 0.72500002 4289374627
-0.047141001 0.19599301 0.72299999 4289374627
-0.045124099 0.19572499 0.722 4289308834
-0.0431723 0.195728 0.722 4288980383
-0.041277599 0.19600201 0.72299999 4289441189
-0.039268501 0.195733 0.722 4289441189
-0.037368201 0.196007 0.72299999 4289441187
-0.035364401 0.195738 0.722 4289178015
-0.0334123 0.19574 0.722 4289375396
-0.031416502 0.195471 0.72100002 4289309089
-0.029507799 0.19574399 0.722 4289243041
-0.027555401 0.195746 0.722 4289111455
-0.025567601 0.19547699 0.72100002 4289440420
-0.0235851 0.195207 0.72000003 4289111710
-0.021638 0.195209 0.72000003 4289243296
-0.019718301 0.195481 0.72100002 4289045915
-0.0177438 0.19521099 0.72000003 4288783257
-0.0157966 0.19521201 0.72000003 4288717464
-0.0138301 0.194942 0.71899998 4288980636
-0.0119021 0.195214 0.72000003 4288717719
-0.0099271899 0.194673 0.71799999 4288651926
-0.0079630697 0.194131 0.71600002 4288914329
-0.0060181599 0.19385999 0.71499997 4288980122
-0.0040958002 0.19440299 0.71700001 4288519057
-0.0021625999 0.19494601 0.71899998 4288452749
-0.000218278 0.195217 0.72000003 4288518542
0.0017266501 0.19494601 0.71899998 4288123784
0.00367638 0.195217 0.72000003 4288321417
0.00561589 0.19494499 0.71899998 4288321417
0.0075815199 0.19548699 0.72100002 4288124038
0.0095183002 0.195215 0.72000003 4287992450
0.0114656 0.195214 0.72000003 4287860866
0.0133756 0.19467101 0.71799999 4287729280
0.0152747 0.19412801 0.71600002 4287795071
0.0172351 0.194398 0.71700001 4287926659
0.0191742 0.194397 0.71700001 4287926657
0.0211132 0.194396 0.71700001 4288057986
0.0230843 0.194665 0.71799999 4287860864
0.0250259 0.194664 0.71799999 4287926400
0.027005101 0.194933 0.71899998 4287992192
0.0289896 0.19520301 0.72000003 4288189572
0.0309365 0.19520099 0.72000003 4288255622
0.032883301 0.195199 0.72000003 4288189831
0.03483 0.195196 0.72000003 4287926405
0.0367257 0.194923 0.71899998 4287794820
0.038723402 0.19519199 0.72000003 4287729027
0.040613402 0.19491801 0.71899998 4287597441
0.042557199 0.194915 0.71899998 4287926148
0.044438999 0.19464201 0.71799999 4288123011
0.046250701 0.194097 0.71600002 4287860609
0.048253398 0.19436499 0.71700001 4287729023
0.050191499 0.194362 0.71700001 4287860864
0.052129399 0.19435801 0.71700001 4287663485
0.053991899 0.194084 0.71600002 4287926657
0.0558488 0.19381 0.71499997 4288057985
0.0579427 0.19434801 0.71700001 4287860860
0.059796698 0.194074 0.71600002 4287795066
0.061903901 0.194612 0.71799999 4287860859
0.063754998 0.194337 0.71700001 4287860859
0.065692298 0.194333 0.71700001 4288189571
0.067535102 0.194058 0.71600002 4287926399
0.069372401 0.193783 0.71499997 4288123778
0.071303897 0.19377901 0.71499997 4288189571
0.073337696 0.19404601 0.71600002 4288123778
0.075271703 0.194041 0.71600002 4287992450
0.077205501 0.19403701 0.71600002 4287335813
0.078807697 0.19322 0.713 4284440666
0.080280297 0.192131 0.70899999 4287336842
0.082078896 0.191855 0.708 4288323737
0.0843466 0.192664 0.71100003 4288981153
0.086751603 0.19374301 0.71499997 4289112222
0.0888061 0.19400901 0.71600002 4288849305
0.090739101 0.194004 0.71600002 4288848789
0.092671901 0.19399901 0.71600002 4288782996
0.0947368 0.19426499 0.71700001 4288848273
0.096806899 0.19453099 0.71799999 4289571996
0.098744802 0.194526 0.71799999 4288717203
0.100963 0.195062 0.72000003 4288848789
0.102763 0.194786 0.71899998 4288782998
0.104558 0.19451 0.71799999 4288783257
0.106198 0.19396301 0.71600002 4289507750
0.108432 0.194499 0.71799999 4289704359
0.110523 0.194765 0.71899998 4289309856
0.112463 0.194759 0.71899998 4288717203
0.114243 0.194483 0.71799999 4288651664
0.11618 0.19447801 0.71799999 4289243031
0.118281 0.19474301 0.71899998 4288782998
0.120387 0.19500799 0.72000003 4289046429
0.122329 0.195003 0.72000003 4288783259
0.124443 0.19526801 0.72100002 4288585880
0.126388 0.195262 0.72100002 4289177503
0.128332 0.19525699 0.72100002 4288650643
0.129914 0.19471 0.71899998 4287531647
0.132036 0.194975 0.72000003 4288124036
0.13416401 0.19524001 0.72100002 4287795326
0.136296 0.19550499 0.722 4287795326
0.13824201 0.1955 0.722 4288190084
0.14018901 0.195494 0.722 4288190084
0.142528 0.19603001 0.72399998 4288519308
0.14448 0.196025 0.72399998 4288913554
0.146229 0.195749 0.72299999 4287926659
0.147972 0.195472 0.722 4286807924
0.150333 0.196009 0.72399998 4286741875
0.15228499 0.196003 0.72399998 4288847251
0.154236 0.195998 0.72399998 4288386957
0.15640201 0.196263 0.72500002 4288452750
0.158793 0.19679999 0.727 4287794819
0.160752 0.196795 0.727 4288123784
0.162487 0.196519 0.72600001 4288124038
0.164216 0.196243 0.72500002 4288189831
0.166628 0.19678 0.727 4287926659
0.168819 0.197046 0.72799999 4287860864
0.17125 0.19758201 0.73000002 4288189829
0.172979 0.19730701 0.72899997 4287926657
0.174943 0.197302 0.72899997 4287992705
0.176907 0.19729801 0.72899997 4287926910
0.17911699 0.19756401 0.73000002 4287268980
0.18158001 0.198101 0.73199999 4288124289
0.18380301 0.198368 0.73299998 4288124291
0.186031 0.198634 0.73400003 4288124291
0.18800899 0.19863001 0.73400003 4288124036
0.190246 0.198897 0.73500001 4288387210
0.192488 0.199164 0.736 4288518796
0.194207 0.19889 0.73500001 4288321931
0.195921 0.198616 0.73400003 4288387724
0.197629 0.198342 0.73299998 4288584587
0.199604 0.198339 0.73299998 4288255622
0.20158 0.19833601 0.73299998 4288321415
0.203833 0.198604 0.73400003 4288321415
0.205532 0.198331 0.73299998 4288452743
0.208074 0.19887 0.73500001 4288123778
0.210627 0.19940899 0.73699999 4288058491
0.21290199 0.199678 0.73799998 4288124284
0.215183 0.199946 0.73900002 4287663740
0.21717601 0.199945 0.73900002 4287729280
0.21887299 0.199673 0.73799998 4287268475
0.22056399 0.19940101 0.73699999 4286939764
0.222854 0.199671 0.73799998 4287334522
0.22484501 0.19967 0.73799998 4287794819
0.226836 0.19967 0.73799998 4287926405
0.228517 0.19939899 0.73699999 4288650382
0.230506 0.19939899 0.73699999 4288453003
0.23249599 0.19939899 0.73699999 4288650896
0.23416699 0.199129 0.736 4288519308
0.236155 0.19913 0.736 4288387724
0.23846599 0.19940101 0.73699999 4288650894
0.241109 0.199944 0.73900002 4288387722
0.24310499 0.199945 0.73900002 4288518794
0.245102 0.199947 0.73900002 4288782221
0.247099 0.199949 0.73900002 4288387463
0.249097 0.19995201 0.73900002 4288453256
0.25143501 0.200225 0.74000001 4288519049
0.25377899 0.200499 0.741 4288453001
0.255438 0.200232 0.74000001 4288321415
0.257092 0.199965 0.73900002 4288255877
0.259092 0.19996899 0.73900002 4288321670
0.26179901 0.200515 0.741 4288321670
0.26380599 0.20051999 0.741 4288189831
0.26473701 0.19971301 0.73799998 4287992452
0.266736 0.199718 0.73799998 4288190091
0.26910099 0.199995 0.73900002 4288124552
0.27147099 0.20027199 0.74000001 4287927171
0.273478 0.200278 0.74000001 4288387722
0.27548501 0.200285 0.74000001 4287861119
0.277118 0.200022 0.73900002 4287663740
0.27912399 0.20003 0.73900002 4287729533
0.28151199 0.20030899 0.74000001 4287795326
0.28352201 0.20031799 0.74000001 4288321668
0.28553301 0.20032699 0.74000001 4287861372
0.28676799 0.19979499 0.73799998 4287795324
0.28916699 0.200075 0.73900002 4287729531
0.29117799 0.200086 0.73900002 4287795326
0.29318899 0.20009699 0.73900002 4287597947
0.29560199 0.200379 0.74000001 4287729533
0.297618 0.20039 0.74000001 4287795071
0.29963499 0.200403 0.74000001 4287992452
0.30206099 0.20068599 0.741 4287400313
0.30449301 0.20096999 0.74199998 4287729533
0.306519 0.200984 0.74199998 4287795071
0.30854601 0.20099901 0.74199998 4287860864
0.309737 0.200472 0.74000001 4287926912
0.31133899 0.200216 0.73900002 4288058498
0.31293699 0.19996101 0.73799998 4288124291
0.31495699 0.199977 0.73799998 4288058498
0.31697899 0.199994 0.73799998 4288255877
0.31943399 0.20028199 0.73900002 4288255622
0.32189599 0.200572 0.74000001 4287860864
0.32348901 0.20031901 0.73900002 4288124036
0.32551801 0.20033801 0.73900002 4288124036
0.327106 0.200087 0.73799998 4288058757
0.32958099 0.200379 0.73900002 4287927171
0.331615 0.20039999 0.73900002 4287861380
0.33410099 0.200692 0.74000001 4288124552
0.335686 0.200443 0.73900002 4287730310
0.33726701 0.200195 0.73799998 4287532931
0.339304 0.20021901 0.73799998 4287730308
0.34180501 0.200514 0.73900002 4287729794
0.34384799 0.20053899 0.73900002 4287335289
0.346829 0.201107 0.741 4287401082
0.34746799 0.20031901 0.73799998 4287401335
0.349987 0.200618 0.73900002 4286809198
0.35156 0.20037401 0.73799998 4285887843
0.35408801 0.200674 0.73900002 4285822050
0.35565901 0.200431 0.73799998 4285493599
0.357712 0.200461 0.73799998 4284637786
0.36074099 0.20103499 0.74000001 4284571740
0.36280301 0.201066 0.74000001 4284374361
0.364867 0.201098 0.74000001 4283519295
0.36594099 0.200587 0.73799998 4283453500
0.36800301 0.20062099 0.73799998 4283979593
0.37006801 0.200655 0.73799998 4284177225
0.371631 0.20041899 0.73699999 4284703063
0.37318999 0.20018201 0.736 4284769360
0.37474599 0.199947 0.73500001 4284638280
0.37732399 0.200257 0.736 4285099094
0.37939399 0.200295 0.736 4285164642
0.38198501 0.200607 0.73699999 4283059772
0.38406301 0.200647 0.73699999 4288850576
0.38562 0.200416 0.736 4287533949
0.388753 0.201002 0.73799998 4287402364
0.39084199 0.20104501 0.73799998 4287204215
0.39293301 0.20108899 0.73799998 4287533435
0.39342099 0.200316 0.73500001 4287862400
0.39497101 0.20008899 0.73400003 4287795838
0.3976 0.200408 0.73500001 4287795838
0.40078199 0.201001 0.73699999 4287861631
0.40288401 0.20105 0.73699999 4287533182
0.40553901 0.201372 0.73799998 4287665274
0.407098 0.20115 0.73699999 4287927424
0.40921 0.20120201 0.73699999 4287598459
0.41020799 0.200708 0.73500001 4287269496
0.41288099 0.20103499 0.736 4287401082
0.41443601 0.20081601 0.73500001 4287795326
0.418255 0.201692 0.73799998 4287729533
0.420385 0.201749 0.73799998 4287795324
0.42252001 0.20180701 0.73799998 4287663993
0.42408201 0.201593 0.73699999 4288124542
0.42622 0.201653 0.73699999 4287729784
0.42894399 0.201989 0.73799998 4287663991
0.43167701 0.202325 0.73900002 4287993211
0.433245 0.202115 0.73799998 4287795324
0.434811 0.201906 0.73699999 4287861117
0.43756199 0.20224699 0.73799998 4287992703
0.44032201 0.20258801 0.73900002 4287861117
0.44249299 0.202657 0.73900002 4287532154
0.44466901 0.202727 0.73900002 4287334262
0.446244 0.202525 0.73799998 4287794813
0.44842499 0.20259701 0.73799998 4287991678
0.44999999 0.202397 0.73699999 4287531641
0.452187 0.202472 0.73699999 4287926653
0.45499501 0.202823 0.73799998 4287466359
0.45781299 0.20317601 0.73900002 4287466614
0.461887 0.204081 0.74199998 4287334773
0.464733 0.204437 0.74299997 4287532152
0.46570501 0.20397 0.741 4287203189
0.46666899 0.203503 0.73900002 4287400568
0.46952999 0.20386399 0.74000001 4287992192
0.47367799 0.204777 0.74299997 4287596920
0.476567 0.20514201 0.74400002 4287465587
0.47882399 0.20523199 0.74400002 4287465841
0.480441 0.20504899 0.74299997 4287662453
0.48140699 0.20458999 0.741 4287597426
0.48301899 0.204408 0.74000001 4287532401
0.48397499 0.203952 0.73799998 4287597687
0.48756 0.204603 0.74000001 4287532656
0.48983899 0.204702 0.74000001 4287861112
0.49345499 0.205357 0.74199998 4287598194
0.49575201 0.20546 0.74199998 4287663481
0.49805599 0.20556501 0.74199998 4287334516
-0.19977701 0.196095 0.73199999 4289638568
-0.197805 0.196098 0.73199999 4290164398
-0.195832 0.19610199 0.73199999 4289309089
-0.194125 0.196373 0.73299998 4289703331
-0.19215 0.19637699 0.73299998 4289308572
-0.19043399 0.196648 0.73400003 4289505438
-0.187943 0.196116 0.73199999 4289242780
-0.18597101 0.19611999 0.73199999 4289243296
-0.18374699 0.195856 0.73100001 4289375396
-0.182026 0.19612899 0.73199999 4290033065
-0.18005399 0.196133 0.73199999 4289572514
-0.178325 0.19640499 0.73299998 4288848791
-0.17659099 0.196678 0.73400003 4289637537
-0.175089 0.197219 0.736 4289308573
-0.173106 0.19722299 0.736 4289572006
-0.170891 0.19696 0.73500001 4289440420
-0.168911 0.19696499 0.73500001 4289308834
-0.166476 0.19643401 0.73299998 4289506213
-0.16405199 0.195903 0.73100001 4288518543
-0.162083 0.19590899 0.73100001 4288321417
-0.16077 0.19671801 0.73400003 4288518537
-0.158793 0.196723 0.73400003 4288978573
-0.15681501 0.196729 0.73400003 4288715401
-0.154626 0.196466 0.73299998 4288912780
-0.15244199 0.19620299 0.73199999 4289110159
-0.15047 0.196209 0.73199999 4288715915
-0.1487 0.196483 0.73299998 4289373845
-0.146924 0.19675601 0.73400003 4289110674
-0.144749 0.196494 0.73299998 4289242260
-0.142773 0.196499 0.73299998 4289110674
-0.14098901 0.19677299 0.73400003 4288913297
-0.139011 0.196779 0.73400003 4288189320
-0.137032 0.196785 0.73400003 4289044629
-0.13486899 0.196522 0.73299998 4288650128
-0.13271201 0.19626001 0.73199999 4289044886
-0.13073801 0.196266 0.73199999 4289044886
-0.128764 0.196271 0.73199999 4288847761
-0.12679 0.19627699 0.73199999 4288650128
-0.124816 0.196283 0.73199999 4288913300
-0.12301 0.196557 0.73299998 4288452746
-0.121033 0.19656201 0.73299998 4288913297
-0.119056 0.196568 0.73299998 4288386953
-0.117079 0.196574 0.73299998 4287860355
-0.115101 0.19657899 0.73299998 4289242266
-0.112815 0.196049 0.73100001 4289570977
-0.110692 0.195786 0.73000002 4289439905
-0.108722 0.19579101 0.73000002 4289177503
-0.106752 0.195797 0.73000002 4289111708
-0.104639 0.19553401 0.72899997 4289243294
-0.102671 0.19554 0.72899997 4289374880
-0.100704 0.195545 0.72899997 4289242779
-0.098871797 0.19581801 0.73000002 4289242779
-0.097034097 0.19609199 0.73100001 4289308572
-0.0950609 0.196097 0.73100001 4289308572
-0.093087502 0.19610199 0.73100001 4289177756
-0.090989403 0.195839 0.73000002 4289243294
-0.088896498 0.195576 0.72899997 4289439905
-0.086689599 0.195044 0.727 4289308319
-0.084843002 0.195317 0.72799999 4289505698
-0.0828771 0.19532201 0.72799999 4289242526
-0.0806887 0.19479001 0.72600001 4289176733
-0.078619502 0.194526 0.72500002 4289308319
-0.076661304 0.19453099 0.72500002 4289439905
-0.074805997 0.194804 0.72600001 4289374112
-0.072744504 0.19453999 0.72500002 4288848536
-0.0706883 0.19427601 0.72399998 4289111708
-0.068637297 0.194011 0.72299999 4289111193
-0.066591702 0.193747 0.722 4289176986
-0.064461797 0.193214 0.72000003 4289111708
-0.062516302 0.19321799 0.72000003 4289243294
-0.060486499 0.192954 0.71899998 4289177501
-0.0585435 0.192957 0.71899998 4289111708
-0.056521598 0.192693 0.71799999 4289045915
-0.054581098 0.19269601 0.71799999 4288980122
-0.052787099 0.19323599 0.72000003 4289111455
-0.050911602 0.193508 0.72100002 4289308834
-0.0488947 0.193242 0.72000003 4289045662
-0.046817999 0.192709 0.71799999 4289308834
-0.044814501 0.192443 0.71700001 4288979869
-0.0428163 0.192178 0.71600002 4289374627
-0.040937599 0.192449 0.71700001 4289046176
-0.038999099 0.192451 0.71700001 4289111969
-0.037163801 0.192991 0.71899998 4289375394
-0.035121799 0.19245601 0.71700001 4289243808
-0.033183001 0.192458 0.71700001 4288980638
-0.031200601 0.192192 0.71600002 4289178017
-0.0293462 0.19273099 0.71799999 4288914590
-0.0273664 0.19246399 0.71700001 4289243555
-0.025356499 0.191929 0.71499997 4289243555
-0.023422901 0.19193099 0.71499997 4289309089
-0.021519201 0.192201 0.71600002 4289177503
-0.0196102 0.19247 0.71700001 4289309089
-0.0176217 0.191935 0.71499997 4289440675
-0.0156879 0.191936 0.71499997 4289309603
-0.0137349 0.191668 0.71399999 4289178017
-0.0118202 0.191938 0.71499997 4289178017
-0.00988637 0.191938 0.71499997 4288914845
-0.0079302303 0.191402 0.713 4289178017
-0.00600173 0.191402 0.713 4289243296
-0.0040675001 0.19113401 0.71200001 4289177501
-0.0021476999 0.191671 0.71399999 4288980122
-0.000216777 0.19193999 0.71499997 4288848536
0.00171716 0.19193999 0.71499997 4288716952
0.00365109 0.19193999 0.71499997 4288979354
0.0055772001 0.191671 0.71399999 4288847768
0.0075189299 0.191939 0.71499997 4288980124
0.0094528198 0.191938 0.71499997 4289045915
0.0113867 0.191938 0.71499997 4288650643
0.0133019 0.191668 0.71399999 4288848021
0.015169 0.190862 0.71100003 4288782228
0.0171161 0.19113 0.71200001 4288650643
0.019014999 0.19086 0.71100003 4288782228
0.020967299 0.191127 0.71200001 4288453264
0.0228929 0.191126 0.71200001 4288650643
0.0248533 0.191392 0.713 4288584336
0.026819 0.191659 0.71399999 4288386957
0.0288304 0.192194 0.71600002 4288386703
0.030766601 0.192192 0.71600002 4288386957
0.032657001 0.19192199 0.71499997 4288124299
0.034590401 0.19192 0.71499997 4288255631
0.0365237 0.191917 0.71499997 4287860873
0.038456898 0.19191501 0.71499997 4287860873
0.040277101 0.191376 0.713 4287531394
0.042263899 0.191641 0.71399999 4287531394
0.0441323 0.19137 0.713 4287465854
0.045995198 0.191099 0.71200001 4287465854
0.047852699 0.190828 0.71100003 4287465854
0.049634598 0.19028801 0.70899999 4287334522
0.051550999 0.190285 0.70899999 4287465854
0.0535427 0.19055 0.70999998 4287663233
0.055461701 0.19054601 0.70999998 4287926659
0.057542201 0.19108 0.71200001 4287795071
0.059466299 0.191076 0.71200001 4287729533
0.061562799 0.191609 0.71399999 4287597945
0.063403197 0.191337 0.713 4287861119
0.065238103 0.191065 0.71200001 4287466361
0.067067496 0.19079199 0.71100003 4287466108
0.068794303 0.19025099 0.70899999 4287400315
0.070709698 0.190247 0.70899999 4287926405
0.072829902 0.19078 0.71100003 4287992198
0.074750401 0.19077501 0.71100003 4288057992
0.076670803 0.190771 0.71100003 4287203458
0.078259498 0.189962 0.708 4284967780
0.079605401 0.18861599 0.70300001 4289178532
0.0813879 0.188343 0.70200002 4288455323
0.083639503 0.189143 0.70499998 4289046946
0.085907102 0.189943 0.708 4288717980
0.088066697 0.190475 0.70999998 4288586648
0.090110302 0.19073801 0.71100003 4288651926
0.092159197 0.191001 0.71200001 4288848789
0.094081201 0.19099601 0.71200001 4288914836
0.096137904 0.191259 0.713 4288783250
0.098199897 0.191523 0.71399999 4288585617
0.100127 0.191517 0.71399999 4288914584
0.102054 0.191512 0.71399999 4288651926
0.103689 0.19097 0.71200001 4288585878
0.105462 0.190697 0.71100003 4289639083
0.107531 0.19096 0.71200001 4289573290
0.10976 0.19149099 0.71399999 4288981406
0.111686 0.191485 0.71399999 4288388754
0.113453 0.191211 0.713 4288585870
0.115376 0.19120599 0.713 4289309594
0.117629 0.191737 0.71499997 4288783510
0.119724 0.191999 0.71600002 4289112477
0.121655 0.191994 0.71600002 4288783257
0.123413 0.19171999 0.71499997 4289046431
0.125342 0.191714 0.71499997 4289374882
0.12744699 0.19197699 0.71600002 4288782743
0.129197 0.19170301 0.71499997 4287532161
0.131308 0.191966 0.71600002 4287992450
0.133239 0.19196001 0.71600002 4287992450
0.135169 0.191954 0.71600002 4287992450
0.13729 0.19221701 0.71700001 4288387210
0.13922299 0.192211 0.71700001 4288189829
0.141746 0.19301 0.72000003 4288584589
0.14368699 0.193005 0.72000003 4288321417
0.14562701 0.19299901 0.72000003 4287071350
0.147158 0.192458 0.71799999 4288057988
0.149508 0.19298799 0.72000003 4288518285
0.151659 0.193251 0.72100002 4287991689
0.153602 0.19324499 0.72100002 4288847507
0.155976 0.193776 0.72299999 4288518542
0.157924 0.193771 0.72299999 4287729280
0.159872 0.193766 0.72299999 4288321417
0.161597 0.19349299 0.722 4288255622
0.163995 0.194024 0.72399998 4288386951
0.16594601 0.194019 0.72399998 4288123779
0.167896 0.194014 0.72399998 4287926657
0.169847 0.19400901 0.72399998 4288189829
0.172272 0.19453999 0.72600001 4288124038
0.174228 0.194535 0.72600001 4288255622
0.176184 0.19453099 0.72600001 4287663487
0.178385 0.194794 0.727 4287400315
0.18084 0.195326 0.72899997 4288124036
0.18255299 0.19505399 0.72799999 4287861378
0.18476801 0.195317 0.72899997 4287927173
0.18673199 0.19531301 0.72899997 4288255624
0.18921401 0.19584499 0.73100001 4288321417
0.19144499 0.196109 0.73199999 4288321417
0.193418 0.196106 0.73199999 4288387210
0.194589 0.195299 0.72899997 4287992450
0.196823 0.195563 0.73000002 4288058498
0.198791 0.19555999 0.73000002 4288058498
0.201033 0.195825 0.73100001 4287992705
0.203003 0.195822 0.73100001 4288387463
0.204412 0.19528399 0.72899997 4287861119
0.206944 0.19581699 0.73100001 4287926912
0.20948599 0.19634999 0.73299998 4288189831
0.21175 0.19661599 0.73400003 4288123784
0.21402 0.19688199 0.73500001 4288189325
0.216002 0.19688 0.73500001 4288386956
0.21798401 0.196879 0.73500001 4288321163
0.219667 0.19660901 0.73400003 4288189831
0.221949 0.196876 0.73500001 4288387210
0.223931 0.19687501 0.73500001 4288452749
0.22560699 0.19660699 0.73400003 4288321163
0.227587 0.196606 0.73400003 4288321163
0.229568 0.196606 0.73400003 4288058505
0.23154899 0.196606 0.73400003 4288189577
0.23353 0.196606 0.73400003 4288519056
0.235833 0.19687501 0.73500001 4288321417
0.237818 0.196876 0.73500001 4288453003
0.239803 0.196877 0.73500001 4288190343
0.242117 0.197146 0.736 4288387977
0.24443699 0.19741599 0.73699999 4288519561
0.247097 0.197953 0.73900002 4288454023
0.24842 0.19742 0.73699999 4288321668
0.25075299 0.19769 0.73799998 4288650633
0.25274801 0.19769301 0.73799998 4288058498
0.25474399 0.197696 0.73799998 4288321415
0.25639299 0.197432 0.73699999 4288321415
0.258387 0.197436 0.73699999 4288387208
0.26073501 0.197708 0.73799998 4288387208
0.26273301 0.197712 0.73799998 4288518796
0.264373 0.197449 0.73699999 4288584589
0.26600799 0.19718599 0.736 4288453263
0.26836601 0.19746 0.73699999 4288453263
0.269997 0.197198 0.736 4288058759
0.27199301 0.19720399 0.736 4288321929
0.273617 0.196943 0.73500001 4288716173
