# .PCD v0.7 - Point Cloud Data file format
VERSION 0.7
FIELDS x y z rgb
SIZE 4 4 4 4
TYPE F F F U
COUNT 1 1 1 1
WIDTH 1088
HEIGHT 1
VIEWPOINT 0 0 0 1 0 0 0
POINTS 1088
DATA ascii
0.33554301 0.056093201 0.62300003 4286940278
0.33728299 0.056102 0.62300003 4287202936
0.33902499 0.056111101 0.62300003 4287466106
0.33967501 0.0559402 0.62099999 4287137141
0.340866 0.055859599 0.62 4286742638
0.34260601 0.055869401 0.62 4287136884
0.34545901 0.0560597 0.62199998 4286940015
0.34720901 0.05607 0.62199998 4287071854
0.3484 0.055990402 0.62099999 4286940268
0.34958801 0.055911001 0.62 4287005808
0.35133901 0.055922098 0.62 4287071603
0.35366201 0.056023698 0.62099999 4287071856
0.35542101 0.056035299 0.62099999 4287531895
0.357757 0.056137498 0.62199998 4286347620
0.35952401 0.056149699 0.62199998 4286676839
0.36129299 0.056162301 0.62199998 4287335026
0.363065 0.056175102 0.62199998 4286676843
0.36366701 0.056007501 0.62 4287203442
0.365439 0.056020901 0.62 4287400821
0.36780599 0.0561249 0.62099999 4286874477
0.36958599 0.056139 0.62099999 4287466612
0.371369 0.056153301 0.62099999 4287137390
0.37375599 0.056258399 0.62199998 4287137649
0.374944 0.056182899 0.62099999 4287005808
0.376737 0.056198101 0.62099999 4286874222
0.377922 0.056123201 0.62 4286216808
0.37971801 0.0561391 0.62 4285099355
0.38274801 0.0563365 0.62199998 4282468149
0.38517401 0.056443799 0.62300003 4286153072
0.38698801 0.056460802 0.62300003 4287732106
0.38942999 0.056568801 0.62400001 4287599752
0.39188099 0.0566773 0.625 4287993488
0.39308199 0.056604698 0.62400001 4288322453
0.394281 0.056532498 0.62300003 4288454809
0.395477 0.0564605 0.62199998 4287862672
0.39730999 0.0564797 0.62199998 4287731600
0.399147 0.056499299 0.62199998 4287994257
0.40163201 0.0566101 0.62300003 4287534220
0.40412799 0.0567213 0.62400001 4287994257
0.40598199 0.056742098 0.62400001 4287731085
0.407188 0.056672301 0.62300003 4287731085
0.408391 0.056602899 0.62199998 4287928978
0.41025299 0.056624901 0.62199998 4287731599
0.41145599 0.056556098 0.62099999 4287731599
0.41265699 0.056487799 0.62 4287862672
0.41452599 0.056510899 0.62 4287928465
0.417743 0.0567169 0.62199998 4287796879
0.41962701 0.056740899 0.62199998 4287993743
0.42151499 0.0567655 0.62199998 4287993741
0.422728 0.056699201 0.62099999 4288125327
0.42530701 0.0568159 0.62199998 4287993482
0.42721099 0.056841802 0.62199998 4288059275
0.42912 0.056868199 0.62199998 4287335552
0.43033999 0.056803599 0.62099999 4287796103
-0.199076 0.054354001 0.62400001 4290099380
-0.19803201 0.0545309 0.62599999 4290296759
-0.196665 0.054620601 0.62699997 4290296759
-0.195292 0.0547105 0.62800002 4290230966
-0.193297 0.0546262 0.62699997 4290296759
-0.19130699 0.054541901 0.62599999 4290099381
-0.18932299 0.054457601 0.625 4290099381
-0.187644 0.054460499 0.625 4290033588
-0.185965 0.054463498 0.625 4289967795
-0.184287 0.0544664 0.625 4290099381
-0.18231601 0.054382298 0.62400001 4289836722
-0.18092901 0.054472599 0.625 4289836976
-0.17925 0.054475699 0.625 4289704622
-0.177571 0.054478802 0.625 4289836208
-0.175892 0.054482002 0.625 4290033587
-0.173934 0.054398 0.62400001 4289770415
-0.17253301 0.054488402 0.625 4289967280
-0.17112701 0.0545789 0.62599999 4290098611
-0.169716 0.054669399 0.62699997 4289770415
-0.16776299 0.054585502 0.62599999 4289770415
-0.165815 0.054501601 0.625 4289902001
-0.164398 0.0545922 0.62599999 4289836208
-0.16245501 0.054508299 0.625 4289704876
-0.16026001 0.0543373 0.62300003 4289572522
-0.158585 0.054340702 0.62300003 4289572522
-0.157414 0.054518599 0.625 4289835692
-0.155982 0.054609299 0.62599999 4289572520
-0.154791 0.0547872 0.62800002 4289572520
-0.152858 0.0547034 0.62699997 4289966764
-0.150931 0.0546197 0.62599999 4289703592
-0.14900801 0.054535899 0.625 4289769899
-0.147562 0.054626599 0.62599999 4289638313
-0.14634401 0.054804701 0.62800002 4289638315
-0.14419299 0.054633699 0.62599999 4289441450
-0.142508 0.054637201 0.62599999 4289704622
-0.14082301 0.054640699 0.62599999 4289507497
-0.139137 0.054644201 0.62599999 4289178532
-0.13745099 0.054647699 0.62599999 4289244325
-0.13554899 0.054563899 0.625 4289506727
-0.133865 0.0545674 0.625 4289572520
-0.132182 0.054570802 0.625 4289506727
-0.13049801 0.0545743 0.625 4289637799
-0.12902001 0.0546651 0.62599999 4289243296
-0.127129 0.054581299 0.625 4289308834
-0.125645 0.0546721 0.62599999 4289374627
-0.12376 0.054588102 0.625 4289176734
-0.12227 0.054678898 0.62599999 4289243041
-0.120197 0.054507598 0.62400001 4289309089
-0.118704 0.054598399 0.625 4289505698
-0.116831 0.054514401 0.62400001 4289243296
-0.115332 0.0546051 0.625 4289111710
-0.113827 0.0546958 0.62599999 4289308834
-0.112496 0.054873899 0.62800002 4289243041
-0.110801 0.054877199 0.62800002 4289374627
-0.10928 0.054967899 0.62900001 4289177248
-0.10724 0.054796301 0.62699997 4289374627
-0.105547 0.054799601 0.62699997 4289111969
-0.103688 0.054715399 0.62599999 4289046176
-0.10216 0.054805901 0.62699997 4289046178
-0.100627 0.0548965 0.62800002 4289111971
-0.099087402 0.054986998 0.62900001 4289243557
-0.097387798 0.054990102 0.62900001 4289046178
-0.095687903 0.054993201 0.62900001 4289309348
-0.093838401 0.054908801 0.62800002 4289046176
-0.092140697 0.0549118 0.62800002 4289046946
-0.090298697 0.054827299 0.62699997 4288915360
-0.088603303 0.054830201 0.62699997 4288849567
-0.086907603 0.054832999 0.62699997 4288783774
-0.085483499 0.055010799 0.62900001 4288849567
-0.083781898 0.055013601 0.62900001 4288914590
-0.0822106 0.055103801 0.63 4288980383
-0.080378003 0.055019099 0.62900001 4289111969
-0.078800797 0.055109199 0.63 4289177762
-0.076973297 0.0550244 0.62900001 4289308836
-0.075270496 0.0550269 0.62900001 4289111971
-0.073450603 0.054942001 0.62800002 4289177762
-0.071750201 0.0549445 0.62800002 4289177762
-0.070049502 0.054946899 0.62800002 4289177762
-0.068457402 0.055036802 0.62900001 4288915359
-0.0666475 0.054951701 0.62800002 4288849567
-0.065049604 0.055041499 0.62900001 4288783004
-0.0632447 0.054956201 0.62800002 4288519832
-0.061542999 0.054958399 0.62800002 4288783006
-0.060031701 0.0551356 0.63 4288782492
-0.058324199 0.055137701 0.63 4289308836
-0.0566165 0.055139799 0.63 4289045664
-0.054821499 0.055054199 0.62900001 4288980385
-0.053200699 0.055143699 0.63 4289243557
-0.0515742 0.055233099 0.63099998 4289440420
-0.049784102 0.055147398 0.63 4288914590
-0.048151899 0.055236701 0.63099998 4288783004
-0.0464404 0.0552385 0.63099998 4288914590
-0.044799801 0.055327699 0.63200003 4288717211
-0.042948999 0.055154201 0.63 4288519832
-0.0413053 0.055243298 0.63099998 4288915360
-0.039656099 0.055332299 0.63200003 4288980385
-0.038001299 0.0554213 0.63300002 4288651420
-0.036169 0.055247601 0.63099998 4288519579
-0.0343474 0.055073701 0.62900001 4288848030
-0.0325884 0.054987401 0.62800002 4288387220
-0.030982301 0.0551637 0.63 4288255634
-0.029272299 0.0551649 0.63 4288387220
-0.027649701 0.055341002 0.63200003 4288387218
-0.0259341 0.055342 0.63200003 4288255631
-0.024295099 0.055518098 0.634 4288189838
-0.0226094 0.0556066 0.63499999 4288387985
-0.0208854 0.055607401 0.63499999 4288848536
-0.0191915 0.055695701 0.63599998 4289045400
-0.017437199 0.055608802 0.63499999 4288584849
-0.015713001 0.055609498 0.63499999 4288453003
-0.0139667 0.055522401 0.634 4288124038
-0.0122837 0.0556981 0.63599998 4287005303
-0.0105566 0.055698499 0.63599998 4288058505
-0.0088295201 0.055698901 0.63599998 4288584850
-0.0071023698 0.055699199 0.63599998 4288322192
-0.0053836498 0.055787001 0.63700002 4288190608
-0.0036537501 0.055787198 0.63700002 4287861902
-0.00192081 0.055699699 0.63599998 4287861388
-0.000193605 0.055699699 0.63599998 4288190353
0.00153602 0.055787299 0.63700002 4288190353
0.0032710601 0.055874798 0.63800001 4288322194
0.00500368 0.055874601 0.63800001 4288453780
0.0067574098 0.0560496 0.63999999 4287533190
0.0084954202 0.056049298 0.63999999 4287993227
0.0102334 0.0560489 0.63999999 4287993482
0.0119714 0.056048501 0.63999999 4288059273
0.0137093 0.056047998 0.63999999 4287927687
0.0154471 0.056047499 0.63999999 4287927687
0.0172118 0.056134399 0.64099997 4287927687
0.0189522 0.056133699 0.64099997 4287796617
0.0206603 0.056045402 0.63999999 4288059789
0.022362901 0.055957001 0.639 4287533190
0.02406 0.0558686 0.63800001 4287796362
0.0258325 0.055955201 0.639 4287993741
0.0276103 0.056041799 0.63999999 4287862155
0.0293475 0.056040701 0.63999999 4287993741
0.031036099 0.055952001 0.639 4287862410
0.0327705 0.055950899 0.639 4287730822
0.034558699 0.056037199 0.63999999 4287796355
0.036352199 0.056123398 0.64099997 4286348394
0.0380916 0.056122001 0.64099997 4287203189
0.039830901 0.056120601 0.64099997 4287268982
0.041570101 0.056119099 0.64099997 4287071603
0.043444201 0.056292601 0.64300001 4287400313
0.045118202 0.056203499 0.64200002 4287268729
0.046786699 0.056114301 0.64099997 4287071096
0.048449501 0.056024998 0.63999999 4287334522
0.0501852 0.056023199 0.63999999 4287137143
0.052001901 0.056108899 0.64099997 4287334263
0.053739902 0.056107 0.64099997 4287531642
0.055477802 0.056104999 0.64099997 4287005300
0.0573048 0.056190498 0.64200002 4287663230
0.059045099 0.056188401 0.64200002 4286807667
0.0608798 0.056273799 0.64300001 4287202682
0.062622398 0.056271601 0.64300001 4287729280
0.064464897 0.056356899 0.64399999 4287664001
0.066106901 0.056267101 0.64300001 4287466620
0.067743398 0.056177299 0.64200002 4287532668
0.069374204 0.056087401 0.64099997 4287663740
0.070999399 0.055997401 0.63999999 4287597947
0.072846301 0.056082401 0.64099997 4287334775
0.074582003 0.056079902 0.64099997 4287071348
0.076317497 0.056077302 0.64099997 4287400061
0.078052796 0.056074701 0.64099997 4287334269
0.079787798 0.056072 0.64099997 4286742392
0.081522599 0.0560693 0.64099997 4286874232
0.083127297 0.055979099 0.63999999 4286545266
0.084593698 0.055801399 0.63800001 4285888112
0.086455002 0.055886 0.639 4283454297
0.088597499 0.0561455 0.64200002 4283519837
0.090474501 0.056230001 0.64300001 4285691510
0.092069797 0.0561396 0.64200002 4287072902
0.093513399 0.055961698 0.63999999 4286677114
0.095392399 0.056046098 0.64099997 4286807925
0.097276598 0.056130499 0.64200002 4286544752
0.098857403 0.0560399 0.64099997 4286413420
0.10059 0.0560368 0.64099997 4286939762
0.102002 0.055858798 0.639 4286611566
0.103891 0.055943001 0.63999999 4286282601
0.105454 0.055852301 0.639 4286348394
0.107348 0.0559365 0.63999999 4287005810
0.108905 0.055845801 0.639 4286743152
0.110111 0.055580299 0.63599998 4286348394
0.111652 0.0554896 0.63499999 4286676845
0.113545 0.055573702 0.63599998 4286348394
0.115442 0.0556577 0.63700002 4286743152
0.117161 0.055654299 0.63700002 4286940531
0.118693 0.055563498 0.63599998 4286940531
0.120598 0.055647399 0.63700002 4286940531
0.122316 0.055644002 0.63700002 4286874483
0.124033 0.0556405 0.63700002 4286874485
0.125554 0.0555497 0.63599998 4286874231
0.127268 0.055546202 0.63599998 4287005817
0.12878001 0.055455402 0.63499999 4286743160
0.13028499 0.055364501 0.634 4286743415
0.131786 0.055273701 0.63300002 4286940792
0.13349099 0.055270199 0.63300002 4286742645
0.135196 0.0552666 0.63300002 4286939764
0.137118 0.055350401 0.634 4286545006
0.138606 0.0552595 0.63300002 4286808438
0.140311 0.055256002 0.63300002 4286676338
0.141791 0.055165201 0.63200003 4286281580
0.143719 0.055248901 0.63300002 4286545266
0.14565299 0.055332601 0.634 4286874232
0.14759199 0.055416401 0.63499999 4286742646
0.149065 0.055325501 0.634 4286677367
0.150534 0.0552347 0.63300002 4286940024
0.151756 0.055056699 0.63099998 4286611059
0.153696 0.055140398 0.63200003 4287071348
0.155642 0.055224199 0.63300002 4286808431
0.157345 0.055220701 0.63300002 4286611052
0.158796 0.055130001 0.63200003 4286874224
0.16024099 0.055039302 0.63099998 4286677359
0.161938 0.0550358 0.63099998 4286348394
0.163634 0.055032399 0.63099998 4286414702
0.165068 0.054941799 0.63 4286348909
0.16649701 0.0548512 0.62900001 4286611311
0.16818801 0.054847799 0.62900001 4286677104
0.170148 0.0549317 0.63 4286545520
0.171841 0.0549284 0.63 4286742897
0.17353401 0.054925099 0.63 4286808945
0.17494901 0.054834601 0.62900001 4286940017
0.17663901 0.054831401 0.62900001 4287203189
0.17861199 0.054915398 0.63 4286808431
0.180591 0.054999299 0.63099998 4286742638
0.18228599 0.0549962 0.63099998 4286742383
0.183689 0.054905899 0.63 4286808176
0.185087 0.054815698 0.62900001 4286676845
0.186777 0.0548127 0.62900001 4286479466
0.188466 0.054809701 0.62900001 4286874224
0.190156 0.054806799 0.62900001 4286611052
0.191845 0.0548039 0.62900001 4286611052
0.193534 0.054800998 0.62900001 4287072117
0.194913 0.0547111 0.62800002 4286743666
0.19660001 0.054708399 0.62800002 4286809459
0.197971 0.054618601 0.62699997 4286743152
0.199655 0.0546159 0.62699997 4286677104
0.20133901 0.0546133 0.62699997 4286808176
0.20367099 0.054784998 0.62900001 4286545004
0.204707 0.0546083 0.62699997 4286808176
0.205733 0.054431699 0.625 4286676845
0.20708001 0.0543423 0.62400001 4286545259
0.209426 0.054514199 0.62599999 4286610797
0.211445 0.054599099 0.62699997 4286545004
0.21313 0.054596901 0.62699997 4286742385
0.214472 0.054507699 0.62599999 4286544752
0.21615399 0.054505698 0.62599999 4286545006
0.21783701 0.054503798 0.62599999 4286939764
0.219519 0.054501899 0.62599999 4286676592
0.221202 0.054500099 0.62599999 4286216041
0.223241 0.054585502 0.62699997 4286545004
0.22492699 0.054583799 0.62699997 4287071350
0.226613 0.054582302 0.62699997 4286939764
0.227935 0.054493699 0.62599999 4286676592
0.229619 0.054492299 0.62599999 4286676338
0.23093399 0.054404002 0.625 4286478959
0.23261601 0.054402798 0.625 4286676852
0.23429801 0.054401699 0.625 4286676852
0.236736 0.054574698 0.62699997 4286414450
0.238424 0.0545738 0.62699997 4286348655
0.24011201 0.054572899 0.62699997 4286085483
0.24141601 0.054485202 0.62599999 4286742385
0.24349099 0.054571498 0.62699997 4286808176
0.244398 0.054396901 0.625 4286742385
0.24608301 0.054396499 0.625 4286808178
0.247769 0.054396201 0.625 4286676592
0.24945401 0.054395899 0.625 4286611313
0.250337 0.054221801 0.62300003 4286677874
0.252018 0.054221801 0.62300003 4286874738
0.254107 0.054308899 0.62400001 4286808945
0.256203 0.054396201 0.625 4286742897
0.257478 0.054309499 0.62400001 4287006069
0.25874901 0.0542229 0.62300003 4286874483
0.260434 0.0542235 0.62300003 4287006071
0.26295999 0.054398298 0.625 4286940278
0.26422799 0.054312099 0.62400001 4287138173
0.26549 0.054226 0.62300003 4286743160
0.26674801 0.054140098 0.62199998 4286941053
0.268433 0.054141302 0.62199998 4287072894
0.27011901 0.054142699 0.62199998 4286876029
0.27180499 0.0541442 0.62199998 4287073406
0.27349299 0.054145802 0.62199998 4287205245
0.27562299 0.054234698 0.62300003 4287467903
0.27731499 0.054236598 0.62300003 4287073659
0.27856001 0.054151598 0.62199998 4287139452
0.2798 0.0540668 0.62099999 4287533697
0.28194201 0.054156199 0.62199998 4287665029
0.28409001 0.0542458 0.62300003 4287665029
0.286704 0.054422598 0.625 4287598976
0.287945 0.054338399 0.62400001 4287204478
0.28918201 0.054254301 0.62300003 4286612081
0.28994799 0.054083299 0.62099999 4287467904
0.29258201 0.054260802 0.62300003 4287336832
0.294283 0.0542643 0.62300003 4287468418
0.29693601 0.054442201 0.625 4287468418
0.29769 0.054271799 0.62300003 4287665543
0.29891399 0.054188699 0.62199998 4287862924
0.30061799 0.0541928 0.62199998 4287467652
0.30232301 0.0541972 0.62199998 4287401859
0.305006 0.054375999 0.62400001 4287861894
0.30622801 0.054293599 0.62300003 4287665029
0.30744499 0.0542113 0.62199998 4287402111
0.30915499 0.0542164 0.62199998 4287796615
0.31136599 0.054308899 0.62300003 4287599236
0.31308201 0.054314401 0.62300003 4287862408
0.31479901 0.054320101 0.62300003 4287598983
0.31601 0.0542388 0.62199998 4287270020
0.31823799 0.0543321 0.62300003 4287927950
0.319446 0.054251101 0.62199998 4288125329
0.32116699 0.054257601 0.62199998 4287532678
0.32289001 0.0542643 0.62199998 4287598471
0.32461399 0.054271299 0.62199998 4287664262
0.32581499 0.054191101 0.62099999 4287795848
0.32754001 0.0541985 0.62099999 4287467397
0.32979599 0.054293301 0.62199998 4287467397
0.33152801 0.054301102 0.62199998 4287467397
0.33326101 0.0543091 0.62199998 4287598722
0.33499601 0.0543174 0.62199998 4286874999
0.33565 0.0541512 0.62 4287334522
0.337383 0.054159898 0.62 4286939762
0.338572 0.0540815 0.61900002 4287137141
0.34085599 0.054177999 0.62 4286808176
0.34204301 0.0541001 0.61900002 4287071603
0.34489301 0.054284599 0.62099999 4286874224
0.34719801 0.054382 0.62199998 4287006063
0.347828 0.054217301 0.62 4286611558
0.349013 0.0541403 0.61900002 4287006057
0.350761 0.054150999 0.61900002 4287335263
0.35365099 0.054336902 0.62099999 4286809172
0.354837 0.054260701 0.62 4286742631
0.35716999 0.054359701 0.62099999 4285755230
0.35777801 0.054196399 0.61900002 4286611052
0.36070001 0.054383598 0.62099999 4287532154
0.36246899 0.054396 0.62099999 4287203189
0.364241 0.054408699 0.62099999 4286874738
0.36483601 0.0542464 0.61900002 4287137655
0.36719999 0.054347198 0.62 4287268982
0.36897701 0.054360699 0.62 4287137396
0.371355 0.054462299 0.62099999 4287203187
0.37374201 0.0545642 0.62199998 4287203189
0.37492901 0.054490902 0.62099999 4286874224
0.37550801 0.0543302 0.61900002 4286676845
0.376688 0.0542574 0.61799997 4286151015
0.37909001 0.054360598 0.61900002 4285888358
0.38273099 0.054639801 0.62199998 4284309840
0.38515699 0.0547438 0.62300003 4282271287
0.386971 0.0547603 0.62300003 4287995024
0.388165 0.054689199 0.62199998 4287666060
0.39123699 0.054882199 0.62400001 4287599500
0.39306399 0.0548997 0.62400001 4287664523
0.39362901 0.054741599 0.62199998 4287336328
0.39482301 0.054671802 0.62099999 4287534221
0.39537501 0.054514199 0.61900002 4287731600
0.39720199 0.054533001 0.61900002 4288060051
0.39967901 0.054640301 0.62 4287862925
0.402165 0.054748099 0.62099999 4287994511
0.404661 0.0548563 0.62199998 4288126097
0.40586001 0.0547885 0.62099999 4287994511
0.407713 0.054809399 0.62099999 4287862671
0.408912 0.054742299 0.62 4288454808
0.41010901 0.054675501 0.61900002 4288125844
0.410638 0.0545207 0.61699998 4287862672
0.41249701 0.054543 0.61699998 4287731086
0.41570401 0.054742601 0.61900002 4287862672
0.418253 0.0548543 0.62 4287731086
0.420136 0.0548779 0.62 4287862157
0.42134199 0.0548135 0.61900002 4287993996
0.423915 0.0549266 0.62 4287928203
0.426498 0.055040199 0.62099999 4287861896
0.42771399 0.0549771 0.62 4287466883
0.42962101 0.055002999 0.62 4288059275
-0.198759 0.052584801 0.62300003 4288322455
-0.19771899 0.052756201 0.625 4289046178
-0.19572601 0.052674402 0.62400001 4289309350
-0.194672 0.052845899 0.62599999 4289572522
-0.192683 0.0527642 0.625 4289902001
-0.190699 0.0526825 0.62400001 4290362553
-0.188417 0.052516401 0.62199998 4289902002
-0.186746 0.052519199 0.62199998 4289967795
-0.18537299 0.052606501 0.62300003 4289967795
-0.18399499 0.0526939 0.62400001 4289770416
-0.181734 0.052527901 0.62199998 4289967794
-0.179774 0.052446499 0.62099999 4289836208
-0.177819 0.052365001 0.62 4289967794
-0.176438 0.052452501 0.62099999 4290165173
-0.175051 0.052540101 0.62199998 4290165173
-0.17310099 0.0524587 0.62099999 4289902001
-0.171708 0.0525463 0.62199998 4290230967
-0.17058399 0.052718401 0.62400001 4289770416
-0.16917799 0.052806102 0.625 4289836208
-0.166962 0.052640401 0.62300003 4289967794
-0.165022 0.0525591 0.62199998 4290033587
-0.16335 0.052562401 0.62199998 4289967794
-0.161678 0.052565601 0.62199998 4290099380
-0.159749 0.052484401 0.62099999 4289770415
-0.158079 0.052487701 0.62099999 4289770415
-0.15716501 0.052744601 0.62400001 4289967278
-0.155487 0.052747902 0.62400001 4289901485
-0.154055 0.0528358 0.625 4289835692
-0.15212999 0.0527547 0.62400001 4289901487
-0.150693 0.052842598 0.625 4289638315
-0.149011 0.052846 0.625 4289769901
-0.14733 0.052849401 0.625 4289704108
-0.145881 0.0529374 0.62599999 4289507243
-0.144196 0.052940801 0.62599999 4289638829
-0.142511 0.052944198 0.62599999 4289310378
-0.14060099 0.052863002 0.625 4289310378
-0.138918 0.052866399 0.625 4289178792
-0.137235 0.0528698 0.625 4289178532
-0.13511799 0.052703999 0.62300003 4289244071
-0.13344 0.0527074 0.62300003 4289178278
-0.131551 0.0526262 0.62199998 4289375141
-0.13008399 0.052714199 0.62300003 4289506727
-0.128611 0.052802201 0.62400001 4289375141
-0.126929 0.052805498 0.62400001 4289440420
-0.125247 0.052808899 0.62400001 4289572006
-0.123565 0.0528122 0.62400001 4289572006
-0.121883 0.052815501 0.62400001 4289572006
-0.1202 0.052818902 0.62400001 4289308834
-0.118517 0.052822199 0.62400001 4289309089
-0.116834 0.052825399 0.62400001 4289309089
-0.115335 0.052913301 0.625 4289374627
-0.113467 0.052831899 0.62400001 4289374627
-0.111962 0.052919801 0.625 4289374627
-0.110452 0.0530077 0.62599999 4289374627
-0.108936 0.053095601 0.62699997 4289440420
-0.107072 0.053013999 0.62599999 4289177248
-0.105382 0.053017199 0.62599999 4289243041
-0.103691 0.053020298 0.62599999 4289177762
-0.101837 0.0529387 0.625 4289045664
-0.100149 0.052941699 0.625 4289177250
-0.098617896 0.053029399 0.62599999 4289177250
-0.097081199 0.0531171 0.62699997 4289045664
-0.095386699 0.053120099 0.62699997 4289243041
-0.093392998 0.052953601 0.625 4289111969
-0.0917034 0.052956499 0.625 4288783004
-0.089869604 0.052874599 0.62400001 4288783004
-0.088182203 0.0528774 0.62400001 4288651418
-0.086494602 0.052880201 0.62400001 4288783004
-0.0850785 0.053052399 0.62599999 4289046176
-0.083384998 0.0530551 0.62599999 4289243555
-0.081691302 0.053057801 0.62599999 4288848797
-0.079997301 0.053060401 0.62599999 4289375141
-0.078553297 0.053232599 0.62800002 4289308834
-0.0769758 0.053319901 0.62900001 4289308836
-0.075153403 0.053237598 0.62800002 4289111969
-0.073336102 0.053155299 0.62699997 4289309348
-0.071524099 0.053073 0.62599999 4289506727
-0.069940299 0.053160101 0.62699997 4289178532
-0.068242103 0.0531624 0.62699997 4289178532
-0.066437498 0.053079899 0.62599999 4288652188
-0.064741597 0.053082101 0.62599999 4288980383
-0.063146196 0.053169101 0.62699997 4288783004
-0.061447199 0.053171299 0.62699997 4289046178
-0.059747901 0.0531733 0.62699997 4288914078
-0.058141101 0.0532602 0.62800002 4289308834
-0.056528699 0.053346999 0.62900001 4289045662
-0.054823499 0.053348899 0.62900001 4289046176
-0.053033601 0.053266 0.62800002 4288914590
-0.0514125 0.053352602 0.62900001 4288914590
-0.049706802 0.053354401 0.62900001 4289243555
-0.0480773 0.053440999 0.63 4289111969
-0.046368498 0.053442601 0.63 4288980383
-0.044730499 0.053529099 0.63099998 4289440934
-0.0429506 0.053445801 0.63 4289177762
-0.0412414 0.053447299 0.63 4288783774
-0.039531998 0.0534488 0.63 4288586141
-0.0378226 0.0534501 0.63 4288256660
-0.036055598 0.053366601 0.62900001 4288322455
-0.034294002 0.053283099 0.62800002 4288914337
-0.032537699 0.053199399 0.62699997 4289111457
-0.0308851 0.053285401 0.62800002 4289111455
-0.029180501 0.0532865 0.62800002 4288716699
-0.0275633 0.053457201 0.63 4288585111
-0.025853001 0.053458199 0.63 4288190353
-0.0242576 0.053713702 0.63300002 4287992974
-0.0225747 0.053799398 0.634 4288322194
-0.0208533 0.053800199 0.634 4288124815
-0.0191621 0.053885799 0.63499999 4287862155
-0.017410399 0.0538016 0.634 4288191120
-0.015664101 0.0537173 0.63300002 4288124813
-0.0139452 0.0537179 0.63300002 4287993227
-0.0122649 0.053888101 0.63499999 4287137404
-0.0105404 0.0538885 0.63499999 4288387985
-0.0088298498 0.053973701 0.63599998 4288387987
-0.0070914701 0.0538891 0.63499999 4288059536
-0.0053669498 0.053889401 0.63499999 4288387987
-0.0036366801 0.053804699 0.634 4288322453
-0.00191786 0.053889599 0.63499999 4288387732
-0.000193003 0.0538048 0.634 4287992974
0.00153366 0.053974502 0.63599998 4288124560
0.0032609301 0.053974401 0.63599998 4288321939
0.0049881898 0.053974301 0.63599998 4288519573
0.00672598 0.054058898 0.63700002 4288256399
0.0084559098 0.054058701 0.63700002 4288190606
0.0102018 0.054143202 0.63800001 4288387470
0.0119531 0.054227602 0.639 4287861380
0.0136669 0.0541423 0.63800001 4288058757
0.0153753 0.054056901 0.63700002 4287861380
0.0171319 0.054141201 0.63800001 4287993480
0.018893801 0.0542254 0.639 4287796101
0.020628801 0.054224599 0.639 4287862410
0.0222938 0.0540541 0.63700002 4287599238
0.024023199 0.054053299 0.63700002 4287993996
0.025792999 0.0541372 0.63800001 4288191375
0.0275681 0.054221101 0.639 4288059534
0.0293028 0.054220099 0.639 4288125327
0.030988701 0.054134201 0.63800001 4287862155
0.032720398 0.054133002 0.63800001 4287993480
0.0345059 0.054216601 0.639 4287730562
0.036240101 0.054215401 0.639 4286676845
0.037974201 0.054214001 0.639 4287268982
0.039645899 0.054127801 0.63800001 4287268982
0.041441899 0.054211199 0.639 4287005810
0.043243099 0.0542945 0.63999999 4287071348
0.044909 0.0542081 0.639 4287202936
0.0466424 0.054206502 0.639 4287268727
0.048299801 0.05412 0.63800001 4287268727
0.050030202 0.054118201 0.63800001 4287597694
0.051679201 0.054031599 0.63700002 4287136886
0.0534903 0.054114599 0.63800001 4286807921
0.055220101 0.054112699 0.63800001 4287794562
0.057039 0.054195601 0.639 4287794562
0.0587712 0.0541935 0.639 4285755233
0.0605979 0.054276299 0.63999999 4285623647
0.062429801 0.054359 0.64099997 4287005557
0.064366996 0.0545264 0.64300001 4287729278
0.0660064 0.054439399 0.64200002 4287597947
0.0675347 0.0542675 0.63999999 4287795840
0.069160096 0.054180399 0.639 4287466361
0.070890903 0.0541781 0.639 4287729533
0.072735101 0.054260399 0.63999999 4287861119
0.074584499 0.054342799 0.64099997 4287268982
0.076200999 0.0542555 0.63999999 4287531899
0.077933602 0.0542529 0.63999999 4286874485
0.079541497 0.054165602 0.639 4286808438
0.0811437 0.054078199 0.63800001 4287071610
0.082740299 0.053990699 0.63700002 4286677622
0.084331296 0.0539033 0.63599998 4285757286
0.085916601 0.053815801 0.63499999 4283060811
0.088186301 0.054152001 0.639 4283585884
0.090055302 0.054233901 0.63999999 4286284163
0.091785997 0.054230999 0.63999999 4287007370
0.093370304 0.054143399 0.639 4286808961
0.095246598 0.054225098 0.63999999 4285887084
0.0968251 0.054137401 0.639 4287005818
0.098397799 0.0540497 0.63800001 4287137143
0.099964902 0.053961899 0.63700002 4287137143
0.101686 0.0539589 0.63700002 4286939764
0.103407 0.053955801 0.63700002 4286742385
0.105292 0.054037299 0.63800001 4286874485
0.106848 0.053949501 0.63700002 4286940278
0.108397 0.053861599 0.63599998 4286808690
0.109768 0.0536891 0.634 4287006324
0.111304 0.053601202 0.63300002 4286347880
0.113012 0.053597901 0.63300002 4286676843
0.114902 0.053679299 0.634 4287071603
0.116613 0.053676002 0.634 4287006324
0.118323 0.053672701 0.634 4287072632
0.120033 0.053669401 0.634 4286940792
0.121935 0.053750701 0.63499999 4287334783
0.123647 0.0537473 0.63499999 4287005817
0.12516201 0.053659301 0.634 4286874485
0.126671 0.053571299 0.63300002 4287269243
0.12817501 0.0534833 0.63200003 4286809206
0.129467 0.0533107 0.63 4286941046
0.131165 0.053307202 0.63 4287006839
0.133073 0.053388398 0.63099998 4286874485
0.134986 0.053469598 0.63200003 4287203196
0.136472 0.053381599 0.63099998 4287269243
0.138172 0.053378198 0.63099998 4287268989
0.139871 0.0533747 0.63099998 4287203197
0.14134599 0.053286701 0.63 4286940024
0.143042 0.0532833 0.63 4286940024
0.144967 0.0533644 0.63099998 4287268990
0.146433 0.053276401 0.63 4286874232
0.147893 0.053188398 0.62900001 4286808185
0.148872 0.052931301 0.62599999 4286611060
0.150557 0.0529279 0.62599999 4287005303
0.15272699 0.053093601 0.62800002 4286610545
0.154908 0.053259298 0.63 4286545006
0.156602 0.053255901 0.63 4286676590
0.15804499 0.053167999 0.62900001 4286939762
0.15897501 0.052911099 0.62599999 4286874738
0.160915 0.052992199 0.62699997 4287006324
0.1626 0.052988902 0.62699997 4287071864
0.16454799 0.053070098 0.62800002 4287137657
0.165971 0.052982301 0.62699997 4287071862
0.167924 0.053063601 0.62800002 4286940276
0.16961101 0.053060301 0.62800002 4287005555
0.171299 0.053057101 0.62800002 4286611052
0.172986 0.053053901 0.62800002 4286808690
0.17439599 0.0529663 0.62699997 4286874483
0.175519 0.052794199 0.625 4287071603
0.177481 0.0528755 0.62599999 4286874224
0.17944901 0.052956901 0.62699997 4286676590
0.181422 0.053038299 0.62800002 4286808431
0.182818 0.0529509 0.62699997 4286874224
0.18450201 0.052947901 0.62699997 4286808431
0.18588901 0.052860498 0.62599999 4286808429
0.18787 0.052942101 0.62699997 4286874477
0.189252 0.052854799 0.62599999 4287005808
0.19062801 0.0527675 0.625 4286677359
0.192306 0.052764799 0.625 4286545773
0.193985 0.052762099 0.625 4286545773
0.195351 0.052675001 0.62400001 4286940531
0.197026 0.052672401 0.62400001 4286677104
0.198384 0.052585401 0.62300003 4286413418
0.200057 0.052582901 0.62300003 4286347625
0.20205399 0.052664801 0.62400001 4286742385
0.20405699 0.052746799 0.625 4286281834
0.20540699 0.0526601 0.62400001 4287005557
0.20641901 0.052489001 0.62199998 4286939764
0.20809001 0.0524868 0.62199998 4286873717
0.20976099 0.052484602 0.62199998 4286676338
0.211432 0.052482501 0.62199998 4287136889
0.213103 0.0524805 0.62199998 4286939510
0.214775 0.0524785 0.62199998 4287005303
0.216794 0.052561 0.62300003 4286873971
0.21846899 0.052559201 0.62300003 4287005555
0.220497 0.052641802 0.62400001 4286742638
0.222174 0.052640099 0.62400001 4286676590
0.22421101 0.052722901 0.625 4287005555
0.22589201 0.052721299 0.625 4286742383
0.227208 0.052635498 0.62400001 4286939762
0.22815301 0.052465498 0.62199998 4287005557
0.229827 0.052464198 0.62199998 4286479213
0.23112801 0.052378699 0.62099999 4286939762
0.233549 0.0525463 0.62300003 4287071348
0.23522601 0.052545201 0.62300003 4287334520
0.237284 0.0526287 0.62400001 4286742897
0.239347 0.052712198 0.625 4286479211
0.24103101 0.052711401 0.625 4286742383
0.242715 0.052710801 0.625 4286873971
0.243617 0.052541599 0.62300003 4286873971
0.245296 0.052541099 0.62300003 4286610797
0.246976 0.052540801 0.62300003 4286873971
0.248656 0.0525405 0.62300003 4286939764
0.250337 0.052540399 0.62300003 4286873971
0.251614 0.0524561 0.62199998 4287071348
0.25369999 0.0525405 0.62300003 4286611052
0.25497299 0.052456301 0.62199998 4286874224
0.257065 0.052540999 0.62300003 4287268982
0.25833401 0.052457102 0.62199998 4287137396
0.26043299 0.052542001 0.62300003 4287072117
0.26211801 0.052542601 0.62300003 4286808945
0.264227 0.052627798 0.62400001 4287006324
0.26506299 0.05246 0.62199998 4286743152
0.26631799 0.052376699 0.62099999 4286743667
0.26800099 0.052377898 0.62099999 4286809459
0.269683 0.052379198 0.62099999 4286677873
0.27092999 0.052296199 0.62 4287072631
0.27261201 0.052297801 0.62 4286743666
0.27429399 0.0522995 0.62 4286743666
0.27642301 0.052385699 0.62099999 4286480495
0.27766201 0.052303299 0.62 4286612081
0.279347 0.0523054 0.62 4286874999
0.28103301 0.052307699 0.62 4286874999
0.28272 0.052310102 0.62 4286742897
0.28532499 0.052481402 0.62199998 4286874738
0.286558 0.052399699 0.62099999 4286677873
0.28825101 0.052402601 0.62099999 4286283115
0.289011 0.0522369 0.61900002 4287533696
0.291639 0.0524088 0.62099999 4287600004
0.293807 0.052496601 0.62199998 4287336318
0.295982 0.052584499 0.62300003 4287402111
0.29720801 0.052503798 0.62199998 4287402373
0.29843 0.052423202 0.62099999 4287928203
0.30013001 0.052427199 0.62099999 4287599238
0.30183199 0.052431401 0.62099999 4287533960
0.30402401 0.052520201 0.62199998 4287533443
0.30524001 0.052440301 0.62099999 4287599236
0.30694601 0.052444998 0.62099999 4287336064
0.30815601 0.0523654 0.62 4287796615
0.310361 0.052455001 0.62099999 4287401857
0.312071 0.052460302 0.62099999 4287665543
0.31378299 0.0524657 0.62099999 4288060304
0.31498799 0.052386899 0.62 4287336581
0.31720999 0.0524773 0.62099999 4287533192
0.31841299 0.052398801 0.62 4288190606
0.32012799 0.052405 0.62 4287664262
0.321845 0.0524115 0.62 4287401090
0.32356301 0.052418102 0.62 4287796103
0.32475799 0.052340399 0.61900002 4287861896
0.32647699 0.0523475 0.61900002 4287730310
0.32819799 0.052354801 0.61900002 4287599238
0.33045399 0.052446902 0.62 4287730824
0.33218101 0.052454598 0.62 4287730308
0.333372 0.052377898 0.61900002 4287072378
0.33401799 0.052216802 0.61699998 4286874483
0.33628601 0.0523098 0.61799997 4287137141
0.33746901 0.0522338 0.61699998 4287137396
0.339748 0.052327301 0.61799997 4287071603
0.340929 0.0522517 0.61699998 4286874224
0.34377301 0.052430399 0.61900002 4287071603
0.345514 0.052439999 0.61900002 4287137394
0.34669599 0.052365098 0.61799997 4287071597
0.34843901 0.052375101 0.61799997 4287268462
0.35018399 0.052385401 0.61799997 4287070566
0.352501 0.052480798 0.61900002 4286808407
0.35425299 0.052491602 0.61900002 4286807405
0.35600901 0.052502699 0.61900002 4285952610
0.35661 0.0523444 0.61699998 4287334773
0.358946 0.0524409 0.61799997 4287334775
0.36128899 0.052537698 0.61900002 4287268982
0.36364099 0.052634802 0.62 4286545259
0.36541301 0.0526473 0.62 4287335289
0.36718699 0.0526601 0.62 4287729533
0.368368 0.052588198 0.61900002 4287137396
0.37014499 0.052601501 0.61900002 4287400568
0.37252599 0.052700199 0.62 4287005810
0.374915 0.052799199 0.62099999 4287137396
0.37549299 0.0526434 0.61900002 4287005555
0.37606299 0.052487802 0.61699998 4286545006
0.37785 0.052502599 0.61699998 4286479473
0.38087001 0.052687999 0.61900002 4285822313
0.38328701 0.0527886 0.62 4282599484
0.38509199 0.052804399 0.62 4285955441
0.38690001 0.052820601 0.62 4287797645
0.389339 0.052922402 0.62099999 4287533960
0.39178699 0.053024501 0.62199998 4287467399
0.39234599 0.052871201 0.62 4287796364
0.39353299 0.052803401 0.61900002 4287402121
0.395356 0.052821301 0.61900002 4287796879
0.39654201 0.0527541 0.61799997 4287862671
0.39901501 0.052857999 0.61900002 4287731085
0.40020201 0.052791599 0.61799997 4287665292
0.40268901 0.052896298 0.61900002 4287797132
0.40387899 0.052830499 0.61799997 4287336841
0.40572301 0.0528505 0.61799997 4287665807
0.407572 0.052870899 0.61799997 4287468428
0.40876201 0.052806102 0.61699998 4287731600
0.41061699 0.052827299 0.61699998 4288126358
0.411807 0.052763201 0.616 4288191637
0.41433901 0.052870799 0.61699998 4288060051
0.41620699 0.052893199 0.61699998 4287665293
0.41875699 0.053001702 0.61799997 4287665292
0.419276 0.052853402 0.616 4287730569
0.42252299 0.0530486 0.61799997 4287862410
0.424413 0.053072698 0.61799997 4287862410
0.426999 0.053183202 0.61900002 4287335811
0.42751601 0.053036299 0.61699998 4288059275
-0.199791 0.0507368 0.62099999 4289045662
-0.19812299 0.050739199 0.62099999 4288848797
-0.197088 0.050905101 0.62300003 4288716697
-0.19541501 0.050907701 0.62300003 4288453525
-0.19405299 0.050992001 0.62400001 4288519318
-0.191761 0.050831199 0.62199998 4288321939
-0.18947899 0.0506704 0.62 4288124560
-0.187511 0.050591402 0.61900002 4288519318
-0.186149 0.050675798 0.62 4288782490
-0.184781 0.0507604 0.62099999 4289243043
-0.18340801 0.0508449 0.62199998 4289177250
-0.18173701 0.050847799 0.62199998 4289572008
-0.179777 0.050768901 0.62099999 4289769385
-0.17782199 0.0506901 0.62 4289704106
-0.176157 0.050693098 0.62 4290098864
-0.17477199 0.0507778 0.62099999 4290230450
-0.173104 0.050780799 0.62099999 4290164659
-0.171436 0.050783899 0.62099999 4290295990
-0.16976701 0.050787002 0.62099999 4290032818
-0.168369 0.050871801 0.62199998 4289967280
-0.166429 0.050793201 0.62099999 4289902001
-0.16475999 0.0507963 0.62099999 4289836208
-0.162828 0.0507177 0.62 4289902255
-0.161162 0.0507208 0.62 4289902255
-0.159238 0.0506422 0.61900002 4289836462
-0.157828 0.0507272 0.62 4289704876
-0.156413 0.0508123 0.62099999 4289770669
-0.154992 0.050897401 0.62199998 4289902255
-0.153566 0.050982501 0.62300003 4289770415
-0.151646 0.050903901 0.62199998 4289638829
-0.150214 0.050988998 0.62300003 4289770416
-0.14853799 0.050992299 0.62300003 4289770415
-0.14709701 0.051077399 0.62400001 4289638829
-0.145651 0.051162601 0.625 4289770669
-0.143739 0.051084001 0.62400001 4289836462
-0.142059 0.051087402 0.62400001 4289573804
-0.140154 0.051008798 0.62300003 4289573804
-0.138477 0.051012099 0.62300003 4289638829
-0.13701899 0.0510973 0.62400001 4289441450
-0.135122 0.0510187 0.62300003 4289441451
-0.133229 0.0509401 0.62199998 4289441451
-0.13134199 0.0508615 0.62099999 4289572522
-0.12946001 0.0507828 0.62 4289440936
-0.12820201 0.050949901 0.62199998 4289375143
-0.126526 0.050953198 0.62199998 4289572522
-0.12504999 0.051038299 0.62300003 4289440936
-0.123172 0.050959598 0.62199998 4289309350
-0.1213 0.050880902 0.62099999 4289177762
-0.119433 0.050802201 0.62 4289374627
-0.118141 0.050969299 0.62199998 4289440934
-0.116463 0.050972398 0.62199998 4289111969
-0.114969 0.051057599 0.62300003 4289440420
-0.113288 0.051060699 0.62300003 4289177250
-0.111786 0.051145799 0.62400001 4289440422
-0.110102 0.051148899 0.62400001 4289439906
-0.108418 0.051151998 0.62400001 4289637285
-0.106733 0.051155001 0.62400001 4289374113
-0.105216 0.051240001 0.625 4289308320
-0.103363 0.051161099 0.62400001 4289308834
-0.101514 0.051082101 0.62300003 4289243043
-0.099510998 0.050921001 0.62099999 4289177250
-0.097990699 0.0510059 0.62199998 4289243041
-0.096464798 0.051090799 0.62300003 4289111455
-0.094780996 0.051093701 0.62300003 4289177248
-0.092947602 0.051014502 0.62199998 4288848283
-0.091412798 0.0510993 0.62300003 4288585366
-0.089584298 0.051020101 0.62199998 4288980124
-0.0879023 0.051022802 0.62199998 4289045917
-0.086081401 0.050943401 0.62099999 4289177503
-0.084537603 0.051028099 0.62199998 4288980124
-0.0828548 0.051030699 0.62199998 4289177503
-0.081432901 0.051197398 0.62400001 4289177248
-0.079872102 0.051282 0.625 4289111455
-0.078305699 0.051366601 0.62599999 4289308834
-0.076733597 0.051451098 0.62699997 4289374627
-0.075036198 0.051453602 0.62699997 4288980383
-0.073221602 0.051373899 0.62599999 4289046176
-0.071297899 0.051212098 0.62400001 4289046176
-0.069719501 0.051296499 0.625 4288914590
-0.068026699 0.0512987 0.625 4288980383
-0.066333599 0.051300898 0.625 4288914592
-0.064536899 0.051220998 0.62400001 4288717213
-0.063047603 0.051387299 0.62599999 4288980385
-0.061351199 0.0513894 0.62599999 4288848799
-0.059749998 0.051473498 0.62699997 4289243557
-0.058050498 0.051475398 0.62699997 4289111969
-0.056350902 0.051477399 0.62699997 4289243041
-0.054651 0.051479202 0.62699997 4289243041
-0.0527821 0.051316801 0.625 4288980383
-0.051087402 0.051318601 0.625 4288848797
-0.049392398 0.0513203 0.625 4288980383
-0.047850002 0.051486202 0.62699997 4288980383
-0.046149299 0.0514878 0.62699997 4289309348
-0.044519398 0.0515715 0.62800002 4288849567
-0.042679399 0.051408801 0.62599999 4288915360
-0.040980998 0.051410198 0.62599999 4289112739
-0.0392824 0.051411599 0.62599999 4288981153
-0.037643801 0.051495101 0.62699997 4288980383
-0.0359996 0.051578499 0.62800002 4288717213
-0.034295201 0.051579699 0.62800002 4288585372
-0.032538898 0.051498801 0.62699997 4288716958
-0.030886199 0.051582001 0.62800002 4288717211
-0.029135101 0.051500998 0.62699997 4288519834
-0.0274767 0.051584098 0.62800002 4288585625
-0.0258129 0.051667199 0.62900001 4288585625
-0.024181901 0.0518323 0.63099998 4288322453
-0.0225043 0.051915299 0.63200003 4288454039
-0.020821201 0.051998202 0.63300002 4288520087
-0.019072199 0.0519168 0.63200003 4288322708
-0.0173561 0.0519174 0.63200003 4288454292
-0.0155904 0.0517537 0.63 4288453778
-0.0139016 0.051836401 0.63099998 4287335297
-0.0122267 0.052001201 0.63300002 4287466369
-0.0105242 0.052083701 0.634 4288124813
-0.0088024 0.0520841 0.634 4288124815
-0.0070693898 0.052002199 0.63300002 4288322194
-0.00535024 0.0520024 0.63300002 4288256146
-0.00363107 0.052002601 0.63300002 4288059281
-0.00191189 0.052002698 0.63300002 4288387987
-0.00019270599 0.052002698 0.63300002 4287532423
0.00152648 0.052002698 0.63300002 4288387732
0.0032456701 0.052002601 0.63300002 4288387732
0.0049648401 0.052002501 0.63300002 4288190608
0.0066945502 0.052084401 0.634 4288190606
0.0084296698 0.052166302 0.63499999 4288256399
0.0101862 0.0523303 0.63700002 4288255884
0.0119161 0.052329902 0.63700002 4288321931
0.0136246 0.052247301 0.63599998 4287927173
0.0153276 0.052164599 0.63499999 4288124298
0.0170788 0.052246202 0.63599998 4288059275
0.018835301 0.0523277 0.63700002 4288059275
0.0205973 0.052409101 0.63800001 4287730824
0.0222946 0.052326199 0.63700002 4288191120
0.024061801 0.052407499 0.63800001 4287796362
0.025793901 0.052406602 0.63800001 4288124813
0.027526001 0.0524057 0.63800001 4287730571
0.0292121 0.0523226 0.63700002 4287993743
0.0309412 0.052321501 0.63700002 4288124813
0.032567699 0.052156098 0.63499999 4288190345
0.0343992 0.052319199 0.63700002 4287861378
0.036127999 0.052317999 0.63700002 4286808431
0.037975501 0.052480999 0.639 4287005808
0.0396473 0.052397501 0.63800001 4287137396
0.041378502 0.0523961 0.63800001 4286742638
0.0430419 0.052312501 0.63700002 4287597692
0.044840299 0.052393101 0.63800001 4287202934
0.046571001 0.052391499 0.63800001 4287005555
0.048301499 0.052389901 0.63800001 4287005555
0.049953502 0.052306101 0.63700002 4287663487
0.0517621 0.052386399 0.63800001 4287531642
0.0534922 0.0523846 0.63800001 4287005300
0.0551355 0.052300699 0.63700002 4287860609
0.0568625 0.052298799 0.63700002 4286281577
0.058681201 0.052379001 0.63800001 4286741612
0.0605052 0.052459098 0.639 4286938991
0.062431902 0.052621201 0.64099997 4285886817
0.0641689 0.0526191 0.64099997 4287071603
0.065905802 0.052616902 0.64099997 4287663740
0.067431398 0.052450601 0.639 4287861633
0.069054201 0.052366201 0.63800001 4287861119
0.070782296 0.052363899 0.63800001 4287795326
0.072623901 0.052443702 0.639 4287729531
0.074237898 0.052359201 0.63800001 4287795326
0.076084398 0.0524389 0.639 4287334775
0.0778144 0.0524364 0.639 4286939762
0.079544097 0.052433901 0.639 4287400829
0.0811463 0.052349299 0.63800001 4287203196
0.082613103 0.0521826 0.63599998 4286414450
0.084201403 0.052097902 0.63499999 4286085746
0.085919298 0.052095201 0.63499999 4283191883
0.088051103 0.0523386 0.63800001 4283914848
0.089917399 0.0524179 0.639 4286349440
0.091645397 0.052415099 0.639 4287204489
0.093373202 0.052412301 0.639 4286677116
0.095249601 0.052491501 0.63999999 4287005818
0.096827999 0.052406501 0.639 4287005817
0.098400801 0.052321602 0.63800001 4286939764
0.099968001 0.052236699 0.63700002 4286808176
0.101529 0.052151699 0.63599998 4286676592
0.103248 0.0521487 0.63599998 4286479213
0.105131 0.052227601 0.63700002 4287071096
0.106851 0.052224599 0.63700002 4286742899
0.108401 0.052139498 0.63599998 4286545518
0.109945 0.052054401 0.63499999 4286808431
0.111483 0.051969301 0.634 4286611050
0.113373 0.052048098 0.63499999 4286479464
0.114905 0.051963001 0.634 4286742638
0.116616 0.051959801 0.634 4287071603
0.118326 0.051956601 0.634 4286940792
0.120226 0.052035298 0.63499999 4287072380
0.121938 0.052032001 0.63499999 4287006332
0.123261 0.0518649 0.63300002 4286743160
0.124771 0.051779699 0.63200003 4286875001
0.126274 0.051694501 0.63099998 4287072378
0.127975 0.051691201 0.63099998 4286940792
0.129265 0.051523998 0.62900001 4287203964
0.13096 0.051520701 0.62900001 4287203964
0.132865 0.051599301 0.63 4286874999
0.134563 0.051596001 0.63 4287005817
0.136259 0.0515927 0.63 4287137403
0.13795599 0.051589299 0.63 4287203197
0.139874 0.051667899 0.63099998 4286874232
0.141349 0.051582702 0.63 4286940794
0.14304499 0.0515793 0.63 4287138173
0.144741 0.051576 0.63 4287137403
0.14620399 0.051490799 0.62900001 4286940024
0.147662 0.051405601 0.62800002 4287071611
0.149114 0.0513204 0.62699997 4287071611
0.151041 0.051399 0.62800002 4287268475
0.15273 0.051395699 0.62800002 4287071096
0.15466499 0.051474199 0.62900001 4287137143
0.15610901 0.051389098 0.62800002 4287071350
0.157295 0.051222101 0.62599999 4287071864
0.158724 0.051137101 0.625 4287269241
0.160661 0.0512156 0.62599999 4287137657
0.16234399 0.0512124 0.62599999 4287072378
0.16402701 0.0512092 0.62599999 4287137655
0.16623899 0.0513696 0.62800002 4287203448
0.167927 0.0513664 0.62800002 4287071862
0.16934501 0.051281501 0.62699997 4287202934
0.170757 0.051196601 0.62599999 4287268727
0.17243899 0.051193502 0.62599999 4287203448
0.174399 0.051272199 0.62699997 4287071862
0.175522 0.0511056 0.625 4286677359
0.176634 0.050939001 0.62300003 4286874224
0.17888001 0.051099598 0.625 4286874224
0.180848 0.051178399 0.62599999 4286808431
0.182529 0.051175401 0.62599999 4287071603
0.183916 0.051090799 0.625 4286676845
0.185298 0.051006202 0.62400001 4286742638
0.186974 0.0510034 0.62400001 4286808429
0.18865 0.051000599 0.62400001 4287203187
0.19002099 0.050916199 0.62300003 4287005810
0.19169401 0.050913502 0.62300003 4286940017
0.19367699 0.050992601 0.62400001 4287400568
0.195353 0.05099 0.62400001 4286742638
0.196398 0.050824001 0.62199998 4286808176
0.19775 0.050739799 0.62099999 4286545518
0.199417 0.0507374 0.62099999 4286808176
0.20173299 0.050898399 0.62300003 4286939764
0.203733 0.050977699 0.62400001 4286742131
0.20540901 0.050975401 0.62400001 4286742131
0.206421 0.050809801 0.62199998 4286478959
0.208092 0.0508077 0.62199998 4286742131
0.20976301 0.050805502 0.62199998 4286873717
0.21109401 0.050721802 0.62099999 4286873717
0.212763 0.050719801 0.62099999 4286676338
0.214432 0.050717901 0.62099999 4286742131
0.21644799 0.050797701 0.62199998 4286545006
0.217769 0.050714299 0.62099999 4286610797
0.21979199 0.050794199 0.62199998 4286611052
0.22182 0.0508743 0.62300003 4286808176
0.22385401 0.050954401 0.62400001 4286676590
0.22517 0.050871201 0.62300003 4286742383
0.22684599 0.0508698 0.62300003 4286742383
0.228521 0.050868399 0.62300003 4286873971
0.230197 0.0508672 0.62300003 4286808178
0.231502 0.050784402 0.62199998 4286874738
0.23317499 0.050783299 0.62199998 4287005810
0.23485 0.050782301 0.62199998 4286940531
0.23690499 0.050863001 0.62300003 4286808690
0.238582 0.050862201 0.62300003 4286939511
0.24026 0.0508614 0.62300003 4287137143
0.24193899 0.0508608 0.62300003 4286939764
0.243617 0.0508602 0.62300003 4287005557
0.244903 0.050778199 0.62199998 4287202934
0.24618299 0.050696202 0.62099999 4287071348
0.247858 0.0506959 0.62099999 4287071096
0.249935 0.050777402 0.62199998 4287005557
0.25120899 0.050695699 0.62099999 4287071348
0.252886 0.050695799 0.62099999 4287005555
0.253333 0.0504511 0.61799997 4286940017
0.25541499 0.050533 0.61900002 4286874224
0.25750199 0.050615001 0.62 4286808431
0.260432 0.050860401 0.62300003 4286874224
0.26169601 0.050779399 0.62199998 4286940268
0.26337901 0.050780099 0.62199998 4286808429
0.26420999 0.050617699 0.62 4286940017
0.26588801 0.050618701 0.62 4286940531
0.26756799 0.0506198 0.62 4286808945
0.26924801 0.050620999 0.62 4287072117
0.27049199 0.050540701 0.61900002 4287072117
0.27217001 0.050542202 0.61900002 4286874738
0.27384999 0.0505438 0.61900002 4287006324
0.27553099 0.050545599 0.61900002 4287203703
0.27721199 0.050547499 0.61900002 4286874483
0.27889401 0.0505495 0.61900002 4286742897
0.28012401 0.050469998 0.61799997 4286873969
0.28180501 0.0504723 0.61799997 4287071603
0.28394601 0.050556399 0.61900002 4286216808
0.28563201 0.050558999 0.61900002 4286940531
0.28685501 0.050480101 0.61799997 4286414701
