# .PCD v0.7 - Point Cloud Data file format
VERSION 0.7
FIELDS x y z rgb
SIZE 4 4 4 4
TYPE F F F U
COUNT 1 1 1 1
WIDTH 1104
HEIGHT 1
VIEWPOINT 0 0 0 1 0 0 0
POINTS 1104
DATA ascii
-0.042974502 -0.161305 0.68699998 4284305716
-0.041175701 -0.161543 0.68800002 4284635197
-0.0393713 -0.161781 0.68900001 4284635207
-0.037507001 -0.16178299 0.68900001 4284832331
-0.035642698 -0.161786 0.68900001 4284307009
-0.033827301 -0.16202299 0.69 4284767558
-0.031959999 -0.162025 0.69 4284438848
-0.030049101 -0.161792 0.68900001 4284636225
-0.0282254 -0.162029 0.69 4284636478
-0.0263579 -0.16203099 0.69 4284703031
-0.0244905 -0.16203301 0.69 4284701758
-0.0225573 -0.16156501 0.68800002 4284635965
-0.0207252 -0.161801 0.68900001 4284767299
-0.018860299 -0.16180199 0.68900001 4284701506
-0.016970599 -0.161569 0.68800002 4284569920
-0.0150863 -0.16133501 0.68699998 4284898371
-0.0132074 -0.161101 0.68599999 4284635199
-0.011367 -0.161337 0.68699998 4284635713
-0.0094934404 -0.161103 0.68599999 4284569665
-0.0076364102 -0.161103 0.68599999 4284635458
-0.0058130599 -0.16204301 0.69 4285293388
-0.0039909198 -0.163922 0.69800001 4284964937
-0.0021645799 -0.168854 0.71899998 4284570179
-0.00022940199 -0.177543 0.75599998 4284964937
0.0018796599 -0.183649 0.78200001 4284964937
0.0036337499 -0.16697501 0.71100003 4283121190
0.00514415 -0.15452801 0.65799999 4283714095
0.0065149302 -0.14536899 0.61900002 4283255097
0.00792595 -0.140671 0.59899998 4284967010
0.0093561802 -0.137853 0.58700001 4283386689
0.0109265 -0.13761701 0.58600003 4282992184
0.0124914 -0.137381 0.58499998 4283188529
0.014075 -0.13738 0.58499998 4282859047
0.0156049 -0.13691001 0.583 4283188267
0.0171535 -0.136674 0.58200002 4282925095
0.018761 -0.136907 0.583 4283319339
0.020373801 -0.137141 0.58399999 4282727202
0.022029599 -0.137609 0.58600003 4282727716
0.023535 -0.13713799 0.58399999 4282925095
0.025115499 -0.137136 0.58399999 4282925354
0.0266502 -0.13689999 0.583 4282070561
0.0281795 -0.136663 0.58200002 4281412632
0.0297033 -0.136426 0.58099997 4282399273
0.031275399 -0.13642401 0.58099997 4282333481
0.032903999 -0.136657 0.58200002 4280557070
0.034597199 -0.137124 0.58399999 4280623379
0.036239199 -0.137357 0.58499998 4280754965
0.0378218 -0.137354 0.58499998 4280360205
0.039337099 -0.137117 0.58399999 4280360204
0.0407767 -0.136645 0.58200002 4280557583
0.0422782 -0.136407 0.58099997 4280821013
0.0440006 -0.13687401 0.583 4281413150
0.045733798 -0.13734099 0.58499998 4281083933
0.0474777 -0.137807 0.58700001 4281807657
0.0488979 -0.137334 0.58499998 4282005036
0.050393499 -0.137096 0.58399999 4282202414
0.0517946 -0.13662399 0.58200002 4282400300
0.053276502 -0.13638601 0.58099997 4282662959
0.054658499 -0.135913 0.579 4282268194
0.056320801 -0.136144 0.57999998 4282399780
0.057988402 -0.136375 0.58099997 4282268193
0.059353799 -0.135902 0.579 4282465319
0.060708299 -0.13542899 0.57700002 4282201894
0.062375601 -0.13565999 0.57800001 4282267173
0.064158797 -0.136125 0.57999998 4282529831
0.066065997 -0.136825 0.583 4282398243
0.067873202 -0.137291 0.58499998 4282464036
0.070047297 -0.13846 0.58999997 4282596392
0.072855398 -0.140802 0.60000002 4282530859
0.077827603 -0.14713401 0.62699997 4282465066
0.0835796 -0.15463801 0.65899998 4282464806
0.088079602 -0.15956099 0.68000001 4282464806
0.0903126 -0.16026001 0.68300003 4282530859
0.092426799 -0.160724 0.685 4281215513
0.094138697 -0.160484 0.68400002 4281150233
0.095845103 -0.160244 0.68300003 4282005542
0.098118097 -0.160942 0.68599999 4282136873
0.100407 -0.161641 0.68900001 4281281306
0.10197 -0.161166 0.68699998 4279768067
0.10322 -0.16022199 0.68300003 4281610010
0.105063 -0.160216 0.68300003 4282597159
0.107219 -0.16068 0.685 4282596644
0.109067 -0.16067401 0.685 4282661921
0.111077 -0.16090301 0.68599999 4282464542
0.112763 -0.160662 0.685 4282464796
0.114444 -0.160422 0.68400002 4283056933
0.115949 -0.15994699 0.68199998 4282925607
0.117788 -0.159941 0.68199998 4282794021
0.119627 -0.159935 0.68199998 4282465573
0.121823 -0.16039801 0.68400002 4283123249
0.123486 -0.16015799 0.68300003 4282794799
0.125144 -0.159917 0.68199998 4282992177
0.12679701 -0.159677 0.68099999 4282597159
0.129199 -0.160374 0.68400002 4282202400
0.132576 -0.16224401 0.69199997 4282202400
0.137161 -0.16552 0.70599997 4282399263
0.13925999 -0.165749 0.70700002 4282990886
0.13877 -0.162929 0.69499999 4281543956
0.13821401 -0.16011 0.68300003 4281543701
0.136774 -0.156353 0.667 4281347610
0.12880699 -0.145331 0.62 4281480227
0.121428 -0.13524599 0.57700002 4284442210
0.119785 -0.131726 0.56199998 4286350210
0.12022 -0.130549 0.55699998 4283651927
0.121502 -0.13031 0.55599999 4283585357
0.122778 -0.130071 0.55500001 4283716429
0.124273 -0.13006601 0.55500001 4283584582
0.125995 -0.13029601 0.55599999 4283255870
0.127492 -0.130291 0.55599999 4283321149
0.128525 -0.12981801 0.55400002 4283584321
0.129548 -0.129345 0.55199999 4283452735
0.130797 -0.129106 0.551 4283452481
0.13204101 -0.128867 0.55000001 4283650121
0.133764 -0.129097 0.551 4283254849
0.13524801 -0.12909301 0.551 4283386950
0.13698 -0.12932301 0.55199999 4283452743
0.13821501 -0.12908401 0.551 4283585096
0.13944501 -0.128846 0.55000001 4283650375
0.140926 -0.128842 0.55000001 4283519558
0.142666 -0.129072 0.551 4283914316
0.14414901 -0.129068 0.551 4283452995
0.145633 -0.12906501 0.551 4283650374
0.14711601 -0.129061 0.551 4283715654
0.14886899 -0.129291 0.55199999 4283518275
0.149811 -0.128819 0.55000001 4283386688
0.151017 -0.128582 0.54900002 4283386689
0.15277299 -0.128813 0.55000001 4283321410
0.159582 -0.133259 0.56900001 4283321410
0.17442299 -0.144263 0.616 4283386688
0.190088 -0.155735 0.66500002 4283452482
0.196207 -0.159244 0.68000001 4283518274
0.19891199 -0.159943 0.68300003 4283386688
0.20104501 -0.160174 0.68400002 4283386689
0.202888 -0.160171 0.68400002 4283321410
0.204431 -0.159933 0.68300003 4283321409
0.20657299 -0.160165 0.68400002 4282926644
0.208415 -0.160162 0.68400002 4283321402
0.21025801 -0.16015901 0.68400002 4283650361
0.21179099 -0.159923 0.68300003 4283715639
0.214257 -0.16038901 0.685 4283715125
0.216103 -0.16038699 0.685 4283517232
0.21826801 -0.16061901 0.68599999 4283517232
0.219796 -0.160384 0.685 4283517232
0.221643 -0.160382 0.685 4283385391
0.22349 -0.160381 0.685 4283648049
0.22500899 -0.160146 0.68400002 4283714611
0.22619 -0.159677 0.68199998 4283845683
0.22836401 -0.15990999 0.68300003 4283845683
0.22987001 -0.159676 0.68199998 4283714356
0.23205 -0.15990999 0.68300003 4284043576
0.233551 -0.159676 0.68199998 4283780918
0.23573799 -0.15991101 0.68300003 4283518261
0.237582 -0.15991101 0.68300003 4283715125
0.239427 -0.15991201 0.68300003 4283781170
0.240918 -0.159679 0.68199998 4283780656
0.242761 -0.15967999 0.68199998 4283714863
0.24424601 -0.159448 0.68099999 4283648556
0.246087 -0.15944999 0.68099999 4283582763
0.24792799 -0.15945201 0.68099999 4283714095
0.249403 -0.15922 0.68000001 4283582763
0.250135 -0.158521 0.67699999 4283713581
0.25196701 -0.15852401 0.67699999 4283450407
0.25379899 -0.158527 0.67699999 4283845165
0.25638801 -0.158999 0.67900002 4283647786
0.25784701 -0.158769 0.67799997 4283188005
0.25891799 -0.158305 0.676 4283253798
0.26075 -0.15831 0.676 4283056165
0.26258299 -0.158314 0.676 4282661668
0.264808 -0.158554 0.67699999 4281543704
0.264676 -0.157388 0.67199999 4282070308
0.26570699 -0.15692601 0.67000002 4282136101
0.26552999 -0.155761 0.66500002 4282070823
0.26613101 -0.155065 0.662 4281742115
0.26550201 -0.153666 0.65600002 4282005289
0.26321101 -0.15133099 0.64600003 4282531633
0.262918 -0.150167 0.64099997 4282334507
0.26342401 -0.149472 0.63800001 4283124282
0.264745 -0.14924601 0.63700002 4282729272
0.26522601 -0.148551 0.634 4282597686
0.26569101 -0.147857 0.63099998 4282663479
0.265293 -0.146694 0.62599999 4282926651
0.26486799 -0.145532 0.62099999 4282992696
0.26398799 -0.144135 0.61500001 4283256638
0.26480401 -0.143677 0.61299998 4284243793
0.26430601 -0.142515 0.60799998 4284112207
0.264218 -0.141588 0.60399997 4284836447
0.26278999 -0.13995799 0.597 4285297258
0.26265299 -0.13903099 0.59299999 4286284414
0.26249501 -0.13810501 0.58899999 4286810764
0.26231599 -0.137179 0.58499998 4286877588
0.26211599 -0.136253 0.58099997 4287535779
0.26280299 -0.13579699 0.579 4288194224
0.26165399 -0.13440201 0.57300001 4287997358
0.25542 -0.130428 0.55599999 4288786875
0.25140399 -0.127626 0.54400003 4289246912
0.245928 -0.124119 0.52899998 4289246912
0.239903 -0.120378 0.51300001 4289970895
0.235673 -0.117576 0.50099999 4290034632
0.279277 -0.121816 0.51700002 4283847754
0.305177 -0.132447 0.56199998 4282926137
0.33297199 -0.14379101 0.61000001 4282729787
0.34403199 -0.14783099 0.62699997 4282729787
0.34967601 -0.149516 0.634 4282860858
0.35425299 -0.15073 0.639 4282926137
0.35830501 -0.15171 0.64300001 4283978825
0.36126101 -0.152219 0.64499998 4283847754
0.36310601 -0.152256 0.64499998 4284045133
0.367217 -0.15324 0.64899999 4284110925
0.37021601 -0.153752 0.65100002 4283715905
0.37323001 -0.154265 0.653 4283782198
0.37510899 -0.15430599 0.653 4283649077
0.37756801 -0.154585 0.65399998 4283451437
0.38061699 -0.155101 0.65600002 4283846449
0.38309699 -0.15538201 0.65700001 4283715377
0.38441399 -0.15519001 0.65600002 4283781170
0.38514 -0.154763 0.65399998 4283452215
0.387041 -0.15481 0.65399998 4280688656
0.39072901 -0.155568 0.65700001 4281676057
0.39443901 -0.15632699 0.66000003 4284505669
0.397569 -0.15685099 0.662 4284834886
0.40071401 -0.157377 0.66399997 4284768579
0.40448099 -0.15814 0.667 4285097544
0.407051 -0.15843099 0.66799998 4285031751
0.40901801 -0.158485 0.66799998 4284965958
0.41098899 -0.15854099 0.66799998 4284768579
0.41296399 -0.15859801 0.66799998 4284571714
0.415564 -0.158893 0.66900003 4284966472
0.41817501 -0.159189 0.67000002 4284374596
0.42079499 -0.15948699 0.671 4284966221
0.423426 -0.159786 0.67199999 4285163600
0.42480099 -0.159611 0.671 4285163346
0.42617401 -0.159436 0.67000002 4284899913
0.42818499 -0.159501 0.67000002 4284505669
0.431485 -0.160043 0.67199999 4284768327
0.434156 -0.160348 0.67299998 4284899397
0.434894 -0.15993901 0.671 4285097544
0.43692699 -0.160009 0.671 4284834372
0.43896499 -0.160079 0.671 4285032520
0.44166499 -0.16039 0.67199999 4284834886
0.44305599 -0.16022401 0.671 4285097544
0.44577301 -0.160537 0.67199999 4285820492
0.44916701 -0.161091 0.67400002 4285557319
0.45124 -0.16116799 0.67400002 4285295158
0.45264599 -0.161008 0.67299998 4284307503
0.45472801 -0.16108701 0.67299998 4284439605
0.45749301 -0.16140801 0.67400002 4284374073
0.459589 -0.16149101 0.67400002 4284110902
0.46169099 -0.161575 0.67400002 4284505660
0.46448699 -0.1619 0.67500001 4284965183
0.467296 -0.162227 0.676 4285162815
0.47081101 -0.16279601 0.67799997 4284965436
0.47364801 -0.16312701 0.67900002 4285426237
-0.198245 -0.157987 0.667 4289241988
-0.196448 -0.15798999 0.667 4289372807
-0.195235 -0.15846699 0.66900003 4289701260
-0.19372199 -0.15870699 0.67000002 4289307275
-0.191632 -0.158474 0.66900003 4289307275
-0.18983001 -0.15847699 0.66900003 4289504909
-0.18802799 -0.158481 0.66900003 4289504909
-0.18622699 -0.158485 0.66900003 4289504907
-0.18415 -0.158252 0.66799998 4289438861
-0.18235099 -0.15825599 0.66799998 4289504657
-0.180823 -0.15849701 0.66900003 4289175952
-0.179556 -0.15897501 0.671 4289241999
-0.177485 -0.15874299 0.67000002 4289044366
-0.175943 -0.15898401 0.671 4289110159
-0.173877 -0.15875199 0.67000002 4288781194
-0.17207301 -0.158757 0.67000002 4288649094
-0.169761 -0.158288 0.66799998 4288517762
-0.167962 -0.158292 0.66799998 4288846727
-0.166412 -0.15853401 0.66900003 4288649348
-0.16436499 -0.15830199 0.66799998 4289503887
-0.162809 -0.158545 0.66900003 4289503887
-0.161249 -0.158787 0.67000002 4289569682
-0.159206 -0.158555 0.66900003 4289964438
-0.157405 -0.15855999 0.66900003 4290096279
-0.15560301 -0.158566 0.66900003 4290293656
-0.15357199 -0.158334 0.66799998 4290622621
-0.152 -0.158577 0.66900003 4290491290
-0.15132 -0.159767 0.67400002 4290425497
-0.152832 -0.16332901 0.68900001 4290162325
-0.158207 -0.171158 0.722 4290425497
-0.13591801 -0.14887901 0.62800002 4290030747
-0.129952 -0.144143 0.60799998 4289768863
-0.127258 -0.14296301 0.60299999 4284637007
-0.125009 -0.142257 0.60000002 4283781698
-0.123392 -0.142262 0.60000002 4283781440
-0.121775 -0.142267 0.60000002 4283518268
-0.120359 -0.142509 0.60100001 4283452988
-0.118542 -0.142278 0.60000002 4283650367
-0.116924 -0.14228299 0.60000002 4283715647
-0.115499 -0.142525 0.60100001 4283649854
-0.113879 -0.14252999 0.60100001 4283846719
-0.112446 -0.142773 0.602 4283715387
-0.110639 -0.14254101 0.60100001 4284240963
-0.108837 -0.142309 0.60000002 4283977791
-0.107398 -0.142551 0.60100001 4283517501
-0.105602 -0.14231899 0.60000002 4283715134
-0.10381 -0.142087 0.59899998 4283780412
-0.102195 -0.142092 0.59899998 4283714619
-0.100747 -0.142335 0.60000002 4283846459
-0.099293701 -0.14257701 0.60100001 4283385908
-0.097509898 -0.142345 0.60000002 4283583033
-0.095891103 -0.14235 0.60000002 4283451962
-0.094272301 -0.142355 0.60000002 4283254582
-0.092807703 -0.142597 0.60100001 4283122996
-0.092096202 -0.144026 0.60699999 4283057203
-0.092246301 -0.146878 0.61900002 4282530859
-0.092477798 -0.149968 0.63200003 4282596906
-0.092208199 -0.152346 0.64200002 4282794285
-0.091320597 -0.15377501 0.648 4282596905
-0.090400599 -0.155204 0.65399998 4282530598
-0.089312501 -0.156396 0.65899998 4282399012
-0.088330001 -0.15782499 0.66500002 4282135840
-0.087184899 -0.159016 0.67000002 4282004252
-0.085630298 -0.15949599 0.67199999 4282398751
-0.083565898 -0.159026 0.67000002 4282595616
-0.0817561 -0.159031 0.67000002 4282660640
-0.080065601 -0.159273 0.671 4282726433
-0.078719303 -0.160228 0.67500001 4282726433
-0.077009603 -0.16046999 0.676 4282858019
-0.075294301 -0.160712 0.67699999 4283186983
-0.073356397 -0.16047899 0.676 4283055649
-0.071635403 -0.160721 0.67699999 4283121697
-0.069805801 -0.160725 0.67699999 4283253281
-0.068176799 -0.161204 0.67900002 4283319076
-0.066341497 -0.161208 0.67900002 4283516453
-0.064601101 -0.16145 0.68000001 4283648041
-0.062670499 -0.161217 0.67900002 4283581993
-0.060924299 -0.161458 0.68000001 4283450662
-0.059172701 -0.161699 0.68099999 4283384869
-0.0574155 -0.16193999 0.68199998 4283581993
-0.055571299 -0.161944 0.68199998 4283516455
-0.053727001 -0.161948 0.68199998 4283648041
-0.051806498 -0.161714 0.68099999 4283779372
-0.050038099 -0.161954 0.68199998 4283450407
-0.048193399 -0.16195799 0.68199998 4284042544
-0.046484601 -0.16243599 0.68400002 4283779372
-0.044569101 -0.162201 0.68300003 4284108337
-0.042784002 -0.162442 0.68400002 4284108337
-0.040933501 -0.162444 0.68400002 4284569657
-0.039140102 -0.16268399 0.685 4284635451
-0.037286799 -0.162687 0.685 4284438081
-0.0354334 -0.162689 0.685 4284372803
-0.033579901 -0.162692 0.685 4284110398
-0.031726301 -0.16269401 0.685 4284438848
-0.0298291 -0.162459 0.68400002 4284110135
-0.0280599 -0.162936 0.68599999 4284175927
-0.0262034 -0.162937 0.68599999 4284241974
-0.024382301 -0.163177 0.68699998 4284372792
-0.0224574 -0.16270299 0.685 4284109621
-0.020633601 -0.16294201 0.68599999 4284635711
-0.018776899 -0.162944 0.68599999 4284043060
-0.016920101 -0.162945 0.68599999 4284174646
-0.0150194 -0.162471 0.68400002 4284569404
-0.013168 -0.16247199 0.68400002 4284437818
-0.0113166 -0.16247299 0.68400002 4284437818
-0.0094374297 -0.161998 0.68199998 4284306234
-0.00760249 -0.16223601 0.68300003 4284437820
-0.0057789702 -0.162949 0.68599999 4284175162
-0.0039620502 -0.16461299 0.69300002 4284306242
-0.0021373399 -0.168651 0.70999998 4284306242
-0.000226352 -0.177202 0.74599999 4284306242
0.00186752 -0.18456601 0.77700001 4284306242
0.0035926199 -0.166988 0.70300001 4283845165
0.00511252 -0.155348 0.65399998 4283780142
0.0064934301 -0.146559 0.61699998 4283518526
0.0079121701 -0.14204501 0.59799999 4285361517
0.0093714697 -0.13967 0.588 4284636502
0.0109258 -0.139194 0.58600003 4283584067
0.0124692 -0.13871799 0.58399999 4282859564
0.0140259 -0.13847999 0.583 4283188012
0.0155771 -0.13824099 0.58200002 4283254060
0.017181801 -0.138477 0.583 4283121960
0.0187597 -0.138476 0.583 4283121960
0.0203724 -0.138712 0.58399999 4283056165
0.021952899 -0.13871101 0.58399999 4282596130
0.0234931 -0.13847201 0.583 4282398751
0.0250708 -0.13846999 0.583 4282859561
0.0266027 -0.13823099 0.58200002 4282925356
0.028225999 -0.138467 0.583 4282925871
0.0298035 -0.138465 0.583 4282531113
0.031381 -0.13846301 0.583 4282201894
0.033014901 -0.138698 0.58399999 4280689170
0.034535699 -0.138458 0.583 4280426003
0.0362368 -0.13893101 0.58499998 4280294417
0.0377547 -0.13869099 0.58399999 4281083933
0.039334498 -0.138688 0.58399999 4281610531
0.040773999 -0.138211 0.58200002 4282071082
0.0422755 -0.137971 0.58099997 4281873703
0.043771401 -0.13773 0.57999998 4281807656
0.045418099 -0.13796499 0.58099997 4280426518
0.047070201 -0.138199 0.58200002 4280229139
0.048476901 -0.137721 0.57999998 4280755482
0.050217699 -0.138193 0.58200002 4281873703
0.051613301 -0.137715 0.57999998 4282597424
0.0532731 -0.137949 0.58099997 4282597679
0.054843798 -0.13794599 0.58099997 4282335013
0.056414399 -0.137942 0.58099997 4281874458
0.057984799 -0.13793799 0.58099997 4281611045
0.059350099 -0.13745999 0.579 4281610541
0.060915001 -0.137456 0.579 4280886554
0.062371701 -0.137215 0.57800001 4281017621
0.064376101 -0.138161 0.58200002 4281740829
0.066062003 -0.138394 0.583 4282464552
0.068101197 -0.13934 0.58700001 4282464552
0.070043102 -0.140048 0.58999997 4282793517
0.072972499 -0.142654 0.60100001 4282859824
0.077698901 -0.14858399 0.62599999 4282925617
0.083321102 -0.155937 0.65700001 4282464552
0.087685898 -0.160679 0.67699999 4282793517
0.089910798 -0.161386 0.68000001 4282859824
0.091881797 -0.16161799 0.68099999 4280689682
0.093582898 -0.161375 0.68000001 4280887061
0.095278397 -0.16113301 0.67900002 4282005542
0.097540498 -0.16183899 0.68199998 4281939749
0.099818602 -0.16254599 0.685 4281807650
0.101519 -0.162303 0.68400002 4279964426
0.102761 -0.161348 0.68000001 4281412631
0.104596 -0.161342 0.68000001 4282267424
0.106587 -0.16157401 0.68099999 4282661661
0.108265 -0.161331 0.68000001 4282727454
0.109938 -0.161088 0.67900002 4282727200
0.111605 -0.160845 0.67799997 4282990372
0.113601 -0.16107699 0.67900002 4282530335
0.115263 -0.160834 0.67799997 4283056679
0.116919 -0.16059101 0.67699999 4282595875
0.11892 -0.160822 0.67799997 4282793256
0.120748 -0.160816 0.67799997 4282991149
0.122576 -0.16080999 0.67799997 4282465320
0.124037 -0.16033 0.676 4283056940
0.12586001 -0.16032401 0.676 4282728230
0.128438 -0.161267 0.68000001 4282465058
0.131612 -0.162921 0.68699998 4282267677
0.135989 -0.165998 0.69999999 4282201370
0.13866299 -0.16694 0.704 4282596128
0.138364 -0.164326 0.69300002 4281675028
0.137804 -0.161474 0.68099999 4281346322
0.13512801 -0.156252 0.65899998 4281478938
0.125477 -0.143206 0.60399997 4281348389
0.11995 -0.13514 0.56999999 4286415749
0.119354 -0.132764 0.56 4285889405
0.120215 -0.132048 0.55699998 4283651413
0.121716 -0.132044 0.55699998 4283453257
0.122774 -0.131565 0.55500001 4283584329
0.124045 -0.13132299 0.55400002 4283583814
0.125763 -0.131556 0.55500001 4283518275
0.127487 -0.131788 0.55599999 4283320895
0.12875301 -0.131547 0.55500001 4283781446
0.12954301 -0.130831 0.55199999 4283650114
0.130555 -0.130353 0.55000001 4283518274
0.132036 -0.130348 0.55000001 4283781447
0.133274 -0.130107 0.54900002 4283649861
0.134753 -0.13010301 0.54900002 4283912779
0.13623101 -0.130099 0.54900002 4283518021
0.13770901 -0.13009401 0.54900002 4283452996
0.13918699 -0.13009 0.54900002 4283386949
0.14066599 -0.130087 0.54900002 4283256645
0.14240301 -0.13032 0.55000001 4283322693
0.143884 -0.130316 0.55000001 4283321924
0.145629 -0.130549 0.551 4283650889
0.147379 -0.13078199 0.55199999 4283452996
0.148866 -0.130779 0.55199999 4283649861
0.14980701 -0.130301 0.55000001 4283847240
0.151013 -0.130061 0.54900002 4283452482
0.15332501 -0.130768 0.55199999 4283716168
0.160981 -0.135977 0.574 4283387203
0.17696799 -0.148055 0.625 4283781447
0.19036999 -0.157764 0.66600001 4283649861
0.195049 -0.160129 0.676 4283649861
0.19745199 -0.16060001 0.67799997 4283847240
0.199572 -0.160833 0.67900002 4283387203
0.201401 -0.16083001 0.67900002 4283585096
0.202931 -0.16058999 0.67799997 4284045384
0.20506001 -0.160825 0.67900002 4283518781
0.206889 -0.160822 0.67900002 4283255349
0.20841099 -0.160583 0.67799997 4283518261
0.20992801 -0.160344 0.67699999 4283649330
0.21206599 -0.160578 0.67799997 4283648816
0.214524 -0.16105001 0.68000001 4283846197
0.216675 -0.161285 0.68099999 4283648818
0.218832 -0.161521 0.68199998 4283911990
0.220348 -0.161283 0.68099999 4283845942
0.22185799 -0.161045 0.68000001 4283582770
0.224021 -0.161281 0.68099999 4283648818
0.225858 -0.16128001 0.68099999 4283911990
0.227695 -0.16128001 0.68099999 4283714870
0.229533 -0.16128001 0.68099999 4283188526
0.231371 -0.16128001 0.68099999 4283648818
0.232867 -0.161043 0.68000001 4283715125
0.234703 -0.161044 0.68000001 4283386675
0.23653901 -0.161045 0.68000001 4283386160
0.23837601 -0.161046 0.68000001 4283583277
0.23986 -0.16080999 0.67900002 4283451691
0.241695 -0.16081201 0.67900002 4283582763
0.24353001 -0.160813 0.67900002 4283779372
0.244643 -0.16034199 0.67699999 4283976751
0.24611001 -0.160107 0.676 4283516970
0.247572 -0.15987299 0.67500001 4283319591
0.24866 -0.159403 0.67299998 4283648556
0.250853 -0.15964299 0.67400002 4283845935
0.252303 -0.159409 0.67299998 4283385384
0.25488099 -0.159887 0.67500001 4283713579
0.25633001 -0.15965401 0.67400002 4283714349
0.257774 -0.159422 0.67299998 4283253798
0.25959799 -0.159427 0.67299998 4283122212
0.26142299 -0.15943199 0.67299998 4282859047
0.26324901 -0.159437 0.67299998 4282135326
0.26310599 -0.158259 0.66799998 4282398759
0.26452401 -0.15802801 0.667 4282070308
0.264339 -0.15685 0.662 4282202409
0.26493201 -0.156146 0.65899998 4281939494
0.26429501 -0.15473101 0.653 4282268714
0.261996 -0.15236899 0.64300001 4282137128
0.26128501 -0.15095399 0.63700002 4282531886
0.26219299 -0.150488 0.63499999 4282926644
0.26392299 -0.150497 0.63499999 4283781960
0.26397899 -0.14955699 0.63099998 4282663479
0.26443601 -0.148855 0.62800002 4282663479
0.264878 -0.14815301 0.625 4282860598
0.264878 -0.14721499 0.62099999 4283321916
0.26356801 -0.145565 0.61400002 4283322430
0.26351801 -0.144627 0.61000001 4283520324
0.263881 -0.14392599 0.60699999 4283980621
0.26335499 -0.14275201 0.602 4284178514
0.26280099 -0.14157701 0.597 4285494377
0.26266399 -0.14064001 0.59299999 4286152828
0.262952 -0.13993999 0.58999997 4286152578
0.262328 -0.138767 0.58499998 4287140246
0.26258001 -0.13806801 0.58200002 4287863714
0.262362 -0.13713101 0.57800001 4287930537
0.260297 -0.13524701 0.56999999 4287931566
0.25313601 -0.130751 0.551 4288918461
0.24864399 -0.12768 0.53799999 4288917693
0.24315199 -0.124133 0.523 4289180605
0.23851299 -0.121061 0.50999999 4286022801
0.28146401 -0.124185 0.52100003 4283715654
0.310094 -0.136132 0.57099998 4283255102
0.335188 -0.14641599 0.61400002 4282992445
0.34406599 -0.14955001 0.62699997 4282795066
0.349159 -0.151016 0.63300002 4283255102
0.35317999 -0.152006 0.63700002 4283123516
0.35666999 -0.152758 0.63999999 4283452481
0.35961801 -0.153273 0.64200002 4283715914
0.36201799 -0.15355 0.64300001 4284308051
0.36612499 -0.15454499 0.64700001 4284110926
0.36911899 -0.155063 0.64899999 4284110663
0.37212801 -0.155582 0.65100002 4283979832
0.37400201 -0.155624 0.65100002 4283912756
0.37587899 -0.15566701 0.65100002 4284307000
0.37834001 -0.15594999 0.65200001 4284372793
0.38139299 -0.15647399 0.65399998 4283583537
0.383288 -0.156519 0.65399998 4283452971
0.38459799 -0.15632699 0.653 4283452205
0.385905 -0.15613499 0.65200001 4283254826
0.388399 -0.156423 0.653 4280425989
0.39090201 -0.156712 0.65399998 4283979579
0.39461699 -0.157481 0.65700001 4284637507
0.398352 -0.158252 0.66000003 4284637764
0.402715 -0.159265 0.66399997 4285098313
0.404668 -0.159319 0.66399997 4284242749
0.40662399 -0.159374 0.66399997 4284637507
0.408584 -0.15943 0.66399997 4284637764
0.41178501 -0.159968 0.66600001 4284571971
0.414381 -0.160267 0.667 4284966729
0.41636199 -0.160326 0.667 4284374335
0.418975 -0.16062801 0.66799998 4284703048
0.420968 -0.16068999 0.66799998 4285097292
0.42296499 -0.160753 0.66799998 4285229393
0.42496601 -0.160817 0.66799998 4285492050
0.426972 -0.160882 0.66799998 4284308544
0.43026799 -0.161431 0.67000002 4284637509
0.432289 -0.16149899 0.67000002 4284702786
0.433667 -0.161327 0.66900003 4284702786
0.43504399 -0.161156 0.66799998 4285097544
0.43641999 -0.16098601 0.667 4284636478
0.439109 -0.1613 0.66799998 4284966213
0.44048899 -0.16113199 0.667 4284899651
0.443858 -0.16169 0.66900003 4285163076
0.446578 -0.162009 0.67000002 4284899399
0.44931 -0.162329 0.671 4285097525
0.451381 -0.16240799 0.671 4285162814
0.453457 -0.162489 0.671 4283847469
0.456218 -0.16281401 0.67199999 4284505146
0.45830899 -0.16289701 0.67199999 4284242490
0.459721 -0.16274001 0.671 4284636478
0.46250999 -0.16306899 0.67199999 4284241206
0.466001 -0.163643 0.67400002 4284965436
0.46951199 -0.16421901 0.676 4285031229
0.47234401 -0.164553 0.67699999 4284702011
-0.197945 -0.159546 0.66600001 4289043842
-0.196445 -0.159788 0.667 4289043328
-0.19494 -0.16003101 0.66799998 4289239939
-0.193141 -0.160034 0.66799998 4289240709
-0.191055 -0.159798 0.667 4289503879
-0.18897501 -0.15956099 0.66600001 4289175168
-0.1869 -0.159326 0.66500002 4289504133
-0.18511 -0.159329 0.66500002 4288912256
-0.183319 -0.15933301 0.66500002 4289043842
-0.181255 -0.159097 0.66399997 4289043589
-0.18000799 -0.15958101 0.66600001 4288846726
-0.178749 -0.160064 0.66799998 4289175177
-0.17695101 -0.16006801 0.66799998 4289175177
-0.17489 -0.159833 0.667 4289372301
-0.173094 -0.15983801 0.667 4289109129
-0.171041 -0.159603 0.66600001 4288780164
-0.168993 -0.15936799 0.66500002 4289043077
-0.16720299 -0.159373 0.66500002 4289306249
-0.16541199 -0.15937801 0.66500002 4289306249
-0.163868 -0.159622 0.66600001 4289372042
-0.16231699 -0.159867 0.667 4288977284
-0.160521 -0.159872 0.667 4288911238
-0.15872499 -0.159877 0.667 4289174663
-0.15669399 -0.15964299 0.66600001 4289174408
-0.15513299 -0.159888 0.667 4288845696
-0.153336 -0.15989301 0.667 4289174916
-0.151767 -0.160138 0.66799998 4289241223
-0.15109 -0.161342 0.67299998 4289438088
-0.15149599 -0.163745 0.68300003 4289372295
-0.156229 -0.17094401 0.713 4289306502
-0.136995 -0.151769 0.63300002 4289899415
-0.130588 -0.14649899 0.611 4289965985
-0.127675 -0.14506599 0.60500002 4284504917
-0.125212 -0.14411201 0.60100001 4283650367
-0.123593 -0.144117 0.60100001 4283715647
-0.121973 -0.144122 0.60100001 4283584315
-0.120554 -0.14436699 0.602 4283781440
-0.118734 -0.144132 0.60100001 4283649854
-0.117114 -0.14413799 0.60100001 4283649855
-0.115494 -0.144143 0.60100001 4283584062
-0.114064 -0.14438801 0.602 4283451961
-0.112441 -0.144393 0.602 4283517754
-0.110818 -0.144398 0.602 4283649340
-0.109013 -0.144164 0.60100001 4283780926
-0.107572 -0.144409 0.602 4283715134
-0.105772 -0.14417399 0.60100001 4283780412
-0.103978 -0.143939 0.60000002 4283583033
-0.10236 -0.143944 0.60000002 4283450931
-0.101078 -0.144429 0.602 4284043068
-0.099619001 -0.144674 0.60299999 4283714103
-0.097829796 -0.144439 0.602 4283714105
-0.096045896 -0.144205 0.60100001 4283911484
-0.094424397 -0.14421 0.60100001 4283122482
-0.093111597 -0.144694 0.60299999 4283122482
-0.092242897 -0.145899 0.60799998 4282727724
-0.092539303 -0.14902399 0.62099999 4281938208
-0.092765398 -0.15214901 0.634 4281806622
-0.092346698 -0.154314 0.64300001 4282793771
-0.0913155 -0.15551899 0.648 4282530599
-0.090395503 -0.156964 0.65399998 4282530599
-0.089442901 -0.158409 0.66000003 4282333219
-0.088457704 -0.15985399 0.66600001 4282201119
-0.087309897 -0.16105901 0.671 4282398496
-0.085497901 -0.161064 0.671 4281871891
-0.083561003 -0.16082899 0.67000002 4282529053
-0.081751302 -0.160834 0.67000002 4282726686
-0.080060802 -0.161079 0.671 4282792479
-0.078598 -0.16180401 0.67400002 4283121190
-0.076777101 -0.161808 0.67400002 4283055397
-0.075067297 -0.162053 0.67500001 4283055651
-0.073134899 -0.161818 0.67400002 4283121442
-0.071525201 -0.162302 0.676 4283121442
-0.069698401 -0.16230699 0.676 4283055904
-0.067971803 -0.162551 0.67699999 4283121697
-0.066141903 -0.16255499 0.67699999 4283450662
-0.064312004 -0.162559 0.67699999 4283187490
-0.0625742 -0.16280299 0.67799997 4283319076
-0.060741302 -0.162807 0.67799997 4283911211
-0.058995102 -0.16305099 0.67900002 4283779625
-0.0572435 -0.163295 0.68000001 4284174385
-0.055404801 -0.16329899 0.68000001 4283977004
-0.053566001 -0.163302 0.68000001 4283779625
-0.051727101 -0.163306 0.68000001 4283977004
-0.049814701 -0.16306899 0.67900002 4283713834
-0.047978301 -0.163072 0.67900002 4284174385
-0.0461418 -0.163075 0.67900002 4284108590
-0.044305101 -0.163078 0.67900002 4283911211
-0.042530999 -0.163321 0.68000001 4283977004
-0.040691402 -0.163324 0.68000001 4284108845
-0.038851801 -0.163326 0.68000001 4284503348
-0.0369577 -0.16308901 0.67900002 4284437818
-0.0351207 -0.163091 0.67900002 4284371772
-0.033332501 -0.163334 0.68000001 4284766286
-0.031492598 -0.16333599 0.68000001 4284832584
-0.029652599 -0.16333801 0.68000001 4284832576
-0.0278125 -0.16334 0.68000001 4284635451
-0.025934201 -0.163102 0.67900002 4284503864
-0.024096699 -0.163103 0.67900002 4284372279
-0.022291999 -0.16334499 0.68000001 4284372279
-0.020511899 -0.163827 0.68199998 4284372025
-0.0187208 -0.164309 0.68400002 4284437818
-0.016869601 -0.16430999 0.68400002 4284239925
-0.0149964 -0.16407099 0.68300003 4284766269
-0.0131094 -0.163591 0.68099999 4284437302
-0.0112662 -0.163592 0.68099999 4284371509
-0.0094091101 -0.163353 0.68000001 4284108337
-0.0075685801 -0.163353 0.68000001 4284240693
-0.0057280301 -0.16335399 0.68000001 4284109107
-0.0039217598 -0.164795 0.68599999 4284503097
-0.0021100999 -0.16839901 0.70099998 4284503097
-0.000223606 -0.177047 0.73699999 4284503097
0.0018481601 -0.184734 0.76899999 4284503097
0.00357704 -0.16815899 0.69999999 4283977006
0.0050965399 -0.156627 0.65200001 4283911988
0.0064824601 -0.14797901 0.616 4285426786
0.0078983903 -0.14341401 0.597 4285361519
0.0093708299 -0.141252 0.588 4284373330
0.0109064 -0.14053001 0.58499998 4283386688
0.0124684 -0.14028899 0.58399999 4283385140
0.014049 -0.140288 0.58399999 4283253038
0.0156295 -0.140287 0.58399999 4283121707
0.0172101 -0.140286 0.58399999 4282858533
0.0188227 -0.140525 0.58499998 4283253546
0.020370999 -0.140284 0.58399999 4283121960
0.0219514 -0.14028201 0.58399999 4283056681
0.0234512 -0.1398 0.58200002 4283122474
0.025069101 -0.140039 0.583 4282728745
0.026600899 -0.139797 0.58200002 4282136354
0.028224099 -0.140035 0.583 4282531112
0.029801499 -0.14003301 0.583 4282794285
0.031378899 -0.140031 0.583 4281807903
0.0328996 -0.139789 0.58200002 4281149978
0.0345334 -0.140027 0.583 4280689436
0.036234401 -0.140505 0.58499998 4280097299
0.0378168 -0.14050201 0.58499998 4281215780
0.039331902 -0.14026 0.58399999 4281018654
0.040841401 -0.140017 0.583 4281742117
0.042272702 -0.139534 0.58099997 4280492564
0.043844 -0.139531 0.58099997 4279965966
0.0454152 -0.13952801 0.58099997 4280623897
0.047228899 -0.14024501 0.58399999 4280361241
0.048640899 -0.139762 0.58200002 4280098069
0.050300799 -0.139999 0.583 4281808940
0.051610101 -0.139275 0.57999998 4281874984
0.053453099 -0.139992 0.583 4282005801
0.055029102 -0.139989 0.583 4282005296
0.0567021 -0.14022601 0.58399999 4280558104
0.058180802 -0.139982 0.583 4280031770
0.0595515 -0.139498 0.58099997 4280952358
0.061016399 -0.139254 0.57999998 4281676585
0.0625837 -0.13925 0.57999998 4282597172
0.064482801 -0.13996699 0.583 4282925618
0.066284597 -0.140443 0.58499998 4282794032
0.068213098 -0.141159 0.588 4282596653
0.070157699 -0.141875 0.59100002 4282662446
0.073210999 -0.144752 0.60299999 4282662960
0.077942498 -0.150748 0.62800002 4282662446
0.083443098 -0.15794501 0.65799999 4282662446
0.087421797 -0.16202 0.67500001 4282662446
0.089641199 -0.162735 0.67799997 4281676065
0.091606803 -0.16297001 0.67900002 4280952599
0.093164802 -0.162485 0.67699999 4281084440
0.094992504 -0.16248 0.67699999 4281413405
0.097106002 -0.162954 0.67900002 4281544991
0.099521697 -0.163909 0.68300003 4281215767
0.101217 -0.163663 0.68199998 4279834114
0.102604 -0.162938 0.67900002 4281675803
0.104436 -0.16293199 0.67900002 4282201631
0.106425 -0.163167 0.68000001 4281937938
0.1081 -0.162921 0.67900002 4282201110
0.109609 -0.16243599 0.67699999 4282200856
0.111435 -0.16243 0.67699999 4282003991
0.113428 -0.162664 0.67799997 4282201370
0.115087 -0.16241799 0.67699999 4282596128
0.11674 -0.162173 0.676 4282596130
0.118739 -0.162407 0.67699999 4282398496
0.120564 -0.16240101 0.67699999 4282793768
0.122209 -0.162155 0.676 4282662182
0.123848 -0.16191 0.67500001 4282530851
0.125668 -0.16190401 0.67500001 4283057195
0.12805399 -0.162618 0.67799997 4282399265
0.13122299 -0.16429099 0.685 4282070300
0.135594 -0.167402 0.69800001 4282201372
0.13767201 -0.16763601 0.699 4282201372
0.13756 -0.165232 0.68900001 4281609494
0.136988 -0.162348 0.67699999 4281543701
0.13348199 -0.15610801 0.65100002 4281149974
0.123602 -0.142674 0.59500003 4281611561
0.119734 -0.136435 0.56900001 4286613385
0.119349 -0.13427199 0.56 4284639338
0.120642 -0.134028 0.55900002 4283717206
0.122148 -0.134023 0.55900002 4283124553
0.123433 -0.13377801 0.55800003 4283386950
0.124488 -0.133294 0.55599999 4283715400
0.125985 -0.13328999 0.55599999 4283254849
0.127941 -0.133765 0.55800003 4283255103
0.129444 -0.13376001 0.55800003 4283386688
0.130243 -0.133037 0.55500001 4283386688
0.131025 -0.132313 0.55199999 4283320895
0.13203201 -0.13182899 0.55000001 4283584067
0.133513 -0.131825 0.55000001 4283386942
0.134749 -0.13158099 0.54900002 4283715653
0.136475 -0.131817 0.55000001 4283518274
0.13795599 -0.131813 0.55000001 4283452995
0.139944 -0.13228799 0.55199999 4283584582
0.141174 -0.132045 0.551 4283716429
0.142658 -0.13204101 0.551 4283519305
0.144141 -0.132037 0.551 4283585098
0.145625 -0.13203301 0.551 4283650891
0.147109 -0.13203 0.551 4283585098
0.148323 -0.131787 0.55000001 4283584328
0.149259 -0.131304 0.54799998 4283519305
0.15046 -0.131061 0.54699999 4283256133
0.153877 -0.132735 0.55400002 4283650891
0.16294099 -0.139201 0.58099997 4283256133
0.17951199 -0.151896 0.634 4283715914
0.190938 -0.16003799 0.66799998 4283386949
0.194469 -0.16147199 0.67400002 4283715914
0.196867 -0.161948 0.676 4283321926
0.198981 -0.162184 0.67699999 4283387719
0.201102 -0.162421 0.67799997 4283321924
0.20232999 -0.161939 0.676 4284044870
0.20445301 -0.162176 0.67699999 4283781953
0.206277 -0.162174 0.67699999 4282926124
0.208102 -0.16217101 0.67699999 4283715125
0.20961601 -0.16192999 0.676 4283714863
0.211438 -0.161928 0.676 4283517230
0.213576 -0.162166 0.67699999 4283517232
0.215719 -0.162404 0.67799997 4283517232
0.217547 -0.162402 0.67799997 4283386160
0.219376 -0.16240101 0.67799997 4283780918
0.221204 -0.16240001 0.67799997 4283517491
0.223362 -0.16263901 0.67900002 4283714870
0.22552601 -0.16287801 0.68000001 4284043576
0.227695 -0.163118 0.68099999 4283780149
0.229196 -0.16287801 0.68000001 4283912249
0.230692 -0.16263901 0.67900002 4283583025
0.232182 -0.16240001 0.67799997 4283911990
0.233668 -0.16216099 0.67699999 4283583284
0.235497 -0.16216201 0.67699999 4283846456
0.237326 -0.162163 0.67699999 4283977783
0.23915499 -0.162165 0.67699999 4283451437
0.24098501 -0.162166 0.67699999 4283714349
0.242456 -0.161929 0.676 4283713579
0.24392299 -0.16169199 0.67500001 4283845935
0.24465699 -0.16097599 0.67199999 4283780142
0.246841 -0.161218 0.67299998 4284240955
0.248293 -0.160982 0.67199999 4283451437
0.250485 -0.16122501 0.67299998 4283714609
0.25155699 -0.160749 0.671 4283451691
0.25337499 -0.160753 0.671 4283517230
0.25443301 -0.16027901 0.66900003 4283516970
0.256246 -0.160283 0.66900003 4283319591
0.25844601 -0.160528 0.67000002 4283056419
0.26065201 -0.16077299 0.671 4282859554
0.26208201 -0.160539 0.67000002 4282004505
0.26271901 -0.159826 0.667 4282004768
0.26373699 -0.159353 0.66500002 4282070822
0.264745 -0.15888099 0.66299999 4282070822
0.26534101 -0.158169 0.66000003 4282268201
0.26511201 -0.156978 0.65499997 4282136869
0.26281899 -0.154589 0.64499998 4282136869
0.262523 -0.15339801 0.63999999 4281939749
0.26302701 -0.152688 0.63700002 4282268714
0.26476201 -0.152696 0.63700002 4285360730
0.26440701 -0.15150601 0.63200003 4282794803
0.26444599 -0.150557 0.62800002 4283123768
0.26403999 -0.149368 0.62300003 4283057975
0.264034 -0.14841799 0.61900002 4283321147
0.26357901 -0.14723 0.61400002 4283190075
0.263529 -0.146281 0.61000001 4283782981
0.26389199 -0.14557301 0.60699999 4284111946
0.26380301 -0.14462399 0.60299999 4284704598
0.263253 -0.143437 0.59799999 4285033825
0.26356199 -0.142729 0.59500003 4285692017
0.26385599 -0.142022 0.59200001 4285955198
0.26323801 -0.140835 0.58700001 4286679695
0.263044 -0.139888 0.583 4287600542
0.26282999 -0.138941 0.579 4287535780
0.259397 -0.136315 0.56800002 4288326070
0.253149 -0.132248 0.551 4288852668
0.24912 -0.129382 0.53899997 4288984254
0.2427 -0.125314 0.52200001 4289378498
0.237592 -0.121967 0.50800002 4285956494
0.271954 -0.12197 0.50599998 4284110412
0.28635299 -0.127782 0.52999997 4283320895
0.316641 -0.140591 0.583 4282992184
0.33794999 -0.149305 0.61900002 4283255102
0.346295 -0.152234 0.63099998 4283255102
0.35029799 -0.153235 0.63499999 4282662965
0.353771 -0.15399501 0.63800001 4282794551
0.35615 -0.154274 0.639 4283320895
0.359097 -0.15479501 0.64099997 4284241744
0.36205801 -0.15531699 0.64300001 4284439123
0.365033 -0.15583999 0.64499998 4283913296
0.36802199 -0.15636399 0.64700001 4283715401
0.37102699 -0.15688901 0.64899999 4283649077
0.37404501 -0.157416 0.65100002 4283780916
0.37650099 -0.157701 0.65200001 4283714863
0.37896499 -0.157988 0.653 4283714863
0.38143799 -0.15827601 0.65399998 4283386412
0.38274801 -0.15808 0.653 4283715377
0.38464499 -0.15812799 0.653 4283714863
0.38595301 -0.157934 0.65200001 4283189033
0.387853 -0.15798301 0.65200001 4282005021
0.38975701 -0.158033 0.65200001 4280491790
0.39286599 -0.15856899 0.65399998 4284111169
0.39719799 -0.159592 0.65799999 4284769352
0.40155599 -0.160616 0.662 4284834886
0.40411299 -0.160914 0.66299999 4284703300
0.40545499 -0.16072699 0.662 4284834886
0.40741101 -0.16078401 0.662 4285098317
0.40998799 -0.16108499 0.66299999 4284506180
0.41257599 -0.161387 0.66399997 4285032522
0.41455001 -0.161448 0.66399997 4284374335
0.416527 -0.16150901 0.66399997 4284177717
0.41850901 -0.16157199 0.66399997 4284769093
0.42112899 -0.161879 0.66500002 4285032267
0.42375901 -0.162187 0.66600001 4285098058
0.42512101 -0.16201 0.66500002 4285229644
0.427766 -0.162321 0.66600001 4284768579
0.429777 -0.16238999 0.66600001 4284505407
0.43179199 -0.16246 0.66600001 4284571200
0.43250999 -0.16204301 0.66399997 4284571200
0.43387401 -0.161871 0.66299999 4285097029
0.436553 -0.16218799 0.66399997 4284439605
0.437922 -0.162018 0.66299999 4284768065
0.440617 -0.162339 0.66399997 4285228112
0.44332299 -0.162661 0.66500002 4285359698
0.44738001 -0.163473 0.66799998 4285097030
0.45011601 -0.163799 0.66900003 4285030975
0.45218799 -0.163881 0.66900003 4284241460
0.454265 -0.163964 0.66900003 4284504378
0.456348 -0.164049 0.66900003 4284109620
0.458437 -0.16413499 0.66900003 4284043827
0.46053201 -0.164222 0.66900003 4284634944
0.46540001 -0.16529401 0.67299998 4285096769
0.46752 -0.16538499 0.67299998 4284833596
0.46964601 -0.16547801 0.67299998 4284767550
-0.199137 -0.160854 0.66399997 4289044880
-0.19705001 -0.160614 0.66299999 4288846726
-0.195264 -0.16061699 0.66299999 4288977798
-0.19377001 -0.160862 0.66399997 4289175177
-0.19227 -0.161108 0.66500002 4288780419
-0.18962 -0.160384 0.662 4289109123
-0.187553 -0.160145 0.66100001 4289438088
-0.18549199 -0.159906 0.66000003 4289306500
-0.18427099 -0.160394 0.662 4289306500
-0.182212 -0.160156 0.66100001 4289503881
-0.18043201 -0.16016001 0.66100001 4289109123
-0.178652 -0.160164 0.66100001 4288912258
-0.17714 -0.16041 0.662 4289109121
-0.175357 -0.160414 0.662 4288977537
-0.17383599 -0.160661 0.66299999 4289174916
-0.172051 -0.16066501 0.66299999 4289042560
-0.170009 -0.160427 0.662 4289437318
-0.167972 -0.16019 0.66100001 4289568904
-0.166192 -0.16019399 0.66100001 4289305732
-0.16466101 -0.160441 0.662 4289108354
-0.163124 -0.160689 0.66299999 4289437318
-0.161339 -0.160694 0.66299999 4289174400
-0.159554 -0.16069899 0.66299999 4289240699
-0.15752999 -0.16046099 0.662 4289437570
-0.155983 -0.16070899 0.66299999 4289108607
-0.15419701 -0.160714 0.66299999 4289042560
-0.152181 -0.160477 0.662 4289174400
-0.150398 -0.160482 0.662 4289174146
-0.14951301 -0.161457 0.66600001 4289108353
-0.14949401 -0.16340201 0.67400002 4289240193
-0.153156 -0.169469 0.699 4289240193
-0.13677301 -0.15323 0.63200003 4289042560
-0.129941 -0.14741699 0.60799998 4288781195
-0.127037 -0.14596701 0.602 4284570200
-0.12479 -0.145245 0.59899998 4284241991
-0.123176 -0.14524999 0.59899998 4284044858
-0.121968 -0.14574 0.60100001 4283978558
-0.120549 -0.145987 0.602 4283978559
-0.118926 -0.14599299 0.602 4284175170
-0.116914 -0.145513 0.60000002 4283911998
-0.115297 -0.145518 0.60000002 4283846205
-0.113869 -0.145766 0.60100001 4283912252
-0.112622 -0.146256 0.60299999 4283781180
-0.110997 -0.14626101 0.60299999 4283715133
-0.109371 -0.146266 0.60299999 4283715133
-0.107567 -0.146029 0.602 4283649340
-0.105943 -0.146034 0.602 4283583033
-0.104146 -0.145796 0.60100001 4283846459
-0.102696 -0.146044 0.602 4283648565
-0.101073 -0.14604899 0.602 4283911737
-0.099613898 -0.14629699 0.60299999 4283648565
-0.097824797 -0.14605901 0.602 4283582258
-0.096360497 -0.14630701 0.60299999 4283647796
-0.0945765 -0.14606901 0.602 4283319345
-0.093106598 -0.14631701 0.60299999 4283253552
-0.0920863 -0.147292 0.60699999 4282529829
-0.092534304 -0.150695 0.62099999 4281871899
-0.092760302 -0.153854 0.634 4281938462
-0.0920543 -0.155558 0.64099997 4282530599
-0.090887703 -0.156534 0.64499998 4282596391
-0.090113997 -0.15823799 0.65200001 4282595877
-0.089031301 -0.159457 0.65700001 4282332703
-0.088054202 -0.160918 0.66299999 4282069531
-0.086524203 -0.16140801 0.66500002 4282069270
-0.084983297 -0.161899 0.667 4282200342
-0.083181903 -0.16190401 0.667 4282463514
-0.081380501 -0.161908 0.667 4282858272
-0.079698101 -0.162156 0.66799998 4282923806
-0.0781269 -0.162646 0.67000002 4283121444
-0.076316901 -0.162651 0.67000002 4283253028
-0.0746179 -0.162898 0.671 4283187235
-0.072804898 -0.162903 0.671 4283187235
-0.071097597 -0.16315 0.67199999 4283121442
-0.069281697 -0.16315401 0.67199999 4283450662
-0.067566 -0.16340099 0.67299998 4283318821
-0.065747097 -0.163405 0.67299998 4283450662
-0.064023003 -0.163652 0.67400002 4283187490
-0.062201101 -0.163656 0.67400002 4283319076
-0.060379099 -0.16366 0.67400002 4283516453
-0.058557 -0.163664 0.67400002 4283780139
-0.056818899 -0.16391 0.67500001 4284042797
-0.055075299 -0.164157 0.676 4283845932
-0.0532475 -0.16416 0.676 4283911211
-0.0514195 -0.16416401 0.676 4284042799
-0.049518 -0.16392399 0.67500001 4283977006
-0.0476925 -0.163927 0.67500001 4284371764
-0.045866899 -0.16393 0.67500001 4284503348
-0.044106498 -0.164176 0.676 4284240431
-0.042277999 -0.164179 0.676 4283911464
-0.0404494 -0.16418201 0.676 4284240429
-0.038620699 -0.164184 0.676 4284240178
-0.036737502 -0.16394401 0.67500001 4283845935
-0.035014901 -0.164432 0.67699999 4284174142
-0.0331342 -0.16419099 0.676 4284568393
-0.0313516 -0.164436 0.67699999 4284306495
-0.0295198 -0.16443899 0.67699999 4284503611
-0.027688 -0.16444001 0.67699999 4284569658
-0.025817901 -0.16419899 0.676 4284503864
-0.024024099 -0.164444 0.67699999 4284898623
-0.022224899 -0.16468801 0.67799997 4284898369
-0.0204503 -0.165176 0.68000001 4284700990
-0.018637501 -0.16542 0.68099999 4284437820
-0.016794501 -0.16542099 0.68099999 4284437820
-0.0148856 -0.164694 0.67799997 4284634683
-0.0130315 -0.164452 0.67699999 4284174130
-0.0111827 -0.16420899 0.676 4284438072
-0.0093807904 -0.16469599 0.67799997 4284371509
-0.0075457999 -0.16469701 0.67799997 4284043314
-0.0057023601 -0.164454 0.67699999 4284371509
-0.0038986299 -0.16566899 0.68199998 4284634681
-0.0020919 -0.168827 0.69499999 4284437557
-0.00022116399 -0.177086 0.72899997 4284437557
0.00183362 -0.18534601 0.76300001 4284634681
0.00356147 -0.169313 0.69700003 4283977257
0.0050571002 -0.157167 0.64700001 4284043574
0.0064504398 -0.14890701 0.61299998 4285360992
0.0078713903 -0.14453401 0.59500003 4287006593
0.00933831 -0.14234699 0.58600003 4283584572
0.0109056 -0.142104 0.58499998 4282926131
0.0124462 -0.141617 0.583 4283188014
0.014024 -0.141616 0.583 4282924326
0.0156017 -0.141615 0.583 4283186983
0.017267801 -0.142343 0.58600003 4283056165
0.0188215 -0.14209899 0.58499998 4283188267
0.020404501 -0.142097 0.58499998 4283385391
0.0219124 -0.14161 0.583 4283122733
0.0234899 -0.141609 0.583 4283451698
0.025110399 -0.14184999 0.58399999 4283320629
0.0266448 -0.141605 0.583 4283320629
0.0282222 -0.14160299 0.583 4283123764
0.0298506 -0.141844 0.58399999 4283386682
0.031376801 -0.141599 0.583 4282795058
0.033066999 -0.142083 0.58499998 4282005549
0.0345903 -0.141838 0.58399999 4280098079
0.036355801 -0.142564 0.58700001 4280690212
0.037879001 -0.14231899 0.58600003 4280953639
0.039396599 -0.14207301 0.58499998 4279900949
0.0408387 -0.14158501 0.583 4279901204
0.0422699 -0.14109699 0.58099997 4281874992
0.043916602 -0.14133701 0.58200002 4282270257
0.045334101 -0.140848 0.57999998 4281743923
0.047064099 -0.141331 0.58200002 4280296223
0.048554201 -0.141085 0.58099997 4280427556
0.050297599 -0.14156701 0.583 4280493603
0.051784702 -0.141321 0.58200002 4280690728
0.0535414 -0.14180399 0.58399999 4280097580
0.055119999 -0.1418 0.58399999 4280426545
0.056698602 -0.14179701 0.58399999 4280623915
0.058177199 -0.14155 0.583 4281940018
0.059547801 -0.14106099 0.58099997 4282400054
0.061117899 -0.141057 0.58099997 4282926137
0.062687799 -0.141054 0.58099997 4283057720
0.0644788 -0.141535 0.583 4282728238
0.066167302 -0.141774 0.58399999 4282333480
0.068209 -0.14274099 0.588 4282267687
0.070034802 -0.143222 0.58999997 4282662445
0.0732067 -0.146374 0.60299999 4282465580
0.077689797 -0.151952 0.62599999 4282465580
0.0831846 -0.15922999 0.65600002 4282662445
0.086898699 -0.162866 0.671 4282465580
0.088974997 -0.16334599 0.67299998 4281215514
0.090926997 -0.16358399 0.67400002 4280689427
0.0926091 -0.16333599 0.67299998 4281281819
0.094425902 -0.163331 0.67299998 4281281819
0.096385598 -0.163568 0.67400002 4281873443
0.098641999 -0.16429099 0.67699999 4281413405
0.100766 -0.16477001 0.67900002 4279834373
0.101994 -0.163794 0.67500001 4281544478
0.103662 -0.163546 0.67400002 4282464803
0.105324 -0.163298 0.67299998 4282530337
0.10714 -0.16329201 0.67299998 4282398749
0.108793 -0.16304401 0.67199999 4282661921
0.110606 -0.163039 0.67199999 4282399265
0.112419 -0.16303299 0.67199999 4282070300
0.114061 -0.16278499 0.671 4282333472
