# .PCD v0.7 - Point Cloud Data file format
VERSION 0.7
FIELDS x y z rgb
SIZE 4 4 4 4
TYPE F F F U
COUNT 1 1 1 1
WIDTH 1102
HEIGHT 1
VIEWPOINT 0 0 0 1 0 0 0
POINTS 1102
DATA ascii
0.15033101 -0.21003801 0.54100001 4286544222
0.15179799 -0.21004599 0.54100001 4286806880
0.153265 -0.210054 0.54100001 4286478169
0.154447 -0.209674 0.54000002 4286806620
0.156201 -0.210071 0.54100001 4286543962
0.15766899 -0.21008 0.54100001 4286675547
0.15972599 -0.210866 0.54299998 4287925614
0.160606 -0.210099 0.54100001 4287728749
0.162075 -0.210109 0.54100001 4287466347
0.16263799 -0.208955 0.53799999 4287926382
0.164405 -0.209354 0.53899997 4287729516
0.16587 -0.209365 0.53899997 4287466598
0.16795599 -0.210153 0.54100001 4287663977
0.16942801 -0.210164 0.54100001 4287926381
0.1709 -0.21017601 0.54100001 4287794795
0.17205299 -0.2098 0.54000002 4287465578
0.17352299 -0.209813 0.54000002 4286676062
0.175318 -0.210215 0.54100001 4285887062
0.176792 -0.210228 0.54100001 4286742118
0.177936 -0.20985401 0.54000002 4287268208
0.179741 -0.21025699 0.54100001 4287860345
0.18088099 -0.209883 0.54000002 4287400562
0.18269201 -0.21028601 0.54100001 4287663734
0.183828 -0.209913 0.54000002 4287663733
0.185302 -0.209929 0.54000002 4287663473
0.186777 -0.20994499 0.54000002 4287926645
0.18895 -0.21074 0.542 4287860852
0.19008 -0.21036801 0.54100001 4287795571
0.19191401 -0.210775 0.542 4287466608
0.19304 -0.21040399 0.54100001 4287466612
0.19487999 -0.210812 0.542 4287663991
0.19600201 -0.21044201 0.54100001 4287598198
0.197119 -0.210072 0.54000002 4287137647
0.198232 -0.209703 0.53899997 4287203434
0.20008101 -0.210113 0.54000002 4287005541
0.20193601 -0.21052299 0.54100001 4287071334
0.203421 -0.210545 0.54100001 4285952853
0.204907 -0.210567 0.54100001 4286873704
0.206394 -0.21058901 0.54100001 4287268199
0.208266 -0.21100201 0.542 4287400037
0.209758 -0.211026 0.542 4287202649
0.21164 -0.211439 0.54299998 4287728227
0.213136 -0.211464 0.54299998 4287595874
0.214633 -0.21149001 0.54299998 4287332447
0.21573301 -0.211126 0.542 4286082382
0.21722899 -0.211153 0.542 4286016850
0.21872599 -0.21118 0.542 4286675548
0.219817 -0.21081799 0.54100001 4287268705
0.221314 -0.21084701 0.54100001 4287334498
0.222399 -0.21048599 0.54000002 4287400551
0.22348 -0.210126 0.53899997 4287202912
0.22497401 -0.21015599 0.53899997 4287333984
0.226469 -0.210187 0.53899997 4286939730
0.22838899 -0.21060801 0.54000002 4286873432
0.22988901 -0.21064 0.54000002 4286281295
0.23096199 -0.210283 0.53899997 4287004765
0.232462 -0.210316 0.53899997 4287136098
0.233529 -0.20996 0.53799999 4287399270
0.23459101 -0.20960499 0.537 4286808162
0.23565 -0.20925 0.53600001 4285755988
0.23670401 -0.208896 0.53500003 4286612081
0.23641799 -0.20737 0.53100002 4287599761
0.236559 -0.206236 0.528 4286415993
0.23713601 -0.205492 0.52600002 4284244307
0.23861 -0.20553 0.52600002 4283322945
0.24008501 -0.20557 0.52600002 4283388223
0.24156199 -0.20561001 0.52600002 4283059258
0.24304099 -0.20565 0.52600002 4283124537
0.243591 -0.20491 0.52399999 4283189816
0.244599 -0.204561 0.523 4283058230
0.24607299 -0.204603 0.523 4283124023
0.248023 -0.205038 0.52399999 4283058230
0.24998 -0.205474 0.52499998 4282926644
0.25098601 -0.205128 0.52399999 4282991924
0.25246999 -0.205175 0.52399999 4282860851
0.25347 -0.20483001 0.523 4283058230
0.25495499 -0.204878 0.523 4282795058
0.25595099 -0.20453499 0.52200001 4282795058
0.257929 -0.20497601 0.523 4282860851
0.25842699 -0.204243 0.52100003 4282860598
0.26041201 -0.204686 0.52200001 4282794551
0.261401 -0.204347 0.52100003 4283189561
0.263901 -0.205185 0.523 4282663217
0.265398 -0.205239 0.523 4282663472
0.26689801 -0.205294 0.523 4282663725
0.26942599 -0.206136 0.52499998 4282729516
0.273516 -0.208157 0.52999997 4282466344
0.277118 -0.20978799 0.53399998 4281544985
0.27917999 -0.210241 0.53500003 4281742364
0.280725 -0.21030299 0.53500003 4281215505
0.28174499 -0.20997301 0.53399998 4281741849
0.28276101 -0.20964301 0.53299999 4282400033
0.284307 -0.20970801 0.53299999 4282992682
0.28532001 -0.209381 0.53200001 4282926891
0.28740701 -0.209841 0.53299999 4282663719
0.28841901 -0.209516 0.53200001 4282597924
0.28997201 -0.209585 0.53200001 4283123240
0.29152799 -0.209656 0.53200001 4282991654
0.29363799 -0.21012101 0.53299999 4283123250
0.29520199 -0.21019401 0.53299999 4282531365
0.29676899 -0.210269 0.53299999 4282794021
0.29777899 -0.20995 0.53200001 4282794791
0.29934901 -0.210026 0.53200001 4282597926
0.301487 -0.210499 0.53299999 4282795305
0.303065 -0.21057799 0.53299999 4283716405
0.30579001 -0.211449 0.53500003 4283453233
0.30737999 -0.211532 0.53500003 4283058467
0.30955201 -0.21201099 0.53600001 4283715377
0.31057101 -0.21170001 0.53500003 4283452205
0.31158799 -0.211391 0.53399998 4283781170
0.312601 -0.21108299 0.53299999 4283321388
0.31479201 -0.211568 0.53399998 4283518765
0.315806 -0.211262 0.53299999 4283914037
0.31741399 -0.211354 0.53299999 4283519281
0.31842601 -0.21105 0.53200001 4284044856
0.32003799 -0.211145 0.53200001 4283847991
0.32165301 -0.21124101 0.53200001 4283914041
0.32266399 -0.210942 0.53100002 4283914037
0.32428399 -0.211041 0.53100002 4284044595
0.32590801 -0.21114101 0.53100002 4283123493
0.328769 -0.21203899 0.53299999 4283188002
0.33102599 -0.212542 0.53399998 4282925600
0.33267099 -0.212648 0.53399998 4283320618
0.333693 -0.212357 0.53299999 4283386411
0.335343 -0.212467 0.53299999 4283583791
0.33763 -0.21297701 0.53399998 4283386158
0.33865601 -0.21269099 0.53299999 4283517484
0.34031901 -0.212805 0.53299999 4283781169
0.34262699 -0.213321 0.53399998 4284043827
0.34301299 -0.21264 0.53200001 4283650353
0.344686 -0.21276 0.53200001 4284241216
0.34506199 -0.212081 0.52999997 4284505146
0.34870201 -0.213406 0.53299999 4284176697
0.34973499 -0.213131 0.53200001 4284505407
0.35274899 -0.21405999 0.53399998 4284439100
0.35312599 -0.213388 0.53200001 4284833344
0.35482901 -0.21351901 0.53200001 4284241460
0.357207 -0.214054 0.53299999 4283189539
0.359597 -0.21459199 0.53399998 4284175927
0.36267501 -0.215534 0.53600001 4284374335
0.36373299 -0.21527299 0.53500003 4284045370
0.365473 -0.215416 0.53500003 4284440383
0.36721799 -0.215561 0.53500003 4284045111
0.36965901 -0.216111 0.53600001 4284242488
0.370033 -0.215454 0.53399998 4284506431
0.370401 -0.21479701 0.53200001 4283914296
0.37215999 -0.21495099 0.53200001 4283782710
0.37603399 -0.21631899 0.53500003 4283980089
0.37852201 -0.21688201 0.53600001 4283191088
0.38031399 -0.217044 0.53600001 4281874992
-0.199692 -0.21081799 0.53799999 4289637263
-0.19821499 -0.210797 0.53799999 4289637528
-0.196374 -0.210384 0.537 4290624179
-0.195265 -0.210756 0.53799999 4290493868
-0.194151 -0.211128 0.53899997 4290099109
-0.19267499 -0.211109 0.53899997 4289703574
-0.190845 -0.21069901 0.53799999 4289243019
-0.18902101 -0.210289 0.537 4289440398
-0.187204 -0.20987999 0.53600001 4289637775
-0.18539201 -0.209471 0.53500003 4290230171
-0.184274 -0.209846 0.53600001 4289440404
-0.183833 -0.211004 0.53899997 4289769881
-0.18236201 -0.210988 0.53899997 4290361504
-0.18089101 -0.210972 0.53899997 4290098332
-0.17941999 -0.21095701 0.53899997 4289900953
-0.17761999 -0.21055099 0.53799999 4290098074
-0.175826 -0.210145 0.537 4289769109
-0.17403799 -0.20974 0.53600001 4289965712
-0.17322201 -0.210509 0.53799999 4289504647
-0.171757 -0.21049599 0.53799999 4288188273
-0.170293 -0.210483 0.53799999 4289175167
-0.16914199 -0.210862 0.53899997 4289043582
-0.167676 -0.21085 0.53899997 4288714617
-0.16621 -0.210838 0.53899997 4288845433
-0.16443899 -0.210435 0.53799999 4289240191
-0.16328 -0.210816 0.53899997 4289569409
-0.16211499 -0.21119601 0.54000002 4289964167
-0.160946 -0.211577 0.54100001 4289174651
-0.159182 -0.21117499 0.54000002 4289372544
-0.158007 -0.211557 0.54100001 4289767818
-0.15625 -0.211156 0.54000002 4289635202
-0.15507101 -0.211538 0.54100001 4289174651
-0.153319 -0.211138 0.54000002 4287332955
-0.152417 -0.21191099 0.542 4288056425
-0.150947 -0.21190301 0.542 4287069792
-0.14920101 -0.211504 0.54100001 4288583030
-0.147462 -0.211105 0.54000002 4288912510
-0.145998 -0.211098 0.54000002 4289241475
-0.144802 -0.211482 0.54100001 4288451445
-0.14307199 -0.21108399 0.54000002 4289569926
-0.141085 -0.21029501 0.53799999 4288517752
-0.13988701 -0.21067999 0.53899997 4289307268
-0.138684 -0.211064 0.54000002 4289438854
-0.136968 -0.210668 0.53899997 4288780924
-0.134755 -0.209489 0.53600001 4288517237
-0.133304 -0.209484 0.53600001 4288911996
-0.13259199 -0.210651 0.53899997 4288780409
-0.13162 -0.211428 0.54100001 4289109374
-0.130156 -0.21142299 0.54100001 4288320372
-0.128455 -0.211027 0.54000002 4289044096
-0.12722901 -0.211413 0.54100001 4288320373
-0.125999 -0.21179999 0.542 4287991922
-0.124303 -0.21140499 0.54100001 4287333992
-0.122614 -0.21100999 0.54000002 4288714614
-0.121154 -0.211007 0.54000002 4289438592
-0.119472 -0.210612 0.53899997 4288451697
-0.117797 -0.210218 0.53799999 4288122732
-0.116343 -0.210215 0.53799999 4287596133
-0.115316 -0.21099401 0.54000002 4287727721
-0.114278 -0.21177199 0.542 4287661928
-0.112814 -0.211769 0.542 4287859821
-0.111349 -0.211767 0.542 4287728489
-0.10948 -0.21098299 0.54000002 4288319856
-0.108021 -0.210981 0.54000002 4288583028
-0.106365 -0.21058799 0.53899997 4289240444
-0.105298 -0.211367 0.54100001 4289306237
-0.104029 -0.21175601 0.542 4289240444
-0.102755 -0.212145 0.54299998 4289306237
-0.101102 -0.211752 0.542 4289109372
-0.099638298 -0.211751 0.542 4289175165
-0.097993597 -0.21135899 0.54100001 4288715384
-0.0967113 -0.211748 0.542 4288320626
-0.095247902 -0.21174701 0.542 4288057706
-0.093957603 -0.212136 0.54299998 4288189039
-0.092321299 -0.21174499 0.542 4288254832
-0.091025703 -0.212135 0.54299998 4288386418
-0.089559801 -0.212134 0.54299998 4288518005
-0.088256299 -0.212524 0.54400003 4288715384
-0.086468697 -0.211742 0.542 4288978302
-0.085005701 -0.211741 0.542 4288780924
-0.083542697 -0.21174 0.542 4288780409
-0.082231201 -0.21213099 0.54299998 4288583028
-0.080616802 -0.21174 0.542 4288319342
-0.079300001 -0.21213 0.54299998 4288583283
-0.077834398 -0.21213 0.54299998 4288385649
-0.076509498 -0.21252 0.54400003 4288714614
-0.074903302 -0.212129 0.54299998 4288583544
-0.073167302 -0.211348 0.54100001 4288320373
-0.071574703 -0.21095701 0.54000002 4288188787
-0.070117302 -0.21095701 0.54000002 4288057715
-0.068659998 -0.21095701 0.54000002 4288386680
-0.067202598 -0.21095701 0.54000002 4288452473
-0.065501802 -0.21017601 0.53799999 4288057714
-0.0640499 -0.21017601 0.53799999 4288715645
-0.062714301 -0.210567 0.53899997 4288780924
-0.061259702 -0.210568 0.53899997 4288517752
-0.059694201 -0.210177 0.53799999 4288714617
-0.058134001 -0.209787 0.537 4288451444
-0.056684799 -0.209787 0.537 4288122479
-0.055338498 -0.210178 0.53799999 4288582779
-0.0538866 -0.210179 0.53799999 4288583030
-0.052434701 -0.210179 0.53799999 4288320109
-0.0510775 -0.21056999 0.53899997 4288451695
-0.049807001 -0.21135201 0.54100001 4288517743
-0.048168302 -0.21057101 0.53899997 4288583028
-0.046627 -0.210181 0.53799999 4288320373
-0.045259099 -0.210572 0.53899997 4288255094
-0.043967001 -0.211353 0.54100001 4288124022
-0.0425856 -0.21174499 0.542 4288124274
-0.041046999 -0.211354 0.54100001 4288058743
-0.039586902 -0.211355 0.54100001 4287795057
-0.038126901 -0.211355 0.54100001 4288058745
-0.036531299 -0.210574 0.53899997 4287861619
-0.035141699 -0.21096499 0.54000002 4288190841
-0.033746701 -0.211357 0.54100001 4288255863
-0.032405999 -0.212138 0.54299998 4288649852
-0.0307696 -0.210967 0.54000002 4288321656
-0.029366501 -0.211358 0.54100001 4287995005
-0.027906399 -0.211358 0.54100001 4288323972
-0.0264952 -0.211749 0.542 4288060293
-0.025032399 -0.21175 0.542 4287731582
-0.023700001 -0.21292201 0.54500002 4287205491
-0.0222291 -0.21292201 0.54500002 4286875767
-0.0207582 -0.21292301 0.54500002 4285757034
-0.019181101 -0.211751 0.542 4284836193
-0.017751001 -0.21214201 0.54299998 4283785305
-0.016315401 -0.212533 0.54400003 4284243297
-0.0148745 -0.212924 0.54500002 4283258457
-0.0133543 -0.212143 0.54299998 4282534733
-0.0118669 -0.211752 0.542 4281941311
-0.0103848 -0.211362 0.54100001 4282137921
-0.0089411801 -0.211753 0.542 4282138176
-0.0074507198 -0.210971 0.54000002 4282730060
-0.0059710601 -0.21019 0.53799999 4282270023
-0.0045189899 -0.21019 0.53799999 4282335807
-0.0030783101 -0.210971 0.54000002 4283388495
-0.00162384 -0.211362 0.54100001 4283782483
-0.00016337 -0.210972 0.54000002 4285690221
0.00129171 -0.210581 0.53899997 4286545518
0.0027413799 -0.21019 0.53799999 4287072117
0.0042012502 -0.210581 0.53899997 4287664254
0.00566652 -0.210971 0.54000002 4287927426
0.0071371798 -0.211362 0.54100001 4288322184
0.0085814502 -0.210971 0.54000002 4287730553
0.0100389 -0.210971 0.54000002 4288059518
0.0114964 -0.210971 0.54000002 4288321401
0.0129538 -0.210971 0.54000002 4287729264
0.0143579 -0.210189 0.53799999 4287861356
0.0157806 -0.20979799 0.537 4288058229
0.0172299 -0.20979799 0.537 4288255608
0.0186793 -0.20979799 0.537 4288321403
0.020166099 -0.210188 0.53799999 4288058231
0.0215779 -0.20979699 0.537 4287860852
0.023112999 -0.21057799 0.53899997 4288189815
0.0246133 -0.210968 0.54000002 4288518266
0.0261673 -0.211749 0.542 4288452473
0.027579101 -0.211358 0.54100001 4287333992
0.0290929 -0.211749 0.542 4286478683
0.0305556 -0.211748 0.542 4287794029
0.032018401 -0.211748 0.542 4287267685
0.0334194 -0.211357 0.54100001 4287135594
0.034879498 -0.211356 0.54100001 4287333478
0.0364067 -0.21174601 0.542 4287069275
0.037869401 -0.21174601 0.542 4287530081
0.039259601 -0.211355 0.54100001 4286806356
0.0406444 -0.21096399 0.54000002 4287135321
0.0421797 -0.211354 0.54100001 4287530593
0.043720402 -0.211744 0.542 4287597156
0.045099702 -0.211353 0.54100001 4287202144
0.046559699 -0.211353 0.54100001 4287267937
0.047931001 -0.210962 0.54000002 4287399523
0.049479701 -0.21135201 0.54100001 4287991660
0.050939701 -0.21135101 0.54100001 4288320625
0.052399699 -0.21135101 0.54100001 4288320626
0.0538597 -0.21135101 0.54100001 4288452212
0.055422001 -0.211741 0.542 4287794542
0.056779701 -0.21134999 0.54100001 4287926128
0.058239698 -0.21134999 0.54100001 4288188787
0.059589401 -0.210959 0.54000002 4288320372
0.0612728 -0.21174 0.542 4288319859
0.062619701 -0.211349 0.54100001 4286082896
0.064079702 -0.211349 0.54100001 4285754699
0.065297499 -0.210567 0.53899997 4288123246
0.066752099 -0.210567 0.53899997 4288123760
0.068080202 -0.21017601 0.53799999 4287597930
0.069919899 -0.211348 0.54100001 4287597163
0.071248002 -0.21095701 0.54000002 4287268198
0.072705403 -0.21095701 0.54000002 4286938720
0.073888101 -0.21017601 0.53799999 4287662443
0.075620197 -0.21095701 0.54000002 4286873957
0.077220403 -0.211348 0.54100001 4287071596
0.079116799 -0.212521 0.54400003 4285032273
0.081029497 -0.21369299 0.54699999 4280756258
0.081902601 -0.21213099 0.54299998 4284703858
0.0832147 -0.21174 0.542 4288190084
0.084365197 -0.210959 0.54000002 4288255103
0.085822903 -0.21096 0.54000002 4287662703
0.087118901 -0.21056999 0.53899997 4287465324
0.088738203 -0.210961 0.54000002 4287728236
0.090195999 -0.210962 0.54000002 4287794029
0.091653802 -0.210963 0.54000002 4287201891
0.093111701 -0.21096399 0.54000002 4287662442
0.094744697 -0.211356 0.54100001 4287662696
0.096383199 -0.211748 0.542 4287662696
0.0980272 -0.21213999 0.54299998 4287794282
0.0993101 -0.211751 0.542 4287729003
0.100588 -0.21136101 0.54100001 4287399784
0.10186 -0.210972 0.54000002 4286938973
0.103318 -0.21097399 0.54000002 4287267168
0.105165 -0.211757 0.542 4287596135
0.106826 -0.21214999 0.54299998 4287728489
0.108292 -0.212152 0.54299998 4287663209
0.109759 -0.212155 0.54299998 4287663209
0.111021 -0.211766 0.542 4287597923
0.112693 -0.21215899 0.54299998 4287137119
0.11395 -0.211771 0.542 4287333731
0.115415 -0.21177401 0.542 4287465317
0.116664 -0.21138699 0.54100001 4287267938
0.118126 -0.21139 0.54100001 4287136098
0.12003 -0.212175 0.54299998 4286873441
0.121498 -0.21217801 0.54299998 4286610269
0.122739 -0.21179099 0.542 4287202406
0.123976 -0.211404 0.54100001 4287070306
0.12520701 -0.211017 0.54000002 4287267431
0.126901 -0.211412 0.54100001 4286938720
0.128365 -0.211417 0.54100001 4287004513
0.12982801 -0.211422 0.54100001 4287332971
0.13104901 -0.211036 0.54000002 4287005027
0.132265 -0.21065 0.53899997 4287136359
0.13372301 -0.210655 0.53899997 4287202154
0.13518199 -0.21066099 0.53899997 4287465064
0.13714799 -0.211448 0.54100001 4287465063
0.138613 -0.211454 0.54100001 4287661926
0.14007799 -0.21145999 0.54100001 4287530340
0.141019 -0.210685 0.53899997 4287070306
0.142479 -0.210691 0.53899997 4287201892
0.14394 -0.21069799 0.53899997 4287399531
0.1454 -0.210705 0.53899997 4287333740
0.146861 -0.210713 0.53899997 4287727984
0.148322 -0.21072 0.53899997 4287859568
0.150061 -0.211119 0.54000002 4287530605
0.152087 -0.21190999 0.542 4287398503
0.153274 -0.211527 0.54100001 4287793515
0.154456 -0.211145 0.54000002 4287530343
0.155632 -0.21076301 0.53899997 4287530856
0.157095 -0.21077199 0.53899997 4287531624
0.15914699 -0.211564 0.54100001 4287729003
0.160616 -0.211574 0.54100001 4287597678
0.161786 -0.21119399 0.54000002 4287532399
0.16325299 -0.21120401 0.54000002 4287795057
0.164416 -0.210824 0.53899997 4287729264
0.166189 -0.211227 0.54000002 4287400554
0.167658 -0.211238 0.54000002 4287137380
0.16944 -0.211642 0.54100001 4287465831
0.170596 -0.211263 0.54000002 4287465831
0.172066 -0.21127599 0.54000002 4286873694
0.173215 -0.210897 0.53899997 4287005026
0.175331 -0.211693 0.54100001 4286478682
0.177132 -0.212099 0.542 4286478683
0.17861 -0.21211299 0.542 4286610269
0.179755 -0.21173701 0.54100001 4286939750
0.18123101 -0.211752 0.54100001 4287466092
0.18237001 -0.211376 0.54000002 4287795059
0.183503 -0.211 0.53899997 4287860850
0.184632 -0.21062499 0.53799999 4287597678
0.18644799 -0.211033 0.53899997 4287597678
0.18827 -0.21144199 0.54000002 4287991668
0.190098 -0.211851 0.54100001 4287992438
0.191223 -0.21147799 0.54000002 4287926906
0.193058 -0.211888 0.54100001 4287926652
0.19453999 -0.211907 0.54100001 4287992445
0.196384 -0.212319 0.542 4287861370
0.19713899 -0.211555 0.54000002 4287598198
0.19825201 -0.211184 0.53899997 4287795571
0.19973101 -0.21120501 0.53899997 4287531885
0.201957 -0.21201 0.54100001 4285821781
0.20344301 -0.21203201 0.54100001 4286742883
0.205309 -0.212447 0.542 4287728759
0.206799 -0.21247 0.542 4287728506
0.208674 -0.21288601 0.54299998 4287202920
0.210169 -0.21291 0.54299998 4287268442
0.212055 -0.21332701 0.54400003 4286807123
0.21355399 -0.21335299 0.54400003 4286411598
0.21505401 -0.213379 0.54400003 4286477393
0.21575899 -0.212621 0.542 4286411345
0.21725599 -0.212648 0.542 4285885515
0.219157 -0.21306901 0.54299998 4286214480
0.22025201 -0.212705 0.542 4286149709
0.221343 -0.212341 0.54100001 4287071073
0.22284099 -0.21237101 0.54100001 4287005280
0.22434001 -0.212401 0.54100001 4287531371
0.22542299 -0.21203899 0.54000002 4287465830
0.226501 -0.211678 0.53899997 4287466347
0.228421 -0.21210299 0.54000002 4287268715
0.229496 -0.211743 0.53899997 4287136612
0.230995 -0.211776 0.53899997 4286742108
0.23249599 -0.21181101 0.53899997 4286280789
0.23356301 -0.21145201 0.53799999 4285885515
0.235064 -0.21148799 0.53799999 4286477401
0.23612601 -0.21113101 0.537 4286412879
0.237626 -0.21116801 0.537 4286216539
0.238236 -0.210419 0.53500003 4285232478
0.238837 -0.20967001 0.53299999 4287533443
0.238978 -0.208529 0.52999997 4282204210
0.24000999 -0.208175 0.52899998 4284111693
0.241495 -0.208215 0.52899998 4283782982
0.242981 -0.20825601 0.52899998 4282992951
0.24400599 -0.207904 0.528 4283124023
0.244563 -0.207158 0.52600002 4282992437
0.24651299 -0.20759501 0.52700001 4283321402
0.247529 -0.20724501 0.52600002 4283123510
0.249488 -0.207684 0.52700001 4282991924
0.25097799 -0.20773 0.52700001 4283320889
0.25294799 -0.20817 0.528 4283057717
0.25396201 -0.20782299 0.52700001 4282860851
0.25545701 -0.207872 0.52700001 4282991930
0.25646701 -0.207526 0.52600002 4283058230
0.25796199 -0.20757601 0.52600002 4282663725
0.25896701 -0.207232 0.52499998 4282926644
0.259471 -0.206494 0.523 4282926644
0.26096401 -0.20654701 0.523 4283058230
0.26295999 -0.206995 0.52399999 4282662959
0.26496401 -0.207445 0.52499998 4282465580
0.266976 -0.207895 0.52600002 4282597419
0.26848599 -0.20795199 0.52600002 4282926384
0.27153701 -0.209196 0.52899998 4282597419
0.27409101 -0.21004599 0.53100002 4282400294
0.27769801 -0.211689 0.53500003 4281873696
0.27924201 -0.211751 0.53500003 4281610524
0.280788 -0.211814 0.53500003 4281873436
0.282336 -0.211877 0.53500003 4281478677
0.28335601 -0.211546 0.53399998 4282005275
0.28490701 -0.211612 0.53399998 4282268959
0.285923 -0.211283 0.53299999 4282729512
0.28693601 -0.21095499 0.53200001 4282926637
0.28794599 -0.210627 0.53100002 4282598185
0.28949699 -0.21069799 0.53100002 4283057963
0.29159999 -0.21116599 0.53200001 4282663205
0.29260799 -0.210842 0.53100002 4282991906
0.29472199 -0.21131299 0.53200001 4283123240
0.296287 -0.21138801 0.53200001 4283122472
0.29841501 -0.211862 0.53299999 4283188779
0.29942599 -0.211542 0.53200001 4282794021
0.301 -0.211621 0.53200001 4282729512
0.30257699 -0.211702 0.53200001 4283519026
0.30472901 -0.212182 0.53299999 4283584819
0.306315 -0.212265 0.53299999 4283387442
0.30848101 -0.21274801 0.53399998 4283386926
0.30949599 -0.21243501 0.53299999 4283979063
0.31109101 -0.212523 0.53299999 4283518512
0.31210399 -0.21221299 0.53200001 4283716146
0.313703 -0.212303 0.53200001 4283650865
0.31530499 -0.212394 0.53200001 4283716658
0.31691101 -0.212487 0.53200001 4283848501
0.31911999 -0.212981 0.53299999 4283716405
0.32073599 -0.21307801 0.53299999 4283979834
0.321751 -0.21277501 0.53200001 4283716662
0.322763 -0.212474 0.53100002 4284177466
0.32438499 -0.212575 0.53100002 4284308281
0.32600999 -0.212677 0.53100002 4283583790
0.32887301 -0.21358199 0.53299999 4283123493
0.33113199 -0.21408901 0.53399998 4283386411
0.33215499 -0.21379501 0.53299999 4282992423
0.33317599 -0.213503 0.53200001 4283518512
0.33419499 -0.213212 0.53100002 4283715891
0.33647799 -0.213726 0.53200001 4283978295
0.338135 -0.21384101 0.53200001 4284373307
0.33979601 -0.213957 0.53200001 4284505407
0.34146199 -0.214074 0.53200001 4283847215
0.34248799 -0.213791 0.53100002 4284308020
0.34415999 -0.21391299 0.53100002 4284110387
0.34453401 -0.21323 0.52899998 4284636731
0.34686401 -0.21375801 0.52999997 4285228869
0.34854701 -0.21388499 0.52999997 4284768318
0.350896 -0.214417 0.53100002 4284899904
0.35192901 -0.21414401 0.52999997 4285097283
0.353627 -0.214277 0.52999997 4284505407
0.356002 -0.214816 0.53100002 4284373821
0.35838801 -0.215358 0.53200001 4284044858
0.36078501 -0.215903 0.53299999 4284110911
0.362515 -0.21604501 0.53299999 4284637507
0.36425099 -0.216189 0.53299999 4284637507
0.36599201 -0.216335 0.53299999 4284572226
0.36842901 -0.21689001 0.53399998 4284967237
0.36949101 -0.216635 0.53299999 4284966982
0.36985701 -0.215974 0.53100002 4284835396
0.37161601 -0.216129 0.53100002 4284374588
0.37338001 -0.216287 0.53100002 4284111408
0.37585801 -0.21685401 0.53200001 4283651625
0.376928 -0.216608 0.53100002 4282796330
-0.19857299 -0.209557 0.53100002 4289834642
-0.19785701 -0.210324 0.53299999 4289505938
-0.196394 -0.21030299 0.53299999 4290558630
-0.194932 -0.210282 0.53299999 4290624939
-0.19383299 -0.210656 0.53399998 4290559660
-0.19272999 -0.211031 0.53500003 4290032286
-0.191265 -0.21101101 0.53500003 4289374609
-0.18979999 -0.21099199 0.53500003 4289243017
-0.188335 -0.21097299 0.53500003 4289308810
-0.18617301 -0.21016701 0.53299999 4289572239
-0.18402299 -0.209361 0.53100002 4289638036
-0.182915 -0.209738 0.53200001 4289374609
-0.181803 -0.210115 0.53299999 4290493090
-0.181024 -0.210887 0.53500003 4289900953
-0.17922799 -0.21047699 0.53399998 4289835162
-0.178104 -0.21085601 0.53500003 4289900696
-0.176314 -0.210447 0.53399998 4289966488
-0.174531 -0.21003801 0.53299999 4290360216
-0.17275301 -0.20963 0.53200001 4289570440
-0.171948 -0.21040399 0.53399998 4288451442
-0.170174 -0.209996 0.53299999 4289240699
-0.168723 -0.20998301 0.53299999 4288977272
-0.167586 -0.210365 0.53399998 4288780409
-0.16675501 -0.21114001 0.53600001 4288780409
-0.165297 -0.211128 0.53600001 4288846202
-0.16414499 -0.21151 0.537 4288977788
-0.16298801 -0.21189301 0.53799999 4289438337
-0.161525 -0.211881 0.53799999 4289043579
-0.159766 -0.211477 0.537 4289373060
-0.157718 -0.21067899 0.53500003 4289373061
-0.15626501 -0.210669 0.53500003 4289504133
-0.15481199 -0.210659 0.53500003 4289174398
-0.15335999 -0.21065 0.53500003 4287529826
-0.151908 -0.21064 0.53500003 4287464288
-0.15045699 -0.210632 0.53500003 4288977525
-0.14928401 -0.211017 0.53600001 4289438590
-0.14755499 -0.21061499 0.53500003 4288912510
-0.146377 -0.211 0.53600001 4289307268
-0.14519399 -0.211386 0.537 4288385649
-0.144007 -0.21177199 0.53799999 4288911993
-0.14228401 -0.211371 0.537 4289767302
-0.140304 -0.210577 0.53500003 4288846716
-0.13911501 -0.21096399 0.53600001 4289504132
-0.13792001 -0.21135101 0.537 4289175167
-0.136466 -0.211345 0.537 4289109375
-0.134509 -0.21055201 0.53500003 4288780410
-0.13306101 -0.210546 0.53500003 4289240446
-0.131859 -0.210934 0.53600001 4289043581
-0.130408 -0.21092901 0.53600001 4288977788
-0.128718 -0.21053 0.53500003 4288649337
-0.127032 -0.210132 0.53399998 4288517751
-0.12582301 -0.210521 0.53500003 4288714617
-0.124608 -0.21091001 0.53600001 4287662443
-0.123389 -0.211299 0.537 4289175681
-0.121482 -0.210508 0.53500003 4289635716
-0.120036 -0.210504 0.53500003 4289307521
-0.118368 -0.210106 0.53399998 4289439107
-0.117143 -0.21049599 0.53500003 4289175165
-0.115697 -0.210493 0.53500003 4288846716
-0.114465 -0.21088301 0.53600001 4289044096
-0.113438 -0.211667 0.53799999 4289241475
-0.112192 -0.21205699 0.53899997 4288978303
-0.110736 -0.212055 0.53899997 4288912510
-0.108874 -0.211265 0.537 4288386166
-0.107423 -0.211262 0.537 4287530857
-0.10617 -0.21165401 0.53799999 4287859308
-0.104911 -0.212045 0.53899997 4287662443
-0.103647 -0.21243601 0.54000002 4287465064
-0.102189 -0.21243399 0.54000002 4287727722
-0.10073 -0.212432 0.54000002 4288254579
-0.099088296 -0.212037 0.53899997 4288846200
-0.097451702 -0.211642 0.53799999 4288977786
-0.096177302 -0.212034 0.53899997 4288781167
-0.094897702 -0.21242601 0.54000002 4288846708
-0.093612701 -0.212818 0.54100001 4289109627
-0.091981702 -0.212423 0.54000002 4288978555
-0.090523802 -0.212422 0.54000002 4289044348
-0.089065902 -0.212421 0.54000002 4288715384
-0.087608099 -0.21242 0.54000002 4288320626
-0.0861504 -0.212419 0.54000002 4288188786
-0.084379002 -0.211632 0.53799999 4288122993
-0.082926698 -0.211631 0.53799999 4288385649
-0.081322998 -0.211237 0.537 4288912248
-0.080022298 -0.21163 0.53799999 4288846455
-0.078716099 -0.212023 0.53899997 4289043834
-0.077547997 -0.212809 0.54100001 4288978039
-0.075947203 -0.21241599 0.54000002 4289438592
-0.074351698 -0.21202201 0.53899997 4288978556
-0.072626501 -0.211235 0.537 4288978303
-0.071177103 -0.211235 0.537 4288715131
-0.069597997 -0.210841 0.53600001 4288452473
-0.068151399 -0.210841 0.53600001 4288386166
-0.066580303 -0.210448 0.53500003 4288123508
-0.0651365 -0.210448 0.53500003 4287925875
-0.063573502 -0.21005499 0.53399998 4288056957
-0.062248699 -0.210448 0.53500003 4287794543
-0.0608049 -0.210448 0.53500003 4287925615
-0.059471998 -0.210842 0.53600001 4288057201
-0.0579172 -0.210449 0.53500003 4288122479
-0.056579001 -0.210842 0.53600001 4288451444
-0.054926701 -0.21005601 0.53399998 4288385649
-0.053585801 -0.210449 0.53500003 4288649076
-0.052239399 -0.210843 0.53600001 4288583283
-0.050982401 -0.21163 0.53799999 4288451695
-0.049530499 -0.21163 0.53799999 4288386157
-0.047899801 -0.210844 0.53600001 4288517235
-0.046366598 -0.21045101 0.53500003 4288188786
-0.0450068 -0.210844 0.53600001 4288057454
-0.043722801 -0.211632 0.53799999 4287926382
-0.042270899 -0.211632 0.53799999 4287728749
-0.040667199 -0.21084601 0.53600001 4287926382
-0.039220698 -0.21084601 0.53600001 4288386165
-0.037774101 -0.21084601 0.53600001 4288122994
-0.0362598 -0.210453 0.53500003 4288254579
-0.034880999 -0.21084701 0.53600001 4287991407
-0.033434398 -0.21084701 0.53600001 4288123760
-0.0320476 -0.21124101 0.537 4287992688
-0.030541301 -0.210848 0.53600001 4287664493
-0.0290947 -0.210848 0.53600001 4287795830
-0.0275966 -0.210455 0.53500003 4287927163
-0.0262015 -0.210849 0.53600001 4287861370
-0.0247549 -0.210849 0.53600001 4287598702
-0.0233953 -0.21163601 0.53799999 4287533162
-0.0219841 -0.21202999 0.53899997 4288124274
-0.0204913 -0.21163701 0.53799999 4287993733
-0.019039299 -0.21163701 0.53799999 4287862147
-0.0175546 -0.211244 0.537 4287599743
-0.016165201 -0.21203101 0.53899997 4287599489
-0.0147105 -0.21203101 0.53899997 4287532929
-0.013305 -0.212818 0.54100001 4288256906
-0.0118229 -0.21242499 0.54000002 4287336318
-0.0103655 -0.21242499 0.54000002 4286677628
-0.0088750599 -0.211639 0.53799999 4285758844
-0.0074368101 -0.21203201 0.53899997 4285561726
-0.0059709698 -0.211639 0.53799999 4282467402
-0.0045189201 -0.211639 0.53799999 4282205506
-0.0030725701 -0.21203201 0.53899997 4281743930
-0.00161481 -0.211639 0.53799999 4282335292
-0.00016246 -0.211246 0.537 4281742641
0.00128929 -0.211639 0.53799999 4281217055
0.0027413401 -0.211639 0.53799999 4281677099
0.0042089801 -0.21242601 0.54000002 4282071865
0.0056559402 -0.21203201 0.53899997 4283979864
0.0071238801 -0.21242499 0.54000002 4285032552
0.0085495403 -0.211639 0.53799999 4287203721
0.0100202 -0.21203201 0.53899997 4287467399
0.0114749 -0.21203201 0.53899997 4286941055
0.0129296 -0.21203201 0.53899997 4287533697
0.0143577 -0.211638 0.53799999 4287467136
0.0157803 -0.211244 0.537 4287862137
0.0172297 -0.211244 0.537 4287532666
0.018644201 -0.210851 0.53600001 4287795585
0.0201283 -0.211244 0.537 4287664254
0.021537401 -0.21085 0.53600001 4287597945
0.0230269 -0.211243 0.537 4287927163
0.0244762 -0.211243 0.537 4287598200
0.025973801 -0.21163601 0.53799999 4287400813
0.0273748 -0.21124201 0.537 4287597931
0.0288241 -0.21124201 0.537 4287597426
0.0302734 -0.21124101 0.537 4287794805
0.0317817 -0.21163499 0.53799999 4287663473
0.033233698 -0.211634 0.53799999 4287333992
0.034621201 -0.21123999 0.537 4287333478
0.036137599 -0.211633 0.53799999 4287070305
0.037519701 -0.21123999 0.537 4287267937
0.039041501 -0.211633 0.53799999 4286807640
0.0404182 -0.211239 0.537 4287005019
0.041867401 -0.211239 0.537 4287005533
0.043316599 -0.211238 0.537 4287992174
0.044765901 -0.211238 0.537 4287531109
0.046215098 -0.211238 0.537 4287202144
0.0476643 -0.211237 0.537 4287794281
0.049113501 -0.211237 0.537 4287925867
0.0506569 -0.21163 0.53799999 4288057454
0.052108798 -0.21163 0.53799999 4288320372
0.0535607 -0.211629 0.53799999 4287926382
0.055114899 -0.21202201 0.53899997 4288057714
0.056674499 -0.21241599 0.54000002 4287991921
0.058024101 -0.21202201 0.53899997 4288320886
0.059589099 -0.21241499 0.54000002 4288386165
0.0610465 -0.21241499 0.54000002 4288451445
0.062272299 -0.211628 0.53799999 4285819725
0.0636058 -0.211235 0.537 4285951824
0.064933904 -0.210841 0.53600001 4288123247
0.0665043 -0.211235 0.537 4288189554
0.067827098 -0.210841 0.53600001 4287203173
0.069402903 -0.211235 0.537 4287729003
0.0707203 -0.210841 0.53600001 4287399270
0.072301596 -0.211235 0.537 4286807134
0.073613599 -0.210842 0.53600001 4287662443
0.075200297 -0.211235 0.537 4287071083
0.076935202 -0.21202201 0.53899997 4286808684
0.078971699 -0.213596 0.54299998 4285099094
0.080437399 -0.213597 0.54299998 4280756278
0.081450596 -0.21241701 0.54000002 4283785072
0.082754701 -0.212024 0.53899997 4287402625
0.083897203 -0.211238 0.537 4288190337
0.085505702 -0.211632 0.53799999 4287400047
0.086796403 -0.21123999 0.537 4287794543
0.0884104 -0.211634 0.53799999 4287794543
0.089862898 -0.21163499 0.53799999 4287991922
0.091315404 -0.21163601 0.53799999 4288057714
0.092940398 -0.21203101 0.53899997 4287794542
0.094220497 -0.211639 0.53799999 4287465577
0.095851101 -0.212034 0.53899997 4287333991
0.097126 -0.211642 0.53799999 4287334761
0.098578803 -0.211643 0.53799999 4287531371
0.099659801 -0.210858 0.53600001 4287794543
0.101107 -0.21086 0.53600001 4287925615
0.102555 -0.210862 0.53600001 4287662696
0.104197 -0.211257 0.537 4287793512
0.105844 -0.21165299 0.53799999 4287333983
0.107497 -0.21204901 0.53899997 4287466083
0.108953 -0.212051 0.53899997 4287663463
0.110409 -0.212054 0.53899997 4287400291
0.112281 -0.212844 0.54100001 4287466084
0.113322 -0.21206 0.53899997 4287530340
0.114992 -0.212456 0.54000002 4287661928
0.11602 -0.21167199 0.53799999 4287399270
0.117692 -0.212069 0.53899997 4287596649
0.119149 -0.212073 0.53899997 4287465577
0.12083 -0.21247 0.54000002 4287399784
0.122064 -0.212081 0.53899997 4287662956
0.123521 -0.21208499 0.53899997 4287465577
0.124515 -0.211302 0.537 4287267684
0.12596799 -0.211307 0.537 4287727721
0.12718301 -0.21091799 0.53600001 4287596136
0.12887301 -0.211316 0.537 4287596650
0.130326 -0.211321 0.537 4287465064
0.131779 -0.211326 0.537 4287333478
0.133233 -0.21133199 0.537 4287267685
0.134937 -0.211731 0.53799999 4287267171
0.136647 -0.21213099 0.53899997 4287332963
0.13785 -0.211743 0.53799999 4287596388
0.13930701 -0.21175 0.53799999 4287136352
0.140503 -0.211363 0.537 4287333477
0.141693 -0.210976 0.53600001 4287597164
0.14341301 -0.21137699 0.537 4287465324
0.144868 -0.211385 0.537 4287202152
0.146596 -0.211786 0.53799999 4287004773
0.14778 -0.2114 0.537 4287399785
0.149514 -0.21180201 0.53799999 4287399271
0.151254 -0.21220399 0.53899997 4287201892
0.152716 -0.21221299 0.53899997 4287333477
0.15389299 -0.21182901 0.53799999 4287070305
0.15477499 -0.211051 0.53600001 4287202145
0.15652201 -0.211454 0.537 4287268452
0.15827499 -0.211858 0.53799999 4287399784
0.15973599 -0.211868 0.53799999 4286742369
0.160898 -0.211485 0.537 4287202920
0.16266 -0.21189 0.53799999 4287137127
0.164122 -0.21190099 0.53799999 4287202920
0.165585 -0.211913 0.53799999 4287334761
0.166738 -0.211531 0.537 4286874208
0.168199 -0.21154401 0.537 4287071073
0.16934501 -0.211162 0.53600001 4287400038
0.171123 -0.211569 0.537 4287268452
0.17290699 -0.21197701 0.53799999 4287202405
0.174697 -0.212385 0.53899997 4287136866
0.17583901 -0.212005 0.53799999 4287859821
0.17697699 -0.21162599 0.537 4287728749
0.178441 -0.211641 0.537 4287268198
0.179906 -0.211656 0.537 4287662956
0.181034 -0.21127801 0.53600001 4287795057
0.18215799 -0.21089999 0.53500003 4287663726
0.183276 -0.210522 0.53399998 4287926128
0.184735 -0.21054 0.53399998 4287662957
0.186893 -0.211346 0.53600001 4287662703
0.18871 -0.211758 0.537 4287728498
0.19018 -0.211777 0.537 4287597688
0.19165 -0.211796 0.537 4287992446
0.193121 -0.211815 0.537 4287663991
0.19495501 -0.212229 0.53799999 4287663991
0.19606499 -0.21185499 0.537 4288124284
0.197538 -0.211876 0.537 4287532401
0.198641 -0.211503 0.53600001 4287597940
0.200486 -0.21191999 0.537 4285821529
0.202338 -0.212337 0.53799999 4286808424
0.20419499 -0.21275499 0.53899997 4287400299
0.205678 -0.212778 0.53899997 4287794796
0.207546 -0.21319699 0.54000002 4287794020
0.209033 -0.213222 0.54000002 4287596893
0.210521 -0.213247 0.54000002 4286872404
0.21201 -0.213273 0.54000002 4286542931
0.21310399 -0.212905 0.53899997 4286082382
0.214194 -0.21253701 0.53799999 4286477138
0.21568 -0.21256401 0.53799999 4286872665
0.21757101 -0.212988 0.53899997 4287070044
0.21824899 -0.212226 0.537 4286742107
0.219326 -0.21186 0.53600001 4287070819
0.22081099 -0.21189 0.53600001 4286808417
0.222712 -0.21231601 0.537 4287531885
0.22420201 -0.212348 0.537 4287334506
0.225692 -0.21238001 0.537 4287335020
0.226761 -0.212017 0.53600001 4287203434
0.22825199 -0.21205001 0.53600001 4287794542
0.229315 -0.211688 0.53500003 4287729003
0.231236 -0.212119 0.53600001 4286807387
0.232296 -0.211758 0.53500003 4286675025
0.23335201 -0.21139801 0.53399998 4285951047
0.234843 -0.21143501 0.53399998 4285557299
0.235893 -0.21107601 0.53299999 4285360707
0.236939 -0.21071801 0.53200001 4285559119
0.237532 -0.20996501 0.52999997 4285492579
0.238115 -0.20921201 0.528 4284308051
0.239143 -0.208855 0.52700001 4284637007
0.241079 -0.20929199 0.528 4282729265
0.24256299 -0.209334 0.528 4282992437
0.24312399 -0.208583 0.52600002 4282729265
0.244606 -0.208626 0.52600002 4282005542
0.246089 -0.20867001 0.52600002 4282926644
0.247573 -0.20871501 0.52600002 4282860338
0.248586 -0.208363 0.52499998 4282597166
0.25054801 -0.20880599 0.52600002 4282728238
0.25203699 -0.208854 0.52600002 4283188789
0.25352901 -0.208902 0.52600002 4282991925
0.25502199 -0.208951 0.52600002 4282926132
0.25700399 -0.209398 0.52700001 4282794548
0.25801301 -0.209051 0.52600002 4282991925
0.259018 -0.20870601 0.52499998 4282663217
0.258531 -0.207168 0.52100003 4282663472
0.26051801 -0.207618 0.52200001 4282860338
0.26251301 -0.20807 0.523 4282333994
0.26502001 -0.208922 0.52499998 4282334248
0.266525 -0.208978 0.52499998 4282926384
0.268033 -0.20903499 0.52499998 4281939489
0.270569 -0.20988999 0.52700001 4282005536
0.273635 -0.211145 0.52999997 4281873950
0.27620199 -0.21200299 0.53200001 4281676571
0.27721599 -0.211667 0.53100002 4282202401
0.279277 -0.212129 0.53200001 4282070814
0.280817 -0.212194 0.53200001 4281412370
0.282361 -0.21225899 0.53200001 4282268447
0.283373 -0.211927 0.53100002 4282663205
0.28384501 -0.21119601 0.52899998 4283123756
0.28538701 -0.211265 0.52899998 4282795564
0.28693101 -0.211335 0.52899998 4282598185
0.28902301 -0.211806 0.52999997 4283255340
0.29057601 -0.211878 0.52999997 4283123754
0.29157999 -0.21155199 0.52899998 4282991654
0.29313499 -0.21162701 0.52899998 4283385898
0.29525 -0.21210299 0.52999997 4283253798
0.297373 -0.21258099 0.53100002 4283385384
0.29781601 -0.211858 0.52899998 4282925346
0.29881701 -0.211538 0.528 4282728482
0.300383 -0.211619 0.528 4283913270
0.302524 -0.212102 0.52899998 4283847993
0.30467501 -0.212587 0.52999997 4283453235
0.306256 -0.212672 0.52999997 4283715891
0.307841 -0.212759 0.52999997 4283979063
0.30942899 -0.21284699 0.52999997 4283650098
0.31101999 -0.212937 0.52999997 4283650867
0.31202501 -0.212626 0.52899998 4283979577
0.31362 -0.212718 0.52899998 4283848248
0.315218 -0.21281201 0.52899998 4283980089
0.31682 -0.212907 0.52899998 4284111420
0.31902799 -0.21340699 0.52999997 4284374592
0.32064 -0.213506 0.52999997 4284571971
0.321648 -0.213203 0.52899998 4284769605
0.32265401 -0.212901 0.528 4284242749
0.32427099 -0.21300399 0.528 4284110904
0.32712701 -0.213916 0.52999997 4284111671
0.32937899 -0.214426 0.53100002 4283519281
0.33164099 -0.214939 0.53200001 4283716146
0.33265999 -0.214645 0.53100002 4283978297
0.33367801 -0.214353 0.52999997 4283715891
0.33532599 -0.214467 0.52999997 4284504386
0.336979 -0.214582 0.52999997 4284571202
0.33863601 -0.214699 0.52999997 4284373821
0.33965501 -0.214413 0.52899998 4284702525
0.34131899 -0.214533 0.52899998 4284768571
0.34363499 -0.21506201 0.52999997 4284373559
0.344659 -0.21478 0.52899998 4285228869
0.34633601 -0.21490701 0.52899998 4284768318
0.34735999 -0.21462899 0.528 4284571453
0.34970501 -0.215165 0.52899998 4284571957
0.35073301 -0.214891 0.528 4285360464
0.35242701 -0.21502499 0.528 4285229393
0.35345599 -0.214753 0.52700001 4285163094
0.355831 -0.215299 0.528 4284373316
0.35889599 -0.21625599 0.52999997 4283518522
0.36129799 -0.21680699 0.53100002 4284045372
0.363713 -0.217361 0.53200001 4285163851
0.365453 -0.217509 0.53200001 4284835396
0.367199 -0.21765999 0.53200001 4284967488
0.36895099 -0.217812 0.53200001 4284440891
0.37001199 -0.217557 0.53100002 4284440638
0.371773 -0.217714 0.53100002 4284506174
0.371429 -0.21664301 0.528 4284440119
0.373193 -0.216804 0.528 4284111422
0.37425199 -0.216556 0.52700001 4284176711
-0.198221 -0.210621 0.52999997 4289373838
-0.197137 -0.210996 0.53100002 4290032286
-0.19567899 -0.21097399 0.53100002 4290559660
-0.19458701 -0.21134999 0.53200001 4290362281
-0.193491 -0.21172699 0.53299999 4290624939
-0.19203 -0.211706 0.53299999 4289374611
-0.190569 -0.211686 0.53299999 4289505937
-0.189109 -0.211667 0.53299999 4289505675
-0.18765 -0.211648 0.53299999 4289440396
-0.18584201 -0.21123201 0.53200001 4290229912
-0.18404 -0.21081699 0.53100002 4289374864
-0.182932 -0.211197 0.53200001 4290098332
-0.18182001 -0.211576 0.53299999 4289835160
-0.181041 -0.21235301 0.53500003 4290164127
-0.17958 -0.212337 0.53500003 4290032541
-0.178452 -0.212718 0.53600001 4289571731
-0.17666 -0.21230599 0.53500003 4289834902
-0.1752 -0.21229 0.53500003 4289965458
-0.173417 -0.211879 0.53399998 4289044096
-0.17228401 -0.21226101 0.53500003 4288319858
-0.170507 -0.211851 0.53399998 4289174651
-0.168736 -0.211441 0.53299999 4288911481
-0.167285 -0.211427 0.53299999 4288385651
-0.166145 -0.21181101 0.53399998 4288451445
-0.16500001 -0.21219499 0.53500003 4288911995
-0.16385099 -0.21258 0.53600001 4289767305
-0.162393 -0.212568 0.53600001 4289373050
-0.16063599 -0.21216001 0.53500003 4288715383
-0.158884 -0.211752 0.53399998 4289898890
-0.157433 -0.211742 0.53399998 4289898891
-0.156275 -0.212128 0.53500003 4289240961
-0.154533 -0.211721 0.53399998 4287792745
-0.153083 -0.211711 0.53399998 4287661414
-0.15163299 -0.211702 0.53399998 4288253549
-0.15018401 -0.211693 0.53399998 4289569664
-0.148735 -0.211684 0.53399998 4289569925
-0.147563 -0.212072 0.53500003 4288649074
-0.146658 -0.21285599 0.537 4289307006
-0.145473 -0.21324401 0.53799999 4288254316
-0.14455 -0.214029 0.54000002 4289504385
-0.142821 -0.213625 0.53899997 4289372799
-0.14109799 -0.213222 0.53799999 4288583544
-0.139641 -0.21321499 0.53799999 4289570439
-0.137927 -0.21281099 0.537 4288648824
-0.136218 -0.212409 0.53600001 4288648824
-0.134515 -0.212006 0.53500003 4288845433
-0.133315 -0.212396 0.53600001 4289371777
-0.13186499 -0.21239001 0.53600001 4289174398
-0.130657 -0.212781 0.537 4288450930
-0.128723 -0.211983 0.53500003 4289240446
-0.127275 -0.211978 0.53500003 4288450930
-0.126063 -0.21236899 0.53600001 4288319089
-0.124613 -0.212364 0.53600001 4288056687
-0.123163 -0.21235999 0.53600001 4289306753
-0.121486 -0.211959 0.53500003 4289438337
-0.12004 -0.211955 0.53500003 4289175935
-0.118593 -0.211951 0.53500003 4289110142
-0.117366 -0.21234301 0.53600001 4289044349
-0.115917 -0.21234 0.53600001 4289109888
-0.114681 -0.212732 0.537 4289373575
-0.113652 -0.213521 0.53899997 4288978817
-0.111987 -0.213122 0.53799999 4288780924
-0.110533 -0.213119 0.53799999 4289372547
-0.108674 -0.21232399 0.53600001 4289372547
-0.107426 -0.212717 0.537 4289240961
-0.105975 -0.212714 0.537 4289373061
-0.104719 -0.213108 0.53799999 4288780924
-0.103266 -0.21310601 0.53799999 4288649338
-0.102002 -0.21349999 0.53899997 4288320373
-0.100546 -0.213498 0.53899997 4288188787
-0.098722398 -0.212703 0.537 4287530340
-0.097091101 -0.21230599 0.53600001 4287266656
-0.095821999 -0.21269999 0.537 4287398754
-0.094723403 -0.21348999 0.53899997 4287661677
-0.093268 -0.213489 0.53899997 4288648054
-0.091642298 -0.213091 0.53799999 4289109627
-0.090189703 -0.21309 0.53799999 4289307006
-0.088572197 -0.21269301 0.537 4289109627
-0.087284602 -0.21308801 0.53799999 4289306751
-0.085991703 -0.21348301 0.53899997 4289438339
-0.084536597 -0.21348201 0.53899997 4289175681
-0.082927398 -0.213085 0.53799999 4289043579
-0.081323698 -0.212688 0.537 4288517235
-0.079874098 -0.212688 0.537 4287991146
-0.078716703 -0.213479 0.53899997 4288057444
-0.0775484 -0.21427099 0.54100001 4288254569
-0.076088198 -0.21427 0.54100001 4288254316
-0.074490003 -0.213874 0.54000002 4288122730
-0.072626799 -0.212685 0.537 4288780409
-0.071177296 -0.212685 0.537 4288977535
-0.069598101 -0.21228801 0.53600001 4289043330
-0.068151496 -0.21228801 0.53600001 4289109372
-0.066704899 -0.21228801 0.53600001 4289306753
-0.065258197 -0.21228801 0.53600001 4289110395
-0.0636926 -0.21189199 0.53500003 4289307267
-0.062248699 -0.21189199 0.53500003 4288386680
-0.0606912 -0.211496 0.53399998 4288584059
-0.059360899 -0.21189199 0.53500003 4288846717
-0.057808802 -0.211496 0.53399998 4288649338
-0.056473199 -0.21189199 0.53500003 4288255094
-0.0548237 -0.2111 0.53299999 4288386166
-0.053485401 -0.211496 0.53399998 4288057200
-0.0519468 -0.2111 0.53299999 4288451950
-0.050792601 -0.21228901 0.53600001 4288451442
-0.0494381 -0.212685 0.537 4288583028
-0.0478995 -0.21228901 0.53600001 4288583030
-0.0463663 -0.21189301 0.53500003 4288386419
-0.044838499 -0.21149699 0.53399998 4288320625
-0.043641198 -0.212686 0.537 4288189039
-0.042192001 -0.212686 0.537 4288057714
-0.040742699 -0.212686 0.537 4288057454
-0.0392203 -0.212291 0.53600001 4288319858
-0.0378442 -0.212687 0.537 4288122479
-0.036327198 -0.212291 0.53600001 4288122732
-0.0349457 -0.212688 0.537 4287925353
-0.033496499 -0.212688 0.537 4288123246
-0.032047201 -0.212688 0.537 4288057454
-0.030427 -0.2115 0.53399998 4287991408
-0.0290944 -0.212293 0.53600001 4288057201
-0.0275963 -0.211897 0.53500003 4288122994
-0.0262013 -0.212293 0.53600001 4287991408
-0.024662299 -0.211501 0.53399998 4287662696
-0.0232646 -0.211898 0.53500003 4287729769
-0.021861499 -0.212294 0.53600001 4287663200
-0.020453 -0.21269 0.537 4287663723
-0.0190037 -0.21269099 0.537 4287729780
-0.0175544 -0.21269099 0.537 4287926392
-0.016105101 -0.21269099 0.537 4288385400
-0.0146557 -0.21269099 0.537 4288059002
-0.013231 -0.21308701 0.53799999 4288584573
-0.011779 -0.21308801 0.53799999 4288060023
-0.0103078 -0.21269201 0.537 4288060283
-0.0088419504 -0.21229599 0.53600001 4287927940
-0.00740912 -0.21269201 0.537 4287730822
-0.0059708902 -0.21308801 0.53799999 4287468418
-0.00451886 -0.21308801 0.53799999 4287665797
-0.0030668301 -0.21308801 0.53799999 4287204732
-0.00161179 -0.21269201 0.537 4287073145
-0.000163062 -0.213484 0.53899997 4286414450
0.00129407 -0.21388 0.54000002 4285756257
0.0027616899 -0.214672 0.542 4284243532
0.0042323102 -0.215068 0.54299998 4283388223
0.0056873402 -0.214672 0.542 4282337088
0.0071501699 -0.214672 0.542 4281875004
0.0085971002 -0.214276 0.54100001 4281611832
0.0100386 -0.21388 0.54000002 4281414453
0.0114961 -0.21388 0.54000002 4281217333
0.0129535 -0.21388 0.54000002 4281612597
0.0144109 -0.213879 0.54000002 4282072130
0.015809501 -0.21308701 0.53799999 4282401095
0.0172936 -0.21348301 0.53899997 4282796611
0.018678799 -0.21269099 0.537 4284175951
0.020128099 -0.21269 0.537 4285098849
0.0215372 -0.212294 0.53600001 4285691756
0.023026699 -0.21269 0.537 4286678387
0.0244304 -0.212294 0.53600001 4287926912
0.0259252 -0.212689 0.537 4288123518
0.027323499 -0.212293 0.53600001 4288453509
0.0288238 -0.212689 0.537 4287861370
0.0302731 -0.212689 0.537 4287927418
0.031781401 -0.213084 0.53799999 4287729780
0.033171602 -0.212688 0.537 4287729778
0.034620799 -0.212688 0.537 4288057968
0.036070101 -0.212687 0.537 4287794543
0.037449501 -0.212291 0.53600001 4287926128
0.038895998 -0.212291 0.53600001 4287794542
0.0402673 -0.21189401 0.53500003 4288058472
0.0416332 -0.21149801 0.53399998 4287795555
0.043074299 -0.21149801 0.53399998 4288058484
0.044515502 -0.21149801 0.53399998 4287662956
0.045870502 -0.211101 0.53299999 4287729003
