# .PCD v0.7 - Point Cloud Data file format
VERSION 0.7
FIELDS x y z rgb
SIZE 4 4 4 4
TYPE F F F U
COUNT 1 1 1 1
WIDTH 1130
HEIGHT 1
VIEWPOINT 0 0 0 1 0 0 0
POINTS 1130
DATA ascii
-0.18003 0.132467 0.708 4289112739
-0.178376 0.13266 0.70899999 4289968048
-0.176469 0.13266601 0.70899999 4289836462
-0.17456099 0.132672 0.70899999 4289836461
-0.172653 0.132678 0.70899999 4289441189
-0.170745 0.13268401 0.70899999 4289243810
-0.168598 0.132503 0.708 4289309089
-0.166693 0.13251001 0.708 4290361007
-0.164554 0.132329 0.70700002 4289110940
-0.162881 0.132522 0.708 4289308319
-0.16097499 0.13252801 0.708 4289571231
-0.159068 0.132535 0.708 4289308059
-0.157162 0.132541 0.708 4289307805
-0.15547501 0.132734 0.70899999 4289373598
-0.153782 0.132928 0.70999998 4289439905
-0.151656 0.13274699 0.70899999 4289308573
-0.149746 0.132754 0.70899999 4289110680
-0.147836 0.13276 0.70899999 4288255370
-0.145926 0.13276599 0.70899999 4288387210
-0.144015 0.132773 0.70899999 4287926400
-0.142105 0.132779 0.70899999 4287926399
-0.14039201 0.132973 0.70999998 4287992192
-0.138283 0.132792 0.70899999 4288320897
-0.136372 0.132798 0.70899999 4288913294
-0.134461 0.13280401 0.70899999 4288584329
-0.132736 0.132998 0.70999998 4288584330
-0.130637 0.132817 0.70899999 4288847502
-0.129089 0.13319799 0.71100003 4289044881
-0.12735 0.13339099 0.71200001 4288123779
-0.12543 0.133398 0.71200001 4288058243
-0.123509 0.133404 0.71200001 4288716173
-0.121588 0.13341001 0.71200001 4287729280
-0.119835 0.13360301 0.713 4288650380
-0.11758 0.13323499 0.71100003 4288781966
-0.115662 0.133241 0.71100003 4288782221
-0.113743 0.133247 0.71100003 4288255877
-0.111981 0.13344 0.71200001 4288189571
-0.110058 0.13344599 0.71200001 4288321157
-0.108136 0.133452 0.71200001 4288386950
-0.106363 0.133645 0.713 4288189829
-0.104437 0.133651 0.713 4288386951
-0.102655 0.133844 0.71399999 4288057986
-0.100727 0.13384899 0.71399999 4287860609
-0.099074602 0.13423 0.71600002 4288518542
-0.096868902 0.13386001 0.71399999 4289308058
-0.095072597 0.13405301 0.71499997 4289309089
-0.093010202 0.133871 0.71399999 4289309089
-0.091335699 0.134251 0.71600002 4288980638
-0.089150697 0.133881 0.71399999 4288782745
-0.0875872 0.13444901 0.71700001 4288585366
-0.085529402 0.134266 0.71600002 4288651157
-0.083593503 0.134271 0.71600002 4289045915
-0.0814294 0.133901 0.71399999 4289045654
-0.079609901 0.134093 0.71499997 4289177240
-0.077676199 0.13409799 0.71499997 4288979861
-0.075742297 0.134103 0.71499997 4288979859
-0.073911503 0.134295 0.71600002 4289111447
-0.071974501 0.134299 0.71600002 4288979607
-0.069841698 0.133928 0.71399999 4288914329
-0.0678147 0.133745 0.713 4288782745
-0.065885298 0.13374899 0.713 4289045662
-0.064224899 0.134316 0.71600002 4288914076
-0.062548101 0.134882 0.71899998 4289111455
-0.060686301 0.135074 0.72000003 4288979869
-0.058655702 0.13489 0.71899998 4288980124
-0.0566305 0.13470601 0.71799999 4288585366
-0.054762799 0.13489699 0.71899998 4288585364
-0.0530365 0.135463 0.722 4288322447
-0.051222999 0.135842 0.72399998 4288453263
-0.049398601 0.13621999 0.72600001 4288716435
-0.0476285 0.136786 0.72899997 4288781966
-0.0459047 0.13754 0.73299998 4288716173
-0.044159099 0.138293 0.73699999 4288979345
-0.042220101 0.138483 0.73799998 4288979600
-0.0402756 0.13867401 0.73900002 4289111186
-0.0382737 0.138676 0.73900002 4289045140
-0.036271799 0.138679 0.73900002 4289045400
-0.0343161 0.138869 0.74000001 4289111194
-0.032311201 0.138871 0.74000001 4289045148
-0.0302653 0.138685 0.73900002 4289110941
-0.0281865 0.138312 0.73699999 4288847768
-0.0261539 0.138126 0.736 4288781461
-0.024159599 0.138127 0.736 4289110426
-0.0221953 0.138317 0.73699999 4288386957
-0.020225501 0.138506 0.73799998 4288386957
-0.018250201 0.138695 0.73900002 4288518542
-0.0162475 0.138696 0.73900002 4288453003
-0.0142447 0.138697 0.73900002 4288255624
-0.0122253 0.13851 0.73799998 4287597694
-0.0102391 0.138698 0.73900002 4287794814
-0.0082473299 0.138887 0.74000001 4287859839
-0.0062417202 0.138887 0.74000001 4287465334
-0.0042360998 0.138887 0.74000001 4287465074
-0.0022304601 0.138888 0.74000001 4287859832
-0.000225119 0.139075 0.741 4287794299
0.00178083 0.138888 0.74000001 4287597435
0.00378647 0.138888 0.74000001 4287663228
0.0057842699 0.13869999 0.73900002 4287597437
0.0077871699 0.138699 0.73900002 4287597692
0.0097900499 0.138698 0.73900002 4287597692
0.0118089 0.13888501 0.74000001 4287531899
0.0138144 0.13888501 0.74000001 4287860864
0.0158199 0.13888399 0.74000001 4287532154
0.0178253 0.13888299 0.74000001 4287531901
0.0198307 0.138881 0.74000001 4287860866
0.0219246 0.139443 0.74299997 4287663228
0.023905801 0.139254 0.74199998 4287597435
0.025881501 0.139065 0.741 4287663230
0.0278893 0.139063 0.741 4287531644
0.029897099 0.139061 0.741 4287663230
0.031904802 0.13905901 0.741 4287794816
0.033866599 0.138869 0.74000001 4286939510
0.035774499 0.138492 0.73799998 4287466108
0.037773699 0.13848899 0.73799998 4287465848
0.039826799 0.13867401 0.73900002 4287531641
0.041885201 0.138859 0.74000001 4287202676
0.0439489 0.139044 0.741 4287334262
0.0458938 0.138854 0.74000001 4287794299
0.047897901 0.138851 0.74000001 4287662714
0.049901899 0.13884801 0.74000001 4287662713
0.051975898 0.13903201 0.741 4287399541
0.053982399 0.139029 0.741 4287465334
0.055913098 0.13883799 0.74000001 4287531128
0.057994802 0.13902199 0.741 4287465849
0.0600008 0.139018 0.741 4287729021
0.0619229 0.138827 0.74000001 4287531642
0.063753098 0.138448 0.73799998 4287531642
0.065572403 0.13806801 0.736 4287794813
0.067656003 0.138252 0.73699999 4287861119
0.069744803 0.13843501 0.73799998 4287400568
0.071936101 0.138806 0.74000001 4287729020
0.073838301 0.138614 0.73900002 4287663228
0.0758375 0.13861001 0.73900002 4287926657
0.077731296 0.13841701 0.73799998 4287729278
0.0796194 0.138225 0.73699999 4287860864
0.081723399 0.13840801 0.73799998 4287531899
0.083605699 0.138216 0.73699999 4287663740
0.085714698 0.13839801 0.73799998 4287334775
0.087591201 0.13820601 0.73699999 4287729020
0.089583702 0.1382 0.73699999 4287663227
0.091451697 0.138008 0.736 4287663740
0.093187101 0.13762701 0.73400003 4287400568
0.095430203 0.137997 0.736 4287729533
0.097286701 0.137804 0.73500001 4287400313
0.099137701 0.137611 0.73400003 4287597694
0.100707 0.137043 0.73100001 4287597694
0.102401 0.13666201 0.72899997 4286874483
0.10437 0.136657 0.72899997 4286875767
0.106923 0.137401 0.73299998 4283849812
0.1092 0.13777 0.73500001 4285099880
0.110882 0.137389 0.73299998 4288389529
0.112553 0.137008 0.73100001 4288257429
0.114056 0.13643999 0.72799999 4288191890
0.115703 0.136059 0.72600001 4288191636
0.117338 0.13567799 0.72399998 4288191890
0.119127 0.13548499 0.72299999 4288454808
0.120911 0.135291 0.722 4288389015
0.122859 0.135285 0.722 4288388501
0.12498 0.13546599 0.72299999 4285559402
0.126755 0.13527299 0.722 4287861643
0.128346 0.134892 0.72000003 4288190606
0.13028701 0.134885 0.72000003 4288255884
0.132045 0.134692 0.71899998 4288584335
0.13361099 0.13431101 0.71700001 4288518542
0.135355 0.13411701 0.71600002 4288255884
0.137477 0.134298 0.71700001 4288322447
0.139993 0.13485301 0.72000003 4288980377
0.14232799 0.135221 0.722 4288454033
0.143875 0.13484 0.72000003 4288059534
0.145612 0.134647 0.71899998 4288190861
0.14734399 0.134453 0.71799999 4288651157
0.149487 0.134634 0.71899998 4288454292
0.15142401 0.134627 0.71899998 4288454545
0.153574 0.134808 0.72000003 4288454031
0.155081 0.134427 0.71799999 4287795840
0.15679599 0.134234 0.71700001 4287334775
0.15828399 0.133853 0.71499997 4287334773
0.160658 0.134221 0.71700001 4287532152
0.162361 0.134027 0.71600002 4287729531
0.16406 0.133834 0.71499997 4287926910
0.165984 0.133827 0.71499997 4288124289
0.168144 0.13400801 0.71600002 4287926912
0.17030901 0.13418899 0.71700001 4287795326
0.17199799 0.13399599 0.71600002 4287861119
0.173682 0.133803 0.71499997 4288387208
0.175607 0.13379601 0.71499997 4288584587
0.177779 0.13397799 0.71600002 4288190343
0.17970601 0.13397101 0.71600002 4288190598
0.18137901 0.13377801 0.71499997 4288322184
0.183302 0.133772 0.71499997 4288058496
0.18548501 0.133954 0.71600002 4288190082
0.187411 0.133948 0.71600002 4287334515
0.189338 0.13394199 0.71600002 4288189825
0.191264 0.133937 0.71600002 4287794813
0.19318999 0.133931 0.71600002 4287794813
0.195116 0.13392501 0.71600002 4287860607
0.197042 0.13392 0.71600002 4287926400
0.19869 0.133728 0.71499997 4287926399
0.200333 0.133535 0.71399999 4287926653
0.202253 0.13353001 0.71399999 4287532152
0.203888 0.133338 0.713 4287795324
0.205806 0.133333 0.713 4287795324
0.207432 0.13314199 0.71200001 4287597947
0.20964199 0.133324 0.713 4287729533
0.21156 0.13331901 0.713 4288190084
0.21377701 0.13350201 0.71399999 4287795326
0.215698 0.133497 0.71399999 4287926912
0.217619 0.13349301 0.71399999 4287466359
0.21984699 0.13367601 0.71499997 4286676332
0.221771 0.133672 0.71499997 4286347367
0.223382 0.133481 0.71399999 4287202676
0.225935 0.13385101 0.71600002 4287531899
0.227861 0.133848 0.71600002 4287597694
0.229468 0.13365699 0.71499997 4287335036
0.23042101 0.133093 0.71200001 4287401597
0.232664 0.133277 0.713 4287204218
0.23491301 0.133461 0.71399999 4287532413
0.237498 0.13383199 0.71600002 4287400313
0.238758 0.13345601 0.71399999 4287465854
0.240006 0.13308001 0.71200001 4287334269
0.242264 0.13326401 0.713 4287005304
0.245212 0.13382301 0.71600002 4287137150
0.246796 0.133634 0.71499997 4286873978
0.248027 0.133259 0.713 4286940539
0.249598 0.13307001 0.71200001 4286611574
0.25187001 0.133256 0.713 4287202682
0.25343701 0.133068 0.71200001 4286873971
0.255357 0.133067 0.71200001 4287137396
0.25727701 0.133067 0.71200001 4287400568
0.25956199 0.13325299 0.713 4287598461
0.26111901 0.133066 0.71200001 4287401596
0.26267099 0.132879 0.71100003 4287796355
0.264218 0.13269299 0.70999998 4288058757
0.26613599 0.13269299 0.70999998 4287795585
0.268053 0.13269401 0.70999998 4287795585
0.269591 0.13250799 0.70899999 4287927426
0.272273 0.132883 0.71100003 4287862147
0.27419499 0.132884 0.71100003 4287862147
0.27728301 0.13344701 0.71399999 4287862147
0.27843201 0.133075 0.71200001 4287862147
0.280359 0.133077 0.71200001 4287730562
0.28149301 0.132706 0.70999998 4287796103
0.283815 0.13289601 0.71100003 4287796615
0.28573999 0.132899 0.71100003 4287862408
0.28807199 0.13308901 0.71200001 4288191373
0.28959399 0.132906 0.71100003 4287993994
0.29152301 0.13291 0.71100003 4288059787
0.29303899 0.132728 0.70999998 4287862408
0.29496601 0.132732 0.70999998 4286743413
0.29689401 0.132737 0.70999998 4287730308
0.298401 0.13255601 0.70899999 4287796615
0.30075201 0.13274799 0.70999998 4287533443
0.30268201 0.132754 0.70999998 4287927948
0.304185 0.13257299 0.70899999 4287862410
0.306115 0.13258 0.70899999 4287993996
0.30847999 0.132774 0.70999998 4288256652
0.31041399 0.132781 0.70999998 4287992964
0.31191 0.13260201 0.70899999 4288058757
0.313844 0.13260999 0.70899999 4287795585
0.315779 0.132618 0.70899999 4288124552
0.31816301 0.13281401 0.70999998 4287730310
0.32010299 0.13282301 0.70999998 4287927689
0.32204399 0.132833 0.70999998 4287862155
0.32352999 0.13265599 0.70899999 4287730824
0.325012 0.132479 0.708 4288059789
0.32695201 0.13248999 0.708 4287993996
0.32889301 0.13250101 0.708 4288125582
0.33130199 0.1327 0.70899999 4287928203
0.334189 0.133086 0.71100003 4287730308
0.33566901 0.132911 0.70999998 4288125066
0.337621 0.13292401 0.70999998 4288322445
0.33909601 0.13275 0.70899999 4287927687
0.34104899 0.132764 0.70899999 4287927173
0.34348601 0.132965 0.70999998 4287993480
0.34544501 0.13298 0.70999998 4288125320
0.34789401 0.133182 0.71100003 4288388492
0.34936601 0.133011 0.70999998 4288190859
0.35182399 0.133214 0.71100003 4288125320
0.35379201 0.133231 0.71100003 4287796355
0.35576099 0.133248 0.71100003 4288388492
0.35723001 0.13307799 0.70999998 4288191627
0.35970601 0.133283 0.71100003 4288125834
0.361173 0.13311499 0.70999998 4288191373
0.36314699 0.13313399 0.70999998 4288191113
0.364609 0.132966 0.70899999 4288125834
0.36658499 0.13298599 0.70899999 4288257419
0.369082 0.133194 0.70999998 4288323212
0.37054199 0.133028 0.70899999 4288191627
0.37252399 0.13304999 0.70899999 4287731336
0.37503701 0.13326 0.70999998 4287928201
0.37755701 0.13347 0.71100003 4287928201
0.37901801 0.133306 0.70999998 4287796615
0.38047501 0.13314199 0.70899999 4287993994
0.38246799 0.133167 0.70899999 4287927687
0.38500699 0.13338 0.70999998 4288256906
0.38646299 0.13321801 0.70899999 4288125320
0.388464 0.13324501 0.70899999 4288256138
0.39046699 0.13327201 0.70899999 4288585103
0.392474 0.13330001 0.70899999 4288453263
0.394483 0.13332801 0.70899999 4287729540
0.396494 0.133357 0.70899999 4288453517
0.39963299 0.133763 0.71100003 4288125066
0.401656 0.133793 0.71100003 4287927689
0.40368199 0.133825 0.71100003 4287138687
0.40457001 0.13348 0.70899999 4282138931
0.40774301 0.133889 0.71100003 4285429602
0.409778 0.133922 0.71100003 4288587927
0.41239601 0.13414399 0.71200001 4288455829
0.41502199 0.134368 0.713 4287994508
0.41707301 0.13440301 0.713 4288257934
0.419126 0.13443901 0.713 4288455312
0.42000201 0.13409901 0.71100003 4288323726
0.422057 0.134137 0.71100003 4288454545
0.424712 0.13436399 0.71200001 4287928203
0.42737699 0.134592 0.713 4288190861
0.43125501 0.135199 0.71600002 4288454033
0.43273401 0.135051 0.71499997 4288453263
0.43421 0.134904 0.71399999 4288124552
0.43568501 0.134757 0.713 4288191113
0.439614 0.135368 0.71600002 4288848789
0.44109699 0.135223 0.71499997 4288585617
0.443818 0.13545799 0.71600002 4288191375
0.44468001 0.135125 0.71399999 4288190861
0.44803801 0.13555101 0.71600002 4288519824
0.44952601 0.135409 0.71499997 4288257168
0.45227599 0.135648 0.71600002 4288454547
0.453767 0.135508 0.71499997 4288257168
0.45653099 0.135748 0.71600002 4288190859
0.458666 0.1358 0.71600002 4287598208
0.46016201 0.135663 0.71499997 4287071610
0.462304 0.13571601 0.71499997 4287005557
0.46445 0.13577101 0.71499997 4286610799
0.467906 0.136206 0.71700001 4287466361
0.46941301 0.13607299 0.71600002 4287663227
0.471578 0.13613001 0.71600002 4287926910
0.473086 0.13599899 0.71499997 4286676586
0.475923 0.13624901 0.71600002 4287795066
0.478104 0.136309 0.71600002 4287860859
0.48163199 0.13675199 0.71799999 4286940011
0.48248199 0.136434 0.71600002 4287334769
0.48468 0.136498 0.71600002 4287269235
0.48620301 0.136373 0.71499997 4287334516
0.490459 0.137012 0.71799999 4287465848
0.49062201 0.13650601 0.71499997 4287202930
0.49490899 0.13714799 0.71799999 4287333749
0.497143 0.137218 0.71799999 4287334506
-0.199081 0.130503 0.708 4285164916
-0.19662 0.13014001 0.70599997 4289310895
-0.193894 0.129592 0.70300001 4289113000
-0.191456 0.12922899 0.70099998 4289769899
-0.189841 0.129418 0.70200002 4289769385
-0.187953 0.12942401 0.70200002 4289572006
-0.186064 0.129429 0.70200002 4289637799
-0.18443801 0.129619 0.70300001 4289900971
-0.182807 0.12981001 0.704 4289638315
-0.18117 0.13 0.70499998 4289440934
-0.179527 0.13019 0.70599997 4289967278
-0.17787901 0.13038 0.70700002 4289572520
-0.17597701 0.13038599 0.70700002 4289506982
-0.17382801 0.130208 0.70599997 4289835947
-0.171685 0.13002899 0.70499998 4289243294
-0.170028 0.13022 0.70599997 4289045917
-0.168128 0.130226 0.70599997 4289506468
-0.166463 0.13041601 0.70700002 4290032296
-0.164327 0.130238 0.70599997 4289242780
-0.16242699 0.130244 0.70599997 4289505438
-0.160299 0.13006601 0.70499998 4289505438
-0.15862501 0.130257 0.70599997 4289373852
-0.156946 0.130448 0.70700002 4289505184
-0.15504199 0.130454 0.70700002 4289636770
-0.153138 0.13045999 0.70700002 4289636770
-0.151234 0.130467 0.70700002 4289111194
-0.14954101 0.130657 0.708 4288979094
-0.147634 0.13066401 0.708 4287729026
-0.14531501 0.130301 0.70599997 4288058245
-0.14361501 0.130492 0.70700002 4287992193
-0.14150999 0.13031401 0.70599997 4288189571
-0.140003 0.130689 0.708 4288255877
-0.137704 0.130326 0.70599997 4288190084
-0.135994 0.13051701 0.70700002 4288518794
-0.13408799 0.130523 0.70700002 4288584587
-0.132368 0.130714 0.708 4288518796
-0.13064399 0.130905 0.70899999 4288847250
-0.128913 0.13109601 0.70999998 4288715918
-0.127177 0.13128699 0.71100003 4287465598
-0.125083 0.131108 0.70999998 4288649871
-0.122995 0.13093001 0.70899999 4288452743
-0.121082 0.130936 0.70899999 4288124291
-0.119001 0.130757 0.708 4288716428
-0.11709 0.13076299 0.708 4288782221
-0.115017 0.130585 0.70700002 4288716428
-0.113268 0.130775 0.708 4288650122
-0.111515 0.13096599 0.70899999 4288321157
-0.109755 0.131156 0.70999998 4288123778
-0.107838 0.131162 0.70999998 4288321157
-0.105921 0.13116799 0.70999998 4288452743
-0.104003 0.131173 0.70999998 4288058243
-0.10223 0.131364 0.71100003 4287926657
-0.100168 0.131185 0.70999998 4287860864
-0.098388202 0.131375 0.71100003 4289110679
-0.096331596 0.13119499 0.70999998 4288847508
-0.094545998 0.131385 0.71100003 4288979354
-0.092494398 0.13120601 0.70999998 4288650904
-0.090703003 0.131396 0.71100003 4288848538
-0.0884066 0.13084701 0.708 4288980124
-0.086614899 0.131036 0.70899999 4288914329
-0.084817603 0.131226 0.70999998 4288848536
-0.0830146 0.13141599 0.71100003 4288979861
-0.081092 0.131421 0.71100003 4288782480
-0.0792806 0.13161001 0.71200001 4288848528
-0.077354901 0.131615 0.71200001 4288914321
-0.075429 0.13161901 0.71200001 4288848273
-0.073606201 0.131809 0.713 4288979861
-0.0716772 0.131813 0.713 4288848791
-0.0696503 0.131632 0.71200001 4288716952
-0.0676286 0.13145199 0.71100003 4289111455
-0.065796897 0.131641 0.71200001 4289111455
-0.064139098 0.132199 0.71499997 4289045917
-0.0624649 0.13275801 0.71799999 4288980124
-0.060521401 0.132762 0.71799999 4288914331
-0.0584962 0.13258 0.71700001 4289045917
-0.056476202 0.13239899 0.71600002 4288651159
-0.054537699 0.132402 0.71600002 4288913814
-0.052745901 0.13277601 0.71799999 4288914068
-0.051013902 0.133334 0.72100002 4288913554
-0.049197599 0.133707 0.72299999 4288650380
-0.047500901 0.13444901 0.727 4288782221
-0.045657098 0.134822 0.72899997 4288584842
-0.043862302 0.13538 0.73199999 4288716173
-0.0419368 0.13556799 0.73299998 4288453517
-0.040005598 0.135755 0.73400003 4288913554
-0.038017198 0.135758 0.73400003 4288584849
-0.036175899 0.136315 0.73699999 4288782229
-0.034225501 0.136502 0.73799998 4288519057
-0.032225899 0.13650399 0.73799998 4288782229
-0.030144401 0.136136 0.736 4288585364
-0.028073501 0.135768 0.73400003 4288387985
-0.0259779 0.135215 0.73100001 4288650643
-0.024029801 0.13540199 0.73199999 4288650643
-0.022076201 0.13558801 0.73299998 4288650129
-0.0201446 0.13596 0.73500001 4288518542
-0.018177301 0.13614599 0.736 4288715921
-0.0161826 0.13614701 0.736 4288518796
-0.0141878 0.13614801 0.736 4288847761
-0.0121764 0.13596401 0.73500001 4288913554
-0.0101843 0.13596401 0.73500001 4288979347
-0.0081921397 0.135965 0.73500001 4288321417
-0.0062168301 0.136336 0.73699999 4288386953
-0.0042192 0.136336 0.73699999 4288321157
-0.0022245799 0.136521 0.73799998 4288386436
-0.000224526 0.13670599 0.73900002 4287992193
0.00177854 0.13670599 0.73900002 4287795071
0.00377648 0.136521 0.73799998 4287860864
0.0057533402 0.135966 0.73500001 4287729280
0.00774553 0.135965 0.73500001 4287663485
0.0097509502 0.13615 0.736 4287531899
0.0117777 0.136519 0.73799998 4287597694
0.0137593 0.136333 0.73699999 4287400313
0.015756801 0.13633201 0.73699999 4287663485
0.017754201 0.13633101 0.73699999 4287400315
0.019751601 0.13632999 0.73699999 4287597694
0.021808 0.13669799 0.73900002 4287729280
0.0237462 0.136327 0.73699999 4287531901
0.025743401 0.136325 0.73699999 4287597183
0.0277406 0.136324 0.73699999 4287597437
0.029778 0.136507 0.73799998 4287400058
0.031863801 0.136875 0.74000001 4287334011
0.033822998 0.13668799 0.73900002 4287465854
0.0358252 0.136685 0.73900002 4287531901
0.037776198 0.136498 0.73799998 4287663228
0.039775498 0.13649601 0.73799998 4287465849
0.041774601 0.136493 0.73799998 4287334263
0.0437737 0.13649 0.73799998 4287531641
0.045772702 0.13648701 0.73799998 4287597435
0.047706801 0.1363 0.73699999 4287268472
0.049770199 0.136481 0.73799998 4287531128
0.051768798 0.13647801 0.73799998 4287662714
0.0536943 0.13629 0.73699999 4287992193
0.055765498 0.136471 0.73799998 4287926400
0.057763599 0.13646799 0.73799998 4287663228
0.0599235 0.136834 0.74000001 4287597435
0.061759401 0.136461 0.73799998 4287597434
0.063670702 0.136272 0.73699999 4287663227
0.065398201 0.135713 0.73400003 4287532154
0.067384697 0.135709 0.73400003 4287663740
0.069465503 0.13589001 0.73500001 4287532154
0.071648799 0.136255 0.73699999 4287400568
0.073642902 0.136251 0.73699999 4287466106
0.075534202 0.136062 0.736 4287466108
0.077419899 0.13587201 0.73500001 4287400315
0.079300001 0.135683 0.73400003 4287466108
0.081285201 0.13567799 0.73400003 4287466108
0.083270296 0.135673 0.73400003 4287597692
0.085371204 0.13585301 0.73500001 4287532154
0.087358601 0.135848 0.73500001 4287663740
0.089224197 0.135658 0.73400003 4287729533
0.090959899 0.13528299 0.73199999 4287466361
0.092938498 0.135278 0.73199999 4287532154
0.095176198 0.13564201 0.73400003 4287729278
0.097159803 0.135637 0.73400003 4287729278
0.098873101 0.135262 0.73199999 4287531899
0.1003 0.134517 0.72799999 4287729278
0.102126 0.13432699 0.727 4287400829
0.10409 0.134321 0.727 4286677883
0.106491 0.13486999 0.73000002 4283914848
0.109057 0.135603 0.73400003 4285889142
0.110736 0.13522799 0.73199999 4288521116
0.112559 0.135037 0.73100001 4287994771
0.113592 0.13392299 0.72500002 4288126097
0.11539 0.13373201 0.72399998 4288455062
0.11702 0.133356 0.722 4288389269
0.118804 0.133166 0.72100002 4288126097
0.120415 0.13279 0.71899998 4288389015
0.122355 0.13278399 0.71899998 4288849052
0.124467 0.132963 0.72000003 4288322708
0.126059 0.132587 0.71799999 4288387985
0.127639 0.132211 0.71600002 4288716950
0.12957001 0.13220499 0.71600002 4288519056
0.13168401 0.132384 0.71700001 4288453264
0.13324501 0.132008 0.71499997 4287992198
0.134984 0.131817 0.71399999 4288321677
0.1371 0.13199501 0.71499997 4288388238
0.13941699 0.132358 0.71700001 4289111961
0.141546 0.13253599 0.71799999 4288256654
0.143281 0.13234501 0.71700001 4287993741
0.14521401 0.132339 0.71700001 4288585364
0.147146 0.132333 0.71700001 4288585878
0.149077 0.13232601 0.71700001 4288717719
0.15100899 0.13232 0.71700001 4288388752
0.15294001 0.132313 0.71700001 4288980375
0.154871 0.13230699 0.71700001 4287993219
0.15658399 0.132116 0.71600002 4287071603
0.158291 0.131925 0.71499997 4287400568
0.16044 0.132103 0.71600002 4287729533
0.162141 0.13191199 0.71499997 4287861119
0.163607 0.13153701 0.713 4288190084
0.16599099 0.1319 0.71499997 4287992705
0.167915 0.13189401 0.71499997 4287992705
0.16983999 0.131887 0.71499997 4287926912
0.171524 0.131697 0.71399999 4288387210
0.173446 0.13169099 0.71399999 4288321417
0.175367 0.13168401 0.71399999 4288386956
0.17728899 0.131678 0.71399999 4288058505
0.17921001 0.13167199 0.71399999 4288058757
0.181385 0.131851 0.71499997 4288387463
0.18330801 0.131845 0.71499997 4288255877
0.185232 0.13183901 0.71499997 4288321668
0.18663201 0.131465 0.713 4287926652
0.18828499 0.131274 0.71200001 4287992446
0.190201 0.13126899 0.71200001 4287795067
0.192386 0.131448 0.713 4287926399
0.194576 0.131626 0.71399999 4287794813
0.19649699 0.131621 0.71399999 4287860606
0.198139 0.131431 0.713 4287729274
0.19977701 0.13124201 0.71200001 4287663481
0.201409 0.131052 0.71100003 4287466614
0.203035 0.130863 0.70999998 4287400566
0.20523299 0.131042 0.71100003 4287861117
0.206854 0.130853 0.70999998 4287532154
0.209058 0.131033 0.71100003 4287203187
0.210971 0.131028 0.71100003 4287071856
0.213183 0.131208 0.71200001 4287400821
0.21509799 0.13120399 0.71200001 4287663993
0.217013 0.131199 0.71200001 4287532405
0.218621 0.13101099 0.71100003 4287005297
0.220534 0.131007 0.71100003 4287202676
0.22213399 0.13081899 0.70999998 4287465849
0.224676 0.131184 0.71200001 4287992450
0.226592 0.13118 0.71200001 4288190091
0.22818699 0.130992 0.71100003 4287926919
0.229453 0.130621 0.70899999 4287861894
0.231362 0.13061699 0.70899999 4287992966
0.23392799 0.130983 0.71100003 4288124036
0.236174 0.131164 0.71200001 4287795071
0.237757 0.130977 0.71100003 4287794819
0.238997 0.13060699 0.70899999 4288255370
0.241247 0.130789 0.70999998 4287992713
0.24350099 0.130971 0.71100003 4287927434
0.245417 0.130969 0.71100003 4287795848
0.246637 0.13059901 0.70899999 4287466883
0.248898 0.13078099 0.70999998 4287663747
0.25081199 0.13078 0.70999998 4287597440
0.25272599 0.130779 0.70999998 4287860612
0.25464001 0.130778 0.70999998 4287466106
0.25655499 0.130777 0.70999998 4287532154
0.25847 0.130776 0.70999998 4287203448
0.26038599 0.130776 0.70999998 4287335289
0.26230201 0.130776 0.70999998 4287663999
0.26384601 0.130592 0.70899999 4287663999
0.26576 0.130592 0.70899999 4287466620
0.26805201 0.130777 0.70999998 4287203448
0.26997 0.130778 0.70999998 4287466875
0.27227199 0.130963 0.71100003 4287335803
0.273808 0.13078099 0.70999998 4287335803
0.27689299 0.13133501 0.713 4287270010
0.27803901 0.130968 0.71100003 4287137910
0.27996299 0.13097 0.71100003 4287137910
0.28069699 0.13042 0.708 4287137910
0.28341299 0.13079099 0.70999998 4287663999
0.285335 0.130794 0.70999998 4287467390
0.288068 0.131166 0.71200001 4287664769
0.28959101 0.13098501 0.71100003 4287796354
0.29192799 0.131173 0.71200001 4287533183
0.292622 0.13062499 0.70899999 4287927940
0.29496101 0.130814 0.70999998 4287862147
0.29605201 0.13045 0.708 4287664769
0.29839599 0.130639 0.70899999 4287862148
0.29989901 0.13045999 0.708 4287467136
0.30225 0.13065 0.70899999 4287796103
0.303749 0.130472 0.708 4287664517
0.305244 0.130294 0.70700002 4287861896
0.30716899 0.130301 0.70700002 4288321677
0.309095 0.130308 0.70700002 4288453517
0.31102201 0.13031501 0.70700002 4287861380
0.31294999 0.13032299 0.70700002 4287664001
0.31532499 0.13051499 0.708 4287796101
0.31681001 0.13034 0.70700002 4287598722
0.31829 0.130164 0.70599997 4287730822
0.32021999 0.130173 0.70599997 4287796615
0.32260799 0.130367 0.70700002 4288059527
0.324543 0.13037699 0.70700002 4288191113
0.32601801 0.13020299 0.70599997 4288454031
0.328417 0.130399 0.70700002 4288256652
0.330823 0.130594 0.708 4288322445
0.33276701 0.130606 0.708 4287993996
0.33471099 0.13061801 0.708 4287665029
0.33665699 0.13063 0.708 4287861894
0.33908299 0.13082799 0.70899999 4287993480
0.340554 0.130657 0.708 4287861896
0.34250501 0.13067099 0.708 4288256654
0.34397 0.1305 0.70700002 4288190861
0.34592101 0.13051499 0.70700002 4288124813
0.34787399 0.13053 0.70700002 4288388240
0.35032299 0.13073 0.708 4288257166
0.35278001 0.130931 0.70899999 4287928455
0.35474399 0.13094801 0.70899999 4287994247
0.356709 0.13096499 0.70899999 4288191626
0.35817 0.130798 0.708 4288388752
0.36013699 0.130816 0.708 4288257166
0.362616 0.131019 0.70899999 4288454031
0.36407501 0.130854 0.708 4288388238
0.36604801 0.13087299 0.708 4288191626
0.36802199 0.13089401 0.708 4287994247
0.36999801 0.130914 0.708 4287994248
0.371977 0.130936 0.708 4287862408
0.37343001 0.13077299 0.70700002 4288191373
0.37594101 0.13098 0.708 4288191889
0.37792599 0.13100301 0.708 4287994510
0.37991399 0.131026 0.708 4288125580
0.38190401 0.13105001 0.708 4288059787
0.38443899 0.13125999 0.70899999 4288191113
0.385892 0.1311 0.708 4287993734
0.386794 0.13075601 0.70599997 4287927687
0.38878801 0.13078199 0.70599997 4288124552
0.39078501 0.13080999 0.70599997 4287992712
0.39334199 0.131023 0.70700002 4287861126
0.395347 0.131051 0.70700002 4287927173
0.397917 0.131265 0.708 4288321931
0.39993101 0.131295 0.708 4288059275
0.40251499 0.131511 0.70899999 4287336064
0.40396699 0.131356 0.708 4285625710
0.406564 0.131574 0.70899999 4282534457
0.40859199 0.131606 0.70899999 4288719001
0.411203 0.131825 0.70999998 4288653206
0.41382301 0.132045 0.71100003 4288258450
0.415867 0.13207901 0.71100003 4288191887
0.41791499 0.13211501 0.71100003 4288192141
0.41878399 0.131779 0.70899999 4288454798
0.42083201 0.131816 0.70899999 4288586385
0.42288399 0.131854 0.70899999 4288191373
0.42613801 0.132264 0.71100003 4288059536
0.42940801 0.13267501 0.713 4288059022
0.430877 0.13252901 0.71200001 4288388240
0.43234399 0.132384 0.71100003 4288190343
0.43319899 0.132053 0.70899999 4287993734
0.436501 0.132468 0.71100003 4288454031
0.43858501 0.132511 0.71100003 4288782998
0.44067299 0.13255601 0.71100003 4288059789
0.44214299 0.132414 0.70999998 4287796617
0.44548801 0.132833 0.71200001 4288059789
0.44759199 0.13288 0.71200001 4288059789
0.45033199 0.133114 0.713 4288388499
0.45181301 0.132976 0.71200001 4288191120
0.453931 0.13302501 0.71200001 4288256654
0.45605201 0.133076 0.71200001 4288255884
0.45689201 0.132753 0.70999998 4287071096
0.45901799 0.132805 0.70999998 4287005557
0.46114799 0.13285901 0.70999998 4286939762
0.46458799 0.133287 0.71200001 4287137396
0.46673399 0.133342 0.71200001 4287465848
0.46888599 0.13339899 0.71200001 4287466359
0.47170401 0.133643 0.713 4286808431
0.47586301 0.13426401 0.71600002 4287137396
0.47804299 0.134324 0.71600002 4287926910
0.47955701 0.134197 0.71499997 4287927163
0.480398 0.133883 0.713 4286545253
0.483262 0.13413399 0.71399999 4287071854
0.48545799 0.134198 0.71399999 4287335028
0.487661 0.13426299 0.71399999 4287729273
0.48849699 0.13395201 0.71200001 4287268975
0.49139401 0.13420799 0.713 4287334506
0.49361199 0.134276 0.713 4287006553
0.49722701 0.13472199 0.71499997 4287070820
-0.199571 0.127681 0.70300001 4285558904
-0.19768 0.12768599 0.70300001 4288980648
-0.195511 0.12751 0.70200002 4288783521
-0.19334701 0.127333 0.70099998 4288848283
-0.19118901 0.127157 0.69999999 4288848538
-0.189576 0.127344 0.70099998 4289045917
-0.187691 0.12735 0.70099998 4288914076
-0.18580499 0.12735499 0.70099998 4289111455
-0.184182 0.127542 0.70200002 4289308834
-0.18255299 0.12773 0.70300001 4289308834
-0.18066099 0.127736 0.70300001 4289835178
-0.179024 0.127923 0.704 4289506213
-0.177634 0.12829199 0.70599997 4289374627
-0.175734 0.128298 0.70599997 4289506468
-0.173342 0.127941 0.704 4289703845
-0.171204 0.127765 0.70300001 4289045915
-0.169071 0.127589 0.70200002 4289374882
-0.16742 0.127777 0.70300001 4289440159
-0.165528 0.127783 0.70300001 4289571745
-0.163868 0.12797099 0.704 4289373851
-0.161743 0.12779599 0.70300001 4289242266
-0.159623 0.12762 0.70200002 4289242265
-0.15773299 0.127626 0.70200002 4289242265
-0.156065 0.12781399 0.70300001 4289505184
-0.15439101 0.128002 0.704 4289505698
-0.152711 0.12819 0.70499998 4289374112
-0.150813 0.128197 0.70499998 4288979608
-0.14891399 0.128203 0.70499998 4287992198
-0.14701401 0.12820899 0.70499998 4288453003
-0.14490899 0.128034 0.704 4287794816
-0.143215 0.128222 0.70499998 4287860607
-0.14111499 0.12804601 0.704 4287992192
-0.13941599 0.128234 0.70499998 4288123778
-0.137125 0.127877 0.70300001 4287663227
-0.135423 0.128065 0.704 4288387208
-0.133525 0.128071 0.704 4288321415
-0.132001 0.12844101 0.70599997 4288847761
-0.130281 0.128629 0.70700002 4288781457
-0.128556 0.12881701 0.708 4287268218
-0.126647 0.128824 0.708 4288518286
-0.124913 0.129012 0.70899999 4288452744
-0.12248 0.128472 0.70599997 4288255618
-0.120746 0.12865999 0.70700002 4288189825
-0.118671 0.128484 0.70599997 4289045393
-0.117096 0.12885401 0.708 4288387463
-0.11486 0.12849601 0.70599997 4288190084
-0.113114 0.128684 0.70700002 4288584329
-0.111363 0.12887099 0.708 4288386950
-0.109606 0.129059 0.70899999 4288452743
-0.107388 0.128701 0.70700002 4288453001
-0.10533 0.128525 0.70599997 4288321415
-0.103423 0.12853 0.70599997 4288453001
-0.101948 0.12908199 0.70899999 4287597694
-0.099891201 0.128905 0.708 4288913300
-0.098116897 0.12909301 0.70899999 4289110680
-0.095794201 0.128552 0.70599997 4289045147
-0.094152398 0.128921 0.708 4289110940
-0.092108697 0.12874401 0.70700002 4289045147
-0.0903254 0.128932 0.708 4288979354
-0.088036999 0.12839 0.70499998 4288914584
-0.086253397 0.12857699 0.70599997 4288848791
-0.084463999 0.128764 0.70700002 4288980122
-0.082785897 0.129134 0.70899999 4288848275
-0.080868602 0.12913799 0.70899999 4288979859
-0.079062499 0.129325 0.70999998 4288979859
-0.077142097 0.12932999 0.70999998 4289111445
-0.075221598 0.129334 0.70999998 4289111447
-0.073300801 0.12933899 0.70999998 4288848021
-0.071480498 0.12952501 0.71100003 4289045917
-0.069458798 0.129347 0.70999998 4289045662
-0.067537598 0.129351 0.70999998 4288979869
-0.065708503 0.129537 0.71100003 4288979869
-0.0639636 0.129906 0.713 4289110940
-0.062120698 0.130092 0.71399999 4288980124
-0.060187999 0.130096 0.71399999 4288913561
-0.058173399 0.129917 0.713 4289176733
-0.056243099 0.12992001 0.713 4288651159
-0.054388698 0.130106 0.71399999 4288650643
-0.052528799 0.130292 0.71499997 4288848021
-0.050734099 0.130659 0.71700001 4288782482
-0.048996501 0.131209 0.72000003 4288847759
-0.047373202 0.13212299 0.72500002 4288716173
-0.0454721 0.13230801 0.72600001 4288847759
-0.043745201 0.13304 0.73000002 4288519310
-0.0417105 0.132861 0.72899997 4288848275
-0.039844699 0.133228 0.73100001 4288716435
-0.037916001 0.133413 0.73199999 4288848021
-0.035981901 0.133597 0.73299998 4288848021
-0.034042198 0.133782 0.73400003 4288650642
-0.032097001 0.133966 0.73500001 4288584850
-0.0300644 0.13378599 0.73400003 4288519571
-0.028037099 0.133605 0.73299998 4288782229
-0.025979601 0.133242 0.73100001 4288716436
-0.0239657 0.13306201 0.73000002 4288913815
-0.0219873 0.133063 0.73000002 4288848022
-0.0200362 0.133247 0.73100001 4288782228
-0.0181044 0.13361301 0.73299998 4288585617
-0.016117699 0.133614 0.73299998 4288717203
-0.0141116 0.133433 0.73199999 4288519826
-0.012111 0.133251 0.73100001 4288717205
-0.0101295 0.13325199 0.73100001 4288650642
-0.00814809 0.13325199 0.73100001 4288650642
-0.00617505 0.133435 0.73199999 4288453003
-0.0042023002 0.1338 0.73400003 4288847759
-0.00222171 0.13434701 0.73699999 4288847759
-0.000224237 0.13452999 0.73799998 4288584587
0.00177866 0.134712 0.73900002 4288782221
0.0037664999 0.134165 0.736 4288847759
0.0057458901 0.1338 0.73400003 4288979347
0.0077249599 0.133617 0.73299998 4288584589
0.0097118402 0.133617 0.73299998 4288518796
0.0117146 0.133798 0.73400003 4288321164
0.0136855 0.133615 0.73299998 4288255370
0.0156509 0.133432 0.73199999 4288321164
0.0176349 0.133431 0.73199999 4288189578
0.0196725 0.13379399 0.73400003 4288123785
0.021720899 0.134157 0.736 4288321164
0.023651101 0.133791 0.73400003 4288255371
0.025605399 0.133607 0.73299998 4287729027
0.0275918 0.133606 0.73299998 4287663234
0.0296185 0.13378599 0.73400003 4287663234
0.031650499 0.133966 0.73500001 4287531647
0.033642098 0.133964 0.73500001 4287465854
0.035633601 0.13396201 0.73500001 4287334522
0.037625 0.13395999 0.73500001 4287663485
0.039670199 0.13414 0.736 4287202934
0.0417207 0.13431901 0.73699999 4287268727
0.043657899 0.13413399 0.736 4287466106
0.045651499 0.134132 0.736 4287794814
0.047580302 0.133946 0.73500001 4287334265
0.049571 0.13394301 0.73500001 4287465851
0.051491398 0.13375799 0.73400003 4287597694
0.053479102 0.133755 0.73400003 4287795073
0.055391099 0.133569 0.73299998 4287795071
0.057610601 0.134112 0.736 4287663740
0.0596033 0.13410901 0.736 4287663740
0.061679501 0.134287 0.73699999 4287663740
0.063415401 0.133737 0.73400003 4287926912
0.065313101 0.133551 0.73299998 4287597947
0.067296997 0.13354699 0.73299998 4287729533
0.069375202 0.133725 0.73400003 4287597947
0.071458697 0.133903 0.73500001 4287729278
0.073347501 0.133716 0.73400003 4287465848
0.0752308 0.13352901 0.73299998 4287729021
0.077213801 0.133525 0.73299998 4287663228
0.079088598 0.133338 0.73199999 4287663485
0.081068501 0.133333 0.73199999 4287202934
0.083048202 0.133329 0.73199999 4287268727
0.085027702 0.133324 0.73199999 4287268982
0.087007001 0.13331901 0.73199999 4287268982
0.088864602 0.133132 0.73100001 4287268727
0.090592302 0.132762 0.72899997 4287202934
0.092689797 0.132939 0.73000002 4287531899
0.094792597 0.13311601 0.73100001 4287466106
0.096768104 0.133111 0.73100001 4287334520
0.098473303 0.132741 0.72899997 4287400568
0.10003 0.13218901 0.72600001 4287597692
0.10171 0.13181999 0.72399998 4287203196
0.103666 0.131814 0.72399998 4285823088
0.106205 0.13253701 0.72799999 4284638310
0.108914 0.133441 0.73299998 4287336589
0.11044 0.132889 0.73000002 4288192918
0.112103 0.13251901 0.72799999 4288126611
0.113128 0.131421 0.722 4287994511
0.114918 0.13123301 0.72100002 4288389269
0.116702 0.131045 0.72000003 4288455062
0.11848 0.13085701 0.71899998 4288256913
0.119918 0.13030501 0.71600002 4288651671
0.12168 0.130117 0.71499997 4288915098
0.123782 0.130293 0.71600002 4288256913
0.12553801 0.130105 0.71499997 4288191122
0.12711 0.12973499 0.713 4289243810
0.129033 0.129729 0.713 4288914076
0.13095599 0.129722 0.713 4288321939
0.133065 0.129898 0.71399999 4288518803
0.13461199 0.129528 0.71200001 4288321678
0.136531 0.129522 0.71200001 4288190606
0.13864499 0.129697 0.713 4289309087
0.140764 0.12987299 0.71399999 4288782743
0.142488 0.129685 0.713 4288454294
0.14441 0.129678 0.713 4288322708
0.146331 0.12967201 0.713 4288651673
0.14846 0.12984701 0.71399999 4288389269
0.150383 0.129841 0.71399999 4288652441
0.152307 0.12983499 0.71399999 4288651926
0.15423 0.12982801 0.71399999 4288124550
0.155715 0.129458 0.71200001 4287137655
0.15785401 0.12963399 0.713 4287466108
0.15955 0.129446 0.71200001 4287663485
0.161467 0.129439 0.71200001 4287992450
0.162925 0.129069 0.70999998 4287795071
0.165068 0.129245 0.71100003 4287861119
0.166982 0.12923899 0.71100003 4287992705
0.168896 0.129233 0.71100003 4287729533
0.170569 0.12904499 0.70999998 4288189829
0.17248 0.129039 0.70999998 4288387208
0.17463601 0.129214 0.71100003 4287992452
0.176301 0.12902699 0.70999998 4288058245
0.17796101 0.128839 0.70899999 4288453001
0.180122 0.129015 0.70999998 4288255877
0.182289 0.12919 0.71100003 4288321670
0.18446 0.129366 0.71200001 4288255877
0.18585201 0.128997 0.70999998 4288124544
0.187498 0.12881 0.70899999 4287926910
0.18940499 0.128804 0.70899999 4288058239
0.191312 0.12879901 0.70899999 4287926653
0.193492 0.128975 0.70999998 4287597947
0.195677 0.129151 0.71100003 4287203189
0.197589 0.12914599 0.71100003 4287334262
0.19893999 0.128777 0.70899999 4287663481
0.200847 0.12877201 0.70899999 4287663480
0.20246799 0.12858599 0.708 4287531895
0.204372 0.128581 0.708 4287860860
0.20598499 0.12839399 0.70700002 4287466102
0.20818099 0.128571 0.708 4287597687
0.210085 0.128566 0.708 4287992699
0.21228901 0.12874299 0.70899999 4287598198
0.21359199 0.12837601 0.70700002 4287532405
0.21579801 0.128553 0.708 4287466614
0.21801101 0.128731 0.70899999 4287466359
0.219918 0.128727 0.70899999 4287268982
0.221825 0.128723 0.70899999 4287400313
0.22373299 0.128719 0.70899999 4287531899
0.225641 0.12871499 0.70899999 4287663487
0.227549 0.128712 0.70899999 4287597694
0.229133 0.128527 0.708 4287466361
0.231365 0.12870499 0.70899999 4287400568
0.233602 0.128884 0.70999998 4287532154
0.235845 0.129062 0.71100003 4287268982
0.237425 0.128878 0.70999998 4286939764
0.23899999 0.128694 0.70899999 4287663487
0.240569 0.12851 0.708 4287466622
0.24316099 0.12887099 0.70999998 4287137657
0.244728 0.12868799 0.70899999 4287071348
0.246291 0.12850399 0.708 4286676590
0.248198 0.12850299 0.708 4286808176
0.25010601 0.128501 0.708 4287334520
0.25201499 0.1285 0.708 4287202934
0.25356501 0.128317 0.70700002 4287334775
0.25547099 0.128317 0.70700002 4287860864
0.25774199 0.128497 0.708 4287466106
0.25928599 0.128316 0.70700002 4287597692
0.26119301 0.128315 0.70700002 4287729278
0.26272899 0.128134 0.70599997 4287203703
0.264635 0.128134 0.70599997 4287532668
0.26691899 0.128316 0.70700002 4287203703
0.269209 0.128498 0.708 4287795326
0.27112201 0.128499 0.708 4287466361
0.27265 0.128319 0.70700002 4287663740
0.27456099 0.12832101 0.70700002 4287663740
0.27608201 0.128141 0.70599997 4287400821
0.27799201 0.128143 0.70599997 4287335026
0.279109 0.127782 0.704 4287269235
0.281414 0.127966 0.70499998 4287598200
0.28332299 0.127969 0.70499998 4287861119
0.286042 0.128335 0.70700002 4287926912
0.28836501 0.12852 0.708 4287795326
0.29028401 0.12852401 0.708 4287664254
0.29096699 0.127983 0.70499998 4287861117
0.29246399 0.12780599 0.704 4287926910
0.293957 0.127629 0.70300001 4287663740
0.29670799 0.127996 0.70499998 4287137394
0.298623 0.128002 0.70499998 4286479466
0.30139199 0.12837 0.70700002 4286611052
0.30245599 0.128013 0.70499998 4286413418
0.30437499 0.12801901 0.70499998 4286676592
0.305859 0.12784401 0.704 4287136889
0.30777699 0.12785099 0.704 4287268223
0.309255 0.127676 0.70300001 4287334520
0.31161499 0.127865 0.704 4287335034
0.313535 0.127873 0.704 4287598459
0.31545699 0.12788101 0.704 4287401080
0.31692901 0.127708 0.70300001 4287861117
0.31885001 0.127717 0.70300001 4287400566
0.32122901 0.12790801 0.704 4288255875
0.323156 0.127918 0.704 4288058498
0.32462201 0.127746 0.70300001 4287598976
0.32701299 0.127938 0.704 4288125066
0.32940999 0.128131 0.70499998 4288125582
0.331815 0.128324 0.70599997 4288059789
0.33422601 0.128518 0.70700002 4287862410
0.336169 0.12853 0.70700002 4288059275
0.33811399 0.12854201 0.70700002 4288190861
0.33957899 0.128374 0.70599997 4288059020
0.34152299 0.128387 0.70599997 4288059020
0.34298301 0.12821899 0.70499998 4288190606
0.344928 0.128233 0.70499998 4288124813
0.34687501 0.12824801 0.70499998 4288256654
0.34882301 0.128263 0.70499998 4288388752
0.35077399 0.128279 0.70499998 4288125834
0.35222501 0.128113 0.704 4288389005
0.35467899 0.12831201 0.70499998 4288060040
0.35612899 0.12814701 0.704 4288322959
0.35808399 0.12816501 0.704 4288059789
0.36055201 0.128365 0.70499998 4288191120
0.36251301 0.128383 0.70499998 4288191375
0.36499399 0.128585 0.70599997 4288586385
0.36696199 0.12860399 0.70599997 4288520591
0.36893299 0.12862501 0.70599997 4288060041
0.37090501 0.128645 0.70599997 4288125834
0.37182301 0.12830199 0.704 4288191373
0.373795 0.128324 0.704 4288060303
0.37576801 0.128346 0.704 4288191889
0.37774399 0.128369 0.704 4288257680
0.38026199 0.128575 0.70499998 4288389266
0.382788 0.12878101 0.70599997 4288059787
0.38423201 0.12862401 0.70499998 4288191375
0.385672 0.12846699 0.704 4288388240
0.38710999 0.12830999 0.70300001 4287795848
0.389651 0.128519 0.704 4287861641
0.392757 0.128911 0.70599997 4288256654
0.3942 0.128756 0.70499998 4287993480
0.39676401 0.128967 0.70599997 4287796101
0.39764199 0.128631 0.704 4287993480
0.40021399 0.12884299 0.70499998 4287664515
0.40222499 0.12887301 0.70499998 4286480243
0.40481201 0.129087 0.70599997 4283059519
0.406831 0.12911899 0.70599997 4285889132
0.40943301 0.129334 0.70700002 4288455829
0.41204301 0.12955 0.708 4287995278
0.414078 0.129584 0.708 4288257934
0.416116 0.129619 0.708 4288126347
0.41815701 0.12965401 0.708 4287863175
0.42020199 0.12969001 0.708 4288520338
0.42225 0.12972701 0.708 4288783512
0.42430201 0.12976401 0.708 4288125074
0.42695999 0.129986 0.70899999 4288256401
0.42902201 0.130025 0.70899999 4288387985
0.431088 0.13006499 0.70899999 4288321931
0.43254599 0.129922 0.708 4288321931
0.435231 0.130147 0.70899999 4288125068
0.43669099 0.130006 0.708 4288849050
0.43939 0.130233 0.70899999 4288849050
0.440853 0.13009299 0.708 4287927948
0.44356599 0.13032199 0.70899999 4288125327
0.44628799 0.130551 0.70999998 4288388754
0.44902101 0.13078199 0.71100003 4288256654
0.45049599 0.13064501 0.70999998 4288585364
0.45260599 0.130694 0.70999998 4288453778
0.454081 0.130559 0.70899999 4288255884
0.45555401 0.13042501 0.708 4287663233
0.45638001 0.130108 0.70599997 4287334265
0.45914599 0.130344 0.70700002 4287202676
0.46192399 0.13058101 0.708 4287005551
0.464057 0.13063499 0.708 4287466102
0.466196 0.13068999 0.708 4287926910
0.46966201 0.131115 0.70999998 4287334775
0.473811 0.131726 0.713 4287268982
0.476648 0.13197 0.71399999 4287795324
0.477485 0.131659 0.71200001 4287598200
0.47898901 0.13153499 0.71100003 4287400821
0.481846 0.131781 0.71200001 4286545512
0.485394 0.13221399 0.71399999 4287400566
0.48554701 0.131722 0.71100003 4287466102
0.487059 0.13160101 0.70999998 4287532147
0.48788199 0.13129599 0.708 4287202920
0.49215901 0.131919 0.71100003 4287268451
0.49507099 0.132173 0.71200001 4287399270
-0.199292 0.125607 0.70200002 4287861400
-0.197404 0.12561201 0.70200002 4289638060
-0.194959 0.125259 0.69999999 4289572522
-0.192525 0.124907 0.69800001 4289638054
-0.190374 0.124733 0.69700003 4290229936
-0.189041 0.12509599 0.699 4290098350
-0.187161 0.125102 0.699 4289769385
-0.185545 0.125286 0.69999999 4289900457
-0.183925 0.125471 0.70099998 4289966250
-0.18203899 0.125476 0.70099998 4289374627
-0.179639 0.12512399 0.699 4289374627
-0.178267 0.125488 0.70099998 4288585111
-0.176633 0.125673 0.70200002 4288453525
-0.17499299 0.12585799 0.70300001 4288584596
-0.172609 0.125506 0.70099998 4288650389
-0.170479 0.125332 0.69999999 4288782229
-0.16811401 0.12498 0.69800001 4289045147
-0.166235 0.124986 0.69800001 4289308573
-0.16435599 0.124992 0.69800001 4289045400
-0.16271 0.12517799 0.699 4289242265
-0.16105901 0.12536301 0.69999999 4289374105
-0.159402 0.12554801 0.70099998 4289439898
-0.157739 0.125733 0.70200002 4289571484
-0.15584899 0.12573899 0.70200002 4289637023
-0.154397 0.126104 0.704 4289505438
-0.152501 0.12611 0.704 4289176987
-0.15060499 0.12611599 0.704 4288715922
-0.148286 0.125764 0.70200002 4288321417
-0.146395 0.125771 0.70200002 4287860607
-0.144504 0.12577701 0.70200002 4288255364
-0.14281499 0.125962 0.70300001 4288255104
-0.14072099 0.125789 0.70200002 4288189824
-0.13882899 0.12579601 0.70200002 4288518790
-0.136741 0.125623 0.70099998 4288386950
-0.13504399 0.125808 0.70200002 4288715915
-0.132962 0.125635 0.70099998 4288518794
-0.131633 0.12617899 0.704 4289110676
-0.12991901 0.12636399 0.70499998 4288123781
-0.128199 0.12654901 0.70599997 4287794562
-0.12611599 0.126376 0.70499998 4288518536
-0.124215 0.12638199 0.70499998 4288650376
-0.122139 0.12620901 0.704 4287926652
-0.120411 0.126394 0.70499998 4288716681
-0.118508 0.12639999 0.70499998 4288782219
-0.116771 0.12658601 0.70599997 4288782219
-0.114703 0.126412 0.70499998 4288387461
-0.11264 0.126239 0.704 4288321157
-0.110897 0.126424 0.70499998 4288584329
-0.108994 0.12642901 0.70499998 4288518537
-0.10709 0.126435 0.70499998 4288518796
-0.104888 0.126082 0.70300001 4288255624
-0.103136 0.126267 0.704 4288057991
-0.101378 0.126452 0.70499998 4287992198
-0.099473402 0.12645701 0.70499998 4288979608
-0.097568698 0.126463 0.70499998 4289111194
-0.095528103 0.126289 0.704 4289176733
-0.093758598 0.12647299 0.70499998 4289045147
-0.091853298 0.126478 0.70499998 4288782229
-0.090075403 0.126663 0.70599997 4288848022
-0.087917201 0.12630901 0.704 4288782228
-0.086013898 0.126314 0.704 4288848791
-0.084110498 0.12631901 0.704 4288716950
-0.082440399 0.126682 0.70599997 4288980122
-0.080645204 0.126866 0.70700002 4288782998
-0.078844398 0.127051 0.708 4288914584
-0.076820701 0.126876 0.70700002 4289046170
-0.074908197 0.12688001 0.70700002 4288717205
-0.072995402 0.126884 0.70700002 4288782743
-0.071082503 0.12688901 0.70700002 4288979869
