# .PCD v0.7 - Point Cloud Data file format
VERSION 0.7
FIELDS x y z rgb
SIZE 4 4 4 4
TYPE F F F U
COUNT 1 1 1 1
WIDTH 1210
HEIGHT 1
VIEWPOINT 0 0 0 1 0 0 0
POINTS 1210
DATA ascii
0.23228601 0.48387501 1.104 4285886570
0.235276 0.48389 1.104 4285360226
0.238482 0.48434499 1.105 4285558119
0.241257 0.48392299 1.104 4285097568
0.244248 0.48394001 1.104 4284571738
0.24724001 0.48395801 1.104 4285427302
0.25068501 0.484853 1.1059999 4285953646
0.253454 0.484433 1.105 4285230437
0.25621799 0.484014 1.104 4285888112
0.258742 0.48315701 1.102 4286744190
0.26149401 0.482739 1.101 4286283640
0.26447999 0.48276001 1.101 4286152054
0.26746801 0.48278099 1.101 4286678398
0.270455 0.48280299 1.101 4285757042
0.27319601 0.48238701 1.1 4287533454
0.275931 0.48197201 1.099 4287203719
0.278662 0.48155701 1.098 4286282872
0.28164399 0.48158199 1.098 4286875009
0.28462699 0.48160699 1.098 4287203460
0.28734899 0.48119399 1.097 4287532684
0.289801 0.48034301 1.095 4287795856
0.29251099 0.479931 1.094 4288256407
0.295486 0.47995901 1.094 4287599247
0.298462 0.479987 1.094 4288125591
0.30088699 0.479139 1.092 4287730579
0.30302399 0.47785199 1.089 4288256923
0.30542701 0.477005 1.087 4288651165
0.30810401 0.47659701 1.086 4288124821
0.31077501 0.47619 1.085 4288783521
0.31344301 0.475784 1.084 4287730833
0.31610501 0.47537899 1.0829999 4288322970
0.31846899 0.47453499 1.081 4289375658
0.32111999 0.47413099 1.08 4288915367
0.32376701 0.47372699 1.079 4288915883
0.32610601 0.472886 1.077 4289179056
0.32904699 0.47292301 1.077 4290429380
0.33168 0.47252199 1.076 4290165954
0.33399799 0.471683 1.074 4289639864
0.33662 0.471284 1.073 4289771192
0.33860499 0.470007 1.0700001 4289113262
0.340574 0.46873 1.067 4289704883
0.34220701 0.467015 1.063 4289113262
0.344143 0.46574 1.0599999 4290231744
0.34573701 0.46402699 1.056 4290232515
0.34764001 0.462753 1.053 4290693582
0.34852901 0.46016201 1.0470001 4290825168
0.35005799 0.45844999 1.043 4290035652
0.351567 0.45673901 1.039 4290166724
0.353396 0.455468 1.036 4290823884
0.354866 0.453758 1.0319999 4290297537
0.35700899 0.45292899 1.03 4289442481
0.35949099 0.45254001 1.029 4288126105
0.36161801 0.45171201 1.027 4288192411
0.36409 0.451325 1.026 4288784802
0.36691499 0.451379 1.026 4286942084
0.370823 0.45275399 1.029 4286152568
0.37511301 0.45457 1.033 4285099366
0.38089001 0.45814899 1.041 4285164644
0.38745001 0.46261001 1.051 4284375128
0.40000901 0.47411701 1.077 4283848784
0.41683 0.49047101 1.114 4283848784
0.42933401 0.50154698 1.1390001 4283782989
0.43628299 0.50602102 1.149 4282993728
0.44137701 0.508295 1.154 4282138417
0.44534501 0.509251 1.156 4281875245
0.44854999 0.50932598 1.156 4282072878
0.451758 0.50940299 1.156 4282138417
0.45496801 0.50948203 1.156 4282204212
0.45897299 0.51044399 1.158 4282532922
0.462991 0.51140702 1.16 4281941040
0.46662101 0.51193202 1.161 4282795833
0.46945 0.511576 1.16 4281677605
0.472276 0.511222 1.159 4281809191
0.47509801 0.51086903 1.158 4281940777
0.478744 0.51139998 1.159 4282598708
0.48198301 0.51149201 1.159 4281875245
0.48522401 0.511585 1.159 4282138417
0.48804599 0.51123899 1.158 4282992698
0.49129 0.51133603 1.158 4281874217
0.49368301 0.51055098 1.156 4282202929
0.49692699 0.51065099 1.156 4282466615
0.499309 0.50986999 1.154 4282796094
-0.197363 0.467237 1.073 4287994781
-0.19428 0.466791 1.072 4287204237
-0.191202 0.466346 1.071 4287467409
-0.188482 0.46677101 1.072 4287270030
-0.18558399 0.46676201 1.072 4287006858
-0.182685 0.46675301 1.072 4287467409
-0.17978799 0.46674401 1.072 4288125598
-0.17656 0.46586499 1.0700001 4287665563
-0.173668 0.465857 1.0700001 4288454565
-0.170616 0.465413 1.069 4288586152
-0.16788401 0.465841 1.0700001 4287927968
-0.164992 0.46583399 1.0700001 4288389286
-0.162101 0.46582699 1.0700001 4288915116
-0.159061 0.46538499 1.069 4288783530
-0.15602601 0.46494299 1.068 4288717737
-0.15314101 0.46493599 1.068 4288586151
-0.15025599 0.46493 1.068 4289967804
-0.14737099 0.46492401 1.068 4288520872
-0.144621 0.465354 1.069 4288981424
-0.14173301 0.46534899 1.069 4288257187
-0.138846 0.46534401 1.069 4287730843
-0.135958 0.465339 1.069 4287993500
-0.132947 0.46489799 1.068 4288125598
-0.12981901 0.46402299 1.066 4287796633
-0.12694 0.464019 1.066 4288322979
-0.124061 0.46401501 1.066 4288059807
-0.121069 0.46357501 1.0650001 4288257186
-0.118082 0.46313599 1.064 4288783531
-0.115209 0.46313199 1.064 4288717737
-0.112441 0.46356401 1.0650001 4288191393
-0.109566 0.463561 1.0650001 4289375151
-0.10659 0.46312201 1.064 4288322979
-0.103717 0.463119 1.064 4288125600
-0.100749 0.462681 1.063 4289244595
-0.097879499 0.46267799 1.063 4289376181
-0.094830804 0.46180499 1.061 4290034111
-0.091966398 0.46180201 1.061 4289507767
-0.089018002 0.46136501 1.0599999 4289770940
-0.086156398 0.461362 1.0599999 4289902272
-0.083216198 0.46092501 1.059 4290692046
-0.080357403 0.46092299 1.059 4291153111
-0.077425398 0.46048501 1.058 4290890455
-0.074498899 0.46004799 1.057 4291679457
-0.071577802 0.459611 1.056 4291613664
-0.068596996 0.45873901 1.054 4290757585
-0.065689497 0.45830199 1.053 4290626253
-0.062787399 0.45786601 1.052 4290824146
-0.059833702 0.456994 1.05 4290889939
-0.056890901 0.45612201 1.048 4291482331
-0.054062001 0.456121 1.048 4292074468
-0.0511843 0.45568401 1.0470001 4291086804
-0.048358299 0.45568299 1.0470001 4291876320
-0.0454452 0.45481199 1.045 4291678941
-0.0426245 0.45481101 1.045 4291547101
-0.039765801 0.454375 1.044 4291087320
-0.036877099 0.45350301 1.0420001 4291218906
-0.0339665 0.45219699 1.039 4291744482
-0.031132201 0.45176101 1.038 4290824148
-0.0282759 0.45089 1.036 4291415512
-0.0254304 0.450019 1.034 4290691788
-0.022573899 0.448713 1.031 4290494149
-0.0197719 0.448277 1.03 4290691013
-0.016975399 0.447842 1.029 4290099390
-0.0141704 0.446971 1.027 4290099390
-0.0113874 0.44653499 1.026 4290823628
-0.0086097196 0.4461 1.025 4289968319
-0.0058488799 0.44653499 1.026 4288981423
-0.00307964 0.44653499 1.026 4288192161
-0.00030980201 0.44566399 1.024 4288060574
0.0024516401 0.44522899 1.023 4288257953
0.0052127801 0.44522899 1.023 4288586665
0.0079817204 0.445665 1.024 4288915630
0.0107351 0.44523001 1.023 4288389286
0.013483 0.44479501 1.022 4288651944
0.0162415 0.44479501 1.022 4287138958
0.018999901 0.44479501 1.022 4285823350
0.021779699 0.44523099 1.023 4285231213
0.024516899 0.444796 1.022 4285822836
0.0273287 0.445667 1.024 4286875270
0.030151401 0.446538 1.026 4286283135
0.0329528 0.44697401 1.027 4286019449
0.035689998 0.44654 1.026 4286545023
0.0383844 0.44567001 1.024 4285953140
0.041188501 0.44610599 1.025 4285821552
0.0439981 0.44654199 1.026 4285623659
0.046904199 0.44784901 1.029 4284769117
0.049778301 0.44872001 1.031 4285229668
0.052765101 0.45046201 1.035 4284505947
0.055666201 0.451334 1.0369999 4284572252
0.058634501 0.45264101 1.04 4284769631
0.0616781 0.45438299 1.044 4284571738
0.0647434 0.456126 1.048 4284374359
0.067830198 0.45786801 1.052 4283847501
0.070871502 0.459176 1.0549999 4285031775
0.0740688 0.46135399 1.0599999 4284637016
0.077220596 0.46309599 1.064 4285031260
0.080394 0.46483901 1.068 4284439124
0.083433002 0.46571201 1.0700001 4284110673
0.086402297 0.466149 1.071 4284373331
0.089377001 0.46658701 1.072 4284504663
0.092443198 0.46746001 1.074 4283715400
0.095520303 0.46833301 1.076 4284176458
0.098608203 0.46920601 1.0779999 4284241997
0.101707 0.47007999 1.08 4284307790
0.104817 0.47095299 1.082 4283978825
0.107838 0.47139099 1.0829999 4283913284
0.110966 0.47226501 1.085 4284176711
0.113791 0.471834 1.084 4284110665
0.116826 0.47227201 1.085 4284307790
0.119866 0.472711 1.086 4284834135
0.123025 0.47358599 1.0880001 4284439124
0.12607799 0.47402501 1.089 4284175952
0.12901901 0.47402999 1.089 4284176466
0.132203 0.47490501 1.091 4284637017
0.135397 0.47578001 1.0930001 4284505431
0.138476 0.47622001 1.094 4284637017
0.14143001 0.47622499 1.094 4284570710
0.144385 0.47623 1.094 4284702296
0.14734 0.47623599 1.094 4284175951
0.150433 0.476677 1.095 4284373330
0.153391 0.47668299 1.095 4284834395
0.156635 0.47756001 1.097 4284702810
0.15974399 0.478001 1.098 4285163360
0.16300701 0.478879 1.1 4284505945
0.165979 0.47888601 1.1 4284834910
0.16910499 0.47932801 1.101 4284834395
0.17208099 0.47933599 1.101 4284241997
0.175056 0.479343 1.101 4283978826
0.178194 0.47978699 1.102 4284373584
0.181172 0.47979501 1.102 4284899927
0.18415099 0.47980401 1.102 4284439377
0.1873 0.480248 1.103 4285097307
0.19045401 0.48069301 1.104 4284965721
0.193615 0.48113799 1.105 4285097307
0.19678 0.481583 1.1059999 4283978826
0.19995201 0.48202899 1.107 4284505170
0.20312899 0.48247501 1.108 4285098335
0.206126 0.48248601 1.108 4284901211
0.20893399 0.48206201 1.107 4284177488
0.211546 0.48120299 1.105 4284177488
0.21472999 0.48165101 1.1059999 4285295199
0.217723 0.48166299 1.1059999 4285492578
0.220915 0.48211199 1.107 4284899928
0.223709 0.48168901 1.1059999 4285689190
0.22649799 0.48126799 1.105 4285755751
0.229074 0.48041099 1.103 4284571477
0.23185 0.47999001 1.102 4285689704
0.235047 0.48043999 1.103 4285294946
0.238034 0.48045599 1.103 4285294947
0.240803 0.48003599 1.102 4285229154
0.243789 0.48005301 1.102 4284505945
0.247446 0.48137701 1.105 4285558633
0.25066701 0.48183 1.1059999 4285559147
0.253894 0.482283 1.107 4285559917
0.25643101 0.48143101 1.105 4286020468
0.258957 0.48057801 1.103 4286415226
0.261473 0.47972599 1.101 4286941569
0.26421899 0.47931099 1.1 4286415226
0.267203 0.479332 1.1 4286875777
0.26994199 0.478917 1.099 4285823089
0.27292499 0.478939 1.099 4287467146
0.275657 0.47852501 1.098 4287006340
0.27863801 0.47854799 1.098 4286282872
0.28162 0.47857201 1.098 4286808702
0.284343 0.47815999 1.097 4287598218
0.28706101 0.47774899 1.096 4287335305
0.28951001 0.47690299 1.094 4287861649
0.292216 0.476493 1.0930001 4288124821
0.29518801 0.47652 1.0930001 4287599247
0.29815999 0.47654799 1.0930001 4287994005
0.300583 0.47570401 1.091 4288126105
0.30271599 0.47442499 1.0880001 4287994519
0.30483499 0.47314599 1.085 4288520349
0.307789 0.473176 1.085 4288191383
0.31045699 0.47277099 1.084 4288783520
0.31341001 0.472803 1.084 4287994004
0.31548801 0.471526 1.081 4288520348
0.31814 0.47112301 1.08 4288980900
0.320788 0.47072101 1.079 4289113000
0.32373101 0.47075599 1.079 4289375918
0.32637301 0.470355 1.0779999 4289113262
0.329009 0.469955 1.077 4290560966
0.331642 0.469556 1.076 4290034368
0.33427 0.46915799 1.075 4289639864
0.33658001 0.46832401 1.073 4289836985
0.33824801 0.46661699 1.069 4289244848
0.33989501 0.464912 1.0650001 4289968823
0.34152099 0.46320701 1.061 4289310641
0.343126 0.46150199 1.057 4289903035
0.345038 0.460235 1.054 4290495687
0.346935 0.458969 1.051 4290693582
0.348151 0.45682901 1.046 4290890961
0.34934101 0.45469099 1.041 4290430410
0.35084301 0.45299 1.0369999 4290232517
0.35266599 0.45172599 1.034 4290363333
0.354817 0.45089999 1.0319999 4290297537
0.35661301 0.44963801 1.029 4289441965
0.35909101 0.44925001 1.028 4288191898
0.36156601 0.44886401 1.027 4288520863
0.36439201 0.448915 1.027 4289047207
0.36686099 0.448531 1.026 4287205002
0.370408 0.44945899 1.028 4286612865
0.375056 0.45170099 1.033 4284704868
0.38046601 0.45481801 1.04 4285034087
0.38738999 0.45968699 1.051 4283981398
0.399575 0.47068301 1.076 4283849812
0.41639 0.48693299 1.113 4283586894
0.42926499 0.498375 1.1390001 4283389001
0.436212 0.50282001 1.149 4282928450
0.44092199 0.50464201 1.153 4282072626
0.444886 0.50559002 1.155 4281941038
0.448475 0.50610203 1.156 4282006571
0.45168099 0.50617701 1.156 4282138417
0.454889 0.50625402 1.156 4282401591
0.45889199 0.507209 1.158 4282401591
0.46250999 0.50772703 1.159 4282006833
0.46613601 0.50824702 1.16 4282533177
0.469365 0.508331 1.16 4282072878
0.47218901 0.50797802 1.159 4281414948
0.47501001 0.507626 1.158 4281875498
0.478241 0.50771397 1.158 4282401842
0.48189101 0.50824302 1.159 4282467635
0.484712 0.50789601 1.158 4282006570
0.48795101 0.50798899 1.158 4282992951
0.490345 0.50720698 1.156 4282400559
0.49315801 0.50686401 1.155 4282400308
0.49596801 0.50652403 1.154 4282269236
0.49877501 0.506185 1.153 4283256645
-0.19716901 0.463882 1.072 4288060574
-0.19427 0.46387199 1.072 4287467923
-0.19137099 0.46386299 1.072 4287533202
-0.188649 0.464286 1.073 4287401616
-0.185748 0.464277 1.073 4287072651
-0.18284699 0.46426901 1.073 4287138703
-0.179947 0.46426001 1.073 4287862426
-0.176882 0.46382001 1.072 4287731356
-0.17398401 0.46381199 1.072 4288717737
-0.170928 0.46337199 1.071 4288915117
-0.168034 0.46336499 1.071 4287994015
-0.164985 0.46292499 1.0700001 4288322979
-0.162094 0.462919 1.0700001 4288849323
-0.15920299 0.46291199 1.0700001 4288586151
-0.156166 0.46247301 1.069 4288849321
-0.153135 0.462035 1.068 4288389540
-0.15010899 0.461597 1.067 4289441974
-0.147227 0.46159101 1.067 4288455079
-0.14461499 0.46245101 1.069 4288784044
-0.14159501 0.46201399 1.068 4288322979
-0.138841 0.462441 1.069 4287927707
-0.13595399 0.462437 1.069 4288322465
-0.133067 0.462432 1.069 4287861912
-0.12993599 0.46156299 1.067 4287927705
-0.127174 0.46199101 1.068 4288388258
-0.12429 0.46198699 1.068 4287862428
-0.121406 0.46198401 1.068 4287994014
-0.1183 0.461115 1.066 4288980910
-0.115422 0.46111101 1.066 4288454565
-0.112543 0.461108 1.066 4288257186
-0.109768 0.46153799 1.067 4289111979
-0.106687 0.46066901 1.0650001 4288059805
-0.103909 0.461099 1.066 4288125598
-0.100841 0.46023101 1.064 4289244595
-0.097969003 0.46022901 1.064 4289310388
-0.095007099 0.45979401 1.063 4289968318
-0.092050701 0.45935899 1.062 4289376181
-0.089183703 0.45935699 1.062 4289639353
-0.0861542 0.45849001 1.0599999 4290034111
-0.083135597 0.45762199 1.058 4290692045
-0.080279604 0.45762101 1.058 4290758353
-0.077423602 0.45761901 1.058 4290955732
-0.074497104 0.45718399 1.057 4291876834
-0.071508303 0.45631799 1.0549999 4291482078
-0.068595402 0.45588401 1.054 4290757585
-0.065750398 0.45588201 1.054 4290692046
-0.062845699 0.45544899 1.053 4290758353
-0.059946399 0.455015 1.052 4291153111
-0.056998201 0.45414799 1.05 4291679710
-0.054215699 0.45458001 1.051 4291942882
-0.051281001 0.45371401 1.049 4291021010
-0.048403401 0.45328 1.048 4291942112
-0.045531299 0.452847 1.0470001 4291678941
-0.042705301 0.45284599 1.0470001 4291481308
-0.039803099 0.45197999 1.045 4291481308
-0.036841001 0.45024899 1.041 4291481308
-0.0339332 0.44895101 1.038 4291744480
-0.0310716 0.44808599 1.036 4291152343
-0.028248001 0.447653 1.035 4291349719
-0.025405301 0.446787 1.033 4290823374
-0.0225734 0.44592199 1.031 4290625220
-0.019733099 0.44462401 1.028 4290691013
-0.016958499 0.44462299 1.028 4290165183
-0.0141839 0.44462299 1.028 4290033597
-0.0113982 0.44419 1.027 4290888906
-0.0086095603 0.44332501 1.025 4289967804
-0.0058430699 0.44332501 1.025 4289047216
-0.0030735801 0.44289199 1.024 4288981677
-0.00030979601 0.44289199 1.024 4288060575
0.00245159 0.44246 1.023 4288323747
0.00521268 0.44246 1.023 4288652458
0.0079815704 0.442893 1.024 4289310388
0.0107454 0.442893 1.024 4288652458
0.013496 0.44246 1.023 4288059805
0.0162571 0.44246101 1.023 4286875270
0.019018199 0.44246101 1.023 4286020215
0.021757999 0.442029 1.022 4286349179
0.0245164 0.442029 1.022 4285691250
0.027328201 0.442895 1.024 4286743684
0.030180199 0.44419301 1.027 4285822584
0.032984201 0.444626 1.028 4285953656
0.035758901 0.44462699 1.028 4286347644
0.038458601 0.443762 1.026 4285755507
0.041268099 0.44419599 1.027 4285755247
0.044040099 0.44419599 1.027 4285360487
0.046948802 0.44549501 1.03 4284900703
0.049825501 0.44636101 1.0319999 4285098082
0.052763999 0.44765899 1.035 4284769117
0.055772401 0.44938999 1.039 4284835424
0.058689602 0.450257 1.041 4284769631
0.061794899 0.45242 1.046 4284374873
0.064803697 0.45371899 1.049 4284308566
0.067957602 0.455883 1.054 4284044880
0.071071401 0.45761499 1.058 4284637016
0.074206799 0.45934701 1.062 4284637016
0.077291302 0.460646 1.0650001 4285162846
0.080392003 0.461945 1.068 4284373331
0.083430998 0.46281201 1.0700001 4284044880
0.086400099 0.463247 1.071 4284504917
0.0894581 0.46411401 1.073 4284307537
0.092440799 0.46454901 1.074 4283847500
0.095606498 0.46584901 1.077 4284570963
0.0987885 0.46714899 1.08 4284307538
0.101798 0.46758401 1.081 4284307791
0.104911 0.46845201 1.0829999 4284241997
0.107934 0.468887 1.084 4284110406
0.110963 0.46932301 1.085 4284373578
0.113788 0.468894 1.084 4284176458
0.116822 0.469329 1.085 4284110411
0.119973 0.47019801 1.087 4284702548
0.123247 0.471499 1.09 4284570963
0.126306 0.47193599 1.091 4284308051
0.129252 0.47194001 1.091 4284176465
0.13219801 0.471944 1.091 4284308305
0.135392 0.47281301 1.0930001 4284505430
0.138724 0.474116 1.096 4284637017
0.141684 0.47411999 1.096 4284702295
0.144512 0.47369301 1.095 4284373844
0.14747 0.47369799 1.095 4284308051
0.150565 0.47413599 1.096 4284637016
0.15352499 0.474141 1.096 4284834395
0.156772 0.475012 1.098 4284637016
0.15988301 0.47545099 1.099 4284506200
0.163001 0.47589001 1.1 4284176719
0.165822 0.47546399 1.099 4284834649
0.168945 0.475903 1.1 4284636756
0.17207301 0.47634301 1.101 4283913032
0.175367 0.47721499 1.103 4283715653
0.17834701 0.47722301 1.103 4284439376
0.181493 0.47766301 1.104 4285031514
0.184477 0.47767201 1.104 4284505170
0.187461 0.47768 1.104 4284834134
0.19061799 0.47812101 1.105 4285097307
0.19378 0.47856301 1.1059999 4284965721
0.19694801 0.47900501 1.107 4283847239
0.19994199 0.47901499 1.107 4284176718
0.202935 0.47902501 1.107 4285032542
0.205929 0.479036 1.107 4284506453
0.208923 0.479047 1.107 4283849037
0.21172599 0.478625 1.1059999 4284308819
0.215106 0.47950199 1.108 4285426785
0.217907 0.479081 1.107 4285492578
0.220902 0.479094 1.107 4284110926
0.22369599 0.47867399 1.1059999 4285755497
0.22689401 0.47911999 1.107 4285756265
0.22947501 0.478268 1.105 4284703577
0.23204599 0.47741601 1.103 4285756267
0.23481899 0.476998 1.102 4285229153
0.237803 0.47701201 1.102 4284966235
0.240787 0.47702801 1.102 4285360739
0.243993 0.477476 1.103 4284440152
0.24765299 0.47879201 1.1059999 4284769119
0.25042301 0.47837499 1.105 4285624940
0.253418 0.47839299 1.105 4285428331
0.255716 0.477112 1.102 4286283640
0.25870401 0.47713 1.102 4286152054
0.26121601 0.47628301 1.1 4286415226
0.26444 0.476735 1.101 4286348663
0.26742601 0.47675499 1.101 4287006593
0.270412 0.476776 1.101 4285624940
0.27315101 0.47636399 1.1 4287269767
0.275886 0.475952 1.099 4286940802
0.278615 0.47554201 1.098 4286611837
0.28134 0.47513101 1.097 4287071874
0.28431901 0.475155 1.097 4287400584
0.287036 0.47474599 1.096 4287335305
0.28922001 0.47347099 1.0930001 4288322455
0.29192299 0.47306299 1.092 4288125591
0.294891 0.47308901 1.092 4287533968
0.29813299 0.47354901 1.0930001 4288257691
0.30027899 0.472276 1.09 4287797140
0.30240899 0.47100401 1.087 4288323484
0.30480501 0.470166 1.085 4288717727
0.30775899 0.47019601 1.085 4287862418
0.31071299 0.47022599 1.085 4289244071
0.31366801 0.470256 1.085 4288125590
0.31574801 0.468988 1.082 4288520349
0.31840199 0.468586 1.081 4289178279
0.32075399 0.46775201 1.079 4289113000
0.32369599 0.46778601 1.079 4289046953
0.32603401 0.46695399 1.077 4289179055
0.32836199 0.466122 1.075 4290823881
0.330989 0.46572399 1.074 4290100415
0.33329901 0.464894 1.072 4289968572
0.33591399 0.46449801 1.071 4289771192
0.33820799 0.463669 1.069 4289310641
0.34017301 0.46240699 1.066 4289771446
0.34147999 0.46027899 1.061 4289442227
0.34308401 0.45858401 1.057 4289903036
0.34499499 0.457324 1.054 4290693068
0.346562 0.45563099 1.05 4290693068
0.34810701 0.45393899 1.046 4290759375
0.349296 0.45181301 1.041 4290824652
0.350797 0.45012099 1.0369999 4289903550
0.35227799 0.44843099 1.033 4290494915
0.354426 0.44760901 1.031 4290297790
0.35621801 0.446354 1.028 4289244586
0.358693 0.445968 1.027 4287797140
0.361164 0.44558299 1.026 4288586402
0.363985 0.44563401 1.026 4289244332
0.36716601 0.44611999 1.027 4287402128
0.37071401 0.447041 1.029 4286349694
0.37536401 0.44926801 1.034 4284770661
0.380409 0.45192999 1.04 4285099880
0.38733101 0.45676801 1.051 4284244570
0.39877099 0.46682301 1.074 4284047445
0.416325 0.48383799 1.113 4284047445
0.429198 0.49520701 1.1390001 4283323722
0.43614301 0.499623 1.149 4283125829
0.44008601 0.50056201 1.151 4281809454
0.44404301 0.50150299 1.153 4282203696
0.44801301 0.50244498 1.155 4282138157
0.451215 0.50251901 1.155 4282335536
0.45481199 0.50303 1.156 4282532914
0.45841801 0.50354201 1.1569999 4282532915
0.46163201 0.50362098 1.1569999 4281809705
0.46524999 0.50413603 1.158 4282664761
0.46887699 0.50465298 1.159 4282073392
0.47210401 0.50473702 1.159 4281218083
0.47533399 0.50482202 1.159 4281481255
0.47856599 0.50490803 1.159 4282599221
0.48138499 0.50456101 1.158 4282533428
0.484202 0.504215 1.1569999 4282138156
0.48743701 0.50430602 1.1569999 4282663986
0.49067399 0.50440001 1.1569999 4282663472
0.49306101 0.503622 1.155 4282663479
0.49586901 0.50328302 1.154 4282137135
0.49867499 0.50294501 1.153 4283256900
-0.19715901 0.46096501 1.072 4287665817
-0.194079 0.46052501 1.071 4287204496
-0.19136199 0.46094599 1.072 4287072910
-0.188816 0.461797 1.074 4287204751
-0.185912 0.46178901 1.074 4286875272
-0.18283901 0.46135101 1.073 4287401361
-0.17977101 0.460913 1.072 4287862426
-0.176874 0.460906 1.072 4287599770
-0.173977 0.46089801 1.072 4288389287
-0.17107999 0.46089101 1.072 4288652459
-0.168184 0.46088499 1.072 4287468184
-0.165287 0.46087801 1.072 4288322979
-0.16239101 0.46087199 1.072 4288915114
-0.159346 0.46043599 1.071 4288454818
-0.156599 0.46086001 1.072 4288849321
-0.15341599 0.459995 1.0700001 4288783528
-0.150245 0.45912999 1.068 4289639607
-0.147084 0.45826501 1.066 4288191907
-0.14433999 0.45868999 1.067 4288981423
-0.141458 0.45868501 1.067 4288454565
-0.138836 0.45954001 1.069 4288190877
-0.135949 0.45953599 1.069 4288321949
-0.133187 0.45996201 1.0700001 4288190363
-0.130054 0.45909801 1.068 4288059032
-0.12717 0.45909399 1.068 4288322463
-0.124286 0.45909101 1.068 4287927705
-0.121402 0.45908701 1.068 4288191393
-0.118408 0.45865399 1.067 4289112495
-0.115527 0.45865101 1.067 4288717737
-0.112646 0.458648 1.067 4288717223
-0.109765 0.45864499 1.067 4289046186
-0.106784 0.458213 1.066 4288256672
-0.103906 0.45820999 1.066 4288388770
-0.100934 0.45777801 1.0650001 4289375667
-0.0979665 0.45734599 1.064 4289507253
-0.095004797 0.45691401 1.063 4290230974
-0.092135198 0.45691201 1.063 4289375665
-0.0892656 0.45691001 1.063 4289902011
-0.086233601 0.45604801 1.061 4290034111
-0.083212301 0.45518601 1.059 4290889421
-0.080277801 0.45475501 1.058 4290889425
-0.077348702 0.45432401 1.057 4291087320
-0.074425101 0.45389199 1.056 4292008422
-0.071506903 0.45346099 1.0549999 4291416285
-0.068594098 0.45302999 1.054 4290824148
-0.0658115 0.45345801 1.0549999 4290297034
-0.062844403 0.45259699 1.053 4290692560
-0.0600022 0.45259601 1.053 4291021525
-0.056997199 0.45130599 1.05 4291614176
-0.054111499 0.45087501 1.049 4291877603
-0.051231202 0.45044401 1.048 4290955987
-0.048356399 0.450014 1.0470001 4291810526
-0.045530401 0.45001301 1.0470001 4291613147
-0.0427045 0.450012 1.0470001 4291415769
-0.039802399 0.44915199 1.045 4291415769
-0.036840402 0.44743201 1.041 4291547097
-0.0339326 0.44614199 1.038 4291876063
-0.031071 0.44528201 1.036 4290954960
-0.0282476 0.44485199 1.035 4291218132
-0.0254295 0.44442099 1.034 4290757835
-0.022595 0.44356099 1.0319999 4290296769
-0.0197712 0.442702 1.03 4290559941
-0.016974799 0.44227099 1.029 4289967804
-0.0141975 0.44227099 1.029 4290033597
-0.0114092 0.44184101 1.028 4290888392
-0.0086094197 0.440552 1.025 4290230462
-0.0058372798 0.44012201 1.024 4289506739
-0.00307053 0.43969199 1.023 4288388256
-0.00031009299 0.44055101 1.025 4288126368
0.00245395 0.44012201 1.024 4288323493
0.0052176998 0.44012201 1.024 4288652458
0.0079814401 0.44012201 1.024 4288849837
0.0107452 0.44012201 1.024 4289046702
0.0134957 0.43969199 1.023 4288125086
0.016272699 0.44012201 1.024 4287006344
0.019036399 0.44012299 1.024 4286677379
0.021757601 0.43926299 1.022 4286348412
0.024491999 0.43883401 1.021 4286612098
0.027301099 0.43969399 1.023 4286743684
0.0301503 0.44098401 1.026 4286019963
0.032983702 0.44184399 1.028 4286085242
0.035758302 0.44184399 1.028 4286150265
0.038495399 0.44141501 1.027 4285887093
0.041267298 0.441416 1.027 4285623407
0.044082198 0.44184601 1.028 4285491305
0.046993598 0.44313699 1.031 4284702812
0.049872901 0.443997 1.033 4285294949
0.052763 0.44485801 1.035 4284965982
0.055663999 0.44571799 1.0369999 4284703324
0.058575802 0.44657901 1.039 4284769117
0.061734699 0.449159 1.045 4284637786
0.064802401 0.45087901 1.049 4284702809
0.068020701 0.45345899 1.0549999 4284044879
0.0711371 0.45517999 1.059 4284900188
0.074205302 0.456471 1.062 4284571223
0.077289701 0.457762 1.0650001 4285229153
0.080315001 0.45862299 1.067 4284110672
0.083351202 0.45948401 1.069 4284044879
0.086398199 0.46034601 1.071 4284110672
0.089372702 0.460778 1.072 4284702809
0.092352599 0.461209 1.073 4284373845
0.095515497 0.46250099 1.076 4284110672
0.0986946 0.46379301 1.079 4284373584
0.101796 0.46465501 1.081 4283913032
0.104811 0.465087 1.082 4284241997
0.107832 0.46551901 1.0829999 4284110406
0.110858 0.46595201 1.084 4284570959
0.113785 0.46595499 1.084 4283978822
0.116819 0.46638799 1.085 4283978825
0.119969 0.467251 1.087 4284241997
0.123243 0.46854299 1.09 4284505170
0.12641799 0.46940699 1.092 4284374098
0.12936699 0.46941 1.092 4284045133
0.132194 0.46898401 1.091 4284505683
0.13526399 0.46941799 1.092 4284374098
0.138466 0.47028199 1.094 4284308051
0.14142101 0.47028601 1.094 4284637270
0.14450701 0.47072101 1.095 4284637016
0.14746501 0.47072601 1.095 4284110672
0.15069699 0.47159001 1.097 4284308051
0.15366 0.47159499 1.097 4285031774
0.156766 0.472031 1.098 4284637017
0.159732 0.472036 1.098 4284571993
0.162994 0.472902 1.1 4284505684
0.165815 0.472478 1.099 4284900442
0.169092 0.473344 1.101 4284570962
0.172223 0.47378099 1.102 4283715907
0.1752 0.47378799 1.102 4284176204
0.17834 0.47422501 1.103 4284636755
0.181485 0.47466201 1.104 4284965720
0.184636 0.47510001 1.105 4284439376
0.187622 0.475108 1.105 4284899927
0.19060899 0.47511601 1.105 4284965720
0.193771 0.475555 1.1059999 4285294685
0.19693901 0.47599399 1.107 4283584321
0.199751 0.475573 1.1059999 4284505423
0.202742 0.47558299 1.1059999 4285032027
0.20554601 0.475162 1.105 4284440660
0.20872299 0.47560301 1.1059999 4283585610
0.211715 0.475613 1.1059999 4284243028
0.2149 0.47605401 1.107 4285624165
0.21769799 0.47563601 1.1059999 4285492325
0.220691 0.47564799 1.1059999 4284702809
0.223481 0.47523001 1.105 4285623911
0.226676 0.47567201 1.1059999 4285690219
0.229461 0.47525501 1.105 4285163875
0.232032 0.474408 1.103 4285887083
0.234805 0.47399199 1.102 4285097567
0.237572 0.47357601 1.101 4285163613
0.240991 0.47445101 1.103 4285032028
0.24419899 0.47489601 1.104 4284308821
0.24741299 0.47534201 1.105 4285032289
0.25018001 0.47492799 1.104 4285887598
0.2534 0.475375 1.105 4285625456
0.25569901 0.47410199 1.102 4286217847
0.25868499 0.47411901 1.102 4286020982
0.26119801 0.473277 1.1 4286481019
0.26466 0.47415599 1.102 4286743421
0.26764899 0.47417501 1.102 4286809214
0.270392 0.47376499 1.101 4285624942
0.27288201 0.47292399 1.099 4287664011
0.27561301 0.47251499 1.098 4287138181
0.278339 0.47210601 1.097 4286611837
0.28106001 0.47169799 1.096 4287071874
0.283777 0.47128999 1.095 4287466377
0.28622699 0.47045201 1.0930001 4287730063
0.28893101 0.47004601 1.092 4288387993
0.29163101 0.46963999 1.091 4287928212
0.294595 0.46966499 1.091 4287730833
0.29701501 0.46882999 1.089 4288652449
0.29970101 0.46842599 1.0880001 4287862419
0.30182499 0.467161 1.085 4288191898
0.30449599 0.46675801 1.084 4288388763
0.30716199 0.46635601 1.0829999 4288191384
0.31011 0.46638501 1.0829999 4289046693
0.31277001 0.46598399 1.082 4288059798
0.31542501 0.46558401 1.081 4288520095
0.318075 0.46518499 1.08 4289441197
0.32042399 0.46435499 1.0779999 4288981160
0.32306299 0.46395701 1.077 4288784551
0.325394 0.46312901 1.075 4289179055
0.328022 0.462733 1.074 4290823881
0.33064401 0.46233699 1.073 4290363587
0.33326301 0.46194199 1.072 4289771193
0.335877 0.461548 1.071 4290034364
0.33816999 0.46072301 1.069 4289310895
0.33949599 0.45860699 1.064 4289968825
0.34079599 0.45649099 1.059 4289244848
0.34239399 0.454806 1.0549999 4290034622
0.34462699 0.45398501 1.053 4290758861
0.34585899 0.45186999 1.048 4290693068
0.347065 0.449756 1.043 4290824654
0.34858099 0.44807401 1.039 4290561479
0.35041401 0.44682401 1.036 4289640377
0.35189199 0.445144 1.0319999 4289442481
0.354036 0.44432601 1.03 4288389793
0.35547701 0.44264701 1.026 4288455583
0.35794601 0.44226301 1.025 4287994519
0.36041 0.441879 1.024 4288323230
0.363226 0.44192901 1.024 4287994267
0.36604199 0.44197899 1.024 4286743180
0.369941 0.44332501 1.027 4285690237
0.37458399 0.44553599 1.0319999 4284046939
0.37962201 0.448181 1.038 4284310364
0.386168 0.452555 1.048 4284178778
0.397598 0.46254501 1.071 4283915605
0.41551399 0.479882 1.1109999 4283784019
0.42913201 0.49204099 1.1390001 4283652433
0.436075 0.496427 1.149 4282797378
0.440781 0.49822399 1.153 4282204726
0.44435701 0.49872601 1.154 4282204212
0.44832799 0.499661 1.156 4281940524
0.45153099 0.49973401 1.156 4282269743
0.45513001 0.50024003 1.1569999 4282796086
0.45833999 0.50031602 1.1569999 4282336039
0.46115401 0.49996001 1.156 4281744670
0.463965 0.49960601 1.155 4282731061
0.46758199 0.50011897 1.156 4282336050
0.47120601 0.500633 1.1569999 4281217829
0.474839 0.501149 1.158 4281612841
0.47806701 0.50123399 1.158 4282138671
0.48088199 0.50088698 1.1569999 4282336049
0.48369399 0.50054199 1.156 4281941291
0.48650301 0.50019902 1.155 4282663986
0.48930901 0.49985701 1.154 4282598193
0.49254 0.49994999 1.154 4282006571
0.49577299 0.500045 1.154 4282269743
0.498577 0.499708 1.153 4282533689
-0.19696601 0.45762101 1.071 4287797403
-0.19407 0.45761201 1.071 4287402130
-0.19135299 0.458031 1.072 4287270544
-0.188807 0.458877 1.074 4287007370
-0.18573099 0.458442 1.073 4286809991
-0.182831 0.45843399 1.073 4287072910
-0.179931 0.45842701 1.073 4287402645
-0.17719699 0.45884699 1.074 4287533977
-0.174132 0.458413 1.073 4288586665
-0.171233 0.45840701 1.073 4288520873
-0.16833401 0.45840001 1.073 4288060321
-0.165435 0.45839399 1.073 4288322977
-0.162385 0.45796099 1.072 4288980907
-0.15948901 0.45795599 1.072 4288585635
-0.15659299 0.45795 1.072 4288914600
-0.15355401 0.45751801 1.071 4288651942
-0.15038 0.45665899 1.069 4290165181
-0.14735501 0.456227 1.068 4288454563
-0.144471 0.456222 1.068 4288717735
-0.14158601 0.456218 1.068 4288651428
-0.138832 0.45664099 1.069 4288585890
-0.13594501 0.456637 1.069 4288190618
-0.133183 0.45706001 1.0700001 4288322204
-0.13005 0.456202 1.068 4288059032
-0.127286 0.456626 1.069 4288125339
-0.124399 0.45662299 1.069 4287730840
-0.121513 0.45662001 1.069 4288586149
-0.118516 0.45618901 1.068 4289178288
-0.115632 0.45618701 1.068 4288783530
-0.112749 0.456184 1.068 4288651944
-0.109865 0.45618099 1.068 4289177772
-0.106882 0.45575199 1.067 4288125084
-0.104001 0.45574901 1.067 4288717221
-0.100931 0.45489299 1.0650001 4289178286
-0.098056503 0.454891 1.0650001 4289046700
-0.095092103 0.45446199 1.064 4290033595
-0.092133202 0.45403299 1.063 4289441458
-0.089347802 0.454458 1.064 4290033595
-0.086313099 0.45360199 1.062 4289968318
-0.083289303 0.452746 1.0599999 4290955213
-0.080352098 0.45231801 1.059 4291021011
-0.077420399 0.45188901 1.058 4291087320
-0.074423701 0.45103401 1.056 4292073961
-0.071505599 0.45060501 1.0549999 4291218906
-0.068657897 0.45060399 1.0549999 4290823378
-0.0658103 0.45060301 1.0549999 4290231241
-0.062903002 0.45017499 1.054 4290757839
-0.059944201 0.44931999 1.052 4291153111
-0.0569962 0.44846401 1.05 4291943141
-0.054110602 0.44803599 1.049 4291679969
-0.051230401 0.44760901 1.048 4290955732
-0.048401799 0.44760799 1.048 4291678940
-0.045529701 0.44718 1.0470001 4291547097
-0.0427039 0.44717899 1.0470001 4291415512
-0.039801799 0.446325 1.045 4291283925
-0.036839802 0.44461599 1.041 4291613144
-0.033964802 0.44376099 1.039 4291612890
-0.031070599 0.44247901 1.036 4290757835
-0.028274501 0.44247901 1.036 4291021007
-0.0254537 0.44205201 1.035 4290165184
-0.0226165 0.44119701 1.033 4290099390
-0.0197901 0.44034201 1.031 4289178802
-0.016991001 0.439915 1.03 4289178802
-0.0141973 0.43948799 1.029 4288717737
-0.0113979 0.43863299 1.027 4289572532
-0.0086177001 0.43820599 1.026 4288388258
-0.0058428999 0.43777901 1.025 4287467156
-0.00307649 0.43777901 1.025 4287532947
-0.000310089 0.43777901 1.025 4286415750
0.00245632 0.43777901 1.025 4286283910
0.0052176202 0.437352 1.024 4286876304
0.0079735396 0.43692499 1.023 4287073683
0.0107345 0.43692499 1.023 4286612875
0.0134956 0.43692499 1.023 4286151810
0.016256601 0.43692499 1.023 4285690484
0.0190176 0.43692601 1.023 4284966761
0.021757299 0.436499 1.022 4285493105
0.024491699 0.43607199 1.021 4286085240
0.0272473 0.43607199 1.021 4285690996
0.030091099 0.437354 1.024 4285362033
0.032919001 0.438209 1.026 4285756277
0.035723001 0.438636 1.027 4286150265
0.038532302 0.439064 1.028 4285952887
0.041306902 0.439064 1.028 4285622893
0.044124398 0.43949199 1.029 4285425512
0.046992801 0.44034699 1.031 4284833629
0.049920399 0.44162899 1.034 4285162593
0.052864101 0.442911 1.0369999 4284834396
0.055770401 0.443766 1.039 4285031775
0.058687501 0.444621 1.041 4284965982
0.061792701 0.446758 1.046 4284374359
0.064924799 0.44889399 1.051 4284505431
0.068084002 0.451031 1.056 4283781708
0.071203001 0.452741 1.0599999 4285229154
0.074273802 0.454023 1.063 4284439637
0.077288203 0.45487899 1.0650001 4285097568
0.080238201 0.45530701 1.066 4284242258
0.0832716 0.45616299 1.068 4284044879
0.086396404 0.45744601 1.071 4284505430
0.089454196 0.45830199 1.073 4284571223
0.0925228 0.459158 1.075 4284373844
0.095691003 0.46044099 1.0779999 4284242258
0.098783903 0.46129701 1.08 4284637270
0.101794 0.46172601 1.081 4284176205
0.104712 0.46172899 1.081 4284241998
0.107829 0.462585 1.0829999 4284307791
0.110855 0.46301499 1.084 4284241998
0.113887 0.46344501 1.085 4284176204
0.116924 0.463875 1.086 4284110411
0.120076 0.46473199 1.0880001 4284307790
0.123353 0.46601599 1.091 4284505169
0.12653001 0.466874 1.0930001 4284308044
0.129482 0.46687701 1.0930001 4284111179
0.132433 0.46687999 1.0930001 4284111179
0.135508 0.46731099 1.094 4284702802
0.13858899 0.467742 1.095 4284373837
0.141546 0.46774599 1.095 4284570962
0.144503 0.46775001 1.095 4284374097
0.147595 0.468182 1.096 4284505684
0.150829 0.46904099 1.098 4284439637
0.153935 0.469473 1.099 4284703324
0.15704601 0.46990499 1.1 4284374359
0.160163 0.47033799 1.101 4284308566
0.163285 0.47077 1.102 4284373845
0.16611101 0.47034901 1.101 4284439637
0.169085 0.470355 1.101 4284899928
0.172372 0.47121501 1.103 4284176204
0.175512 0.47164899 1.104 4283847239
0.17849401 0.47165599 1.104 4284439376
0.181642 0.47209001 1.105 4284768341
0.18462799 0.47209701 1.105 4284045132
0.18761399 0.472105 1.105 4285098074
0.190773 0.47253999 1.1059999 4285031767
0.193938 0.47297499 1.107 4284834388
0.197108 0.47341099 1.108 4284045125
0.199742 0.472565 1.1059999 4284571469
0.202732 0.472574 1.1059999 4285098074
0.20553701 0.47215599 1.105 4284506451
0.208713 0.47259301 1.1059999 4283914063
0.211513 0.47217599 1.105 4284374614
0.21469501 0.47261399 1.1059999 4285427302
0.21749 0.472197 1.105 4285229668
0.220479 0.47220799 1.105 4284571738
0.22326601 0.471793 1.104 4285623911
0.226458 0.47223201 1.105 4285624426
0.229241 0.47181699 1.104 4284965982
0.23201799 0.47140199 1.103 4285952876
0.23500399 0.471416 1.103 4285426786
0.23799001 0.47142899 1.103 4285098074
0.24119399 0.47187099 1.104 4284900181
0.243963 0.47145799 1.103 4284768855
0.24695 0.47147301 1.103 4285427300
0.249937 0.471488 1.103 4285427561
0.25315401 0.47193199 1.104 4285624940
0.25568199 0.471093 1.102 4286086007
0.25819799 0.47025499 1.1 4286809730
0.26118001 0.470272 1.1 4286677630
0.264402 0.470718 1.101 4286085238
0.267387 0.470736 1.101 4286874754
0.270372 0.47075501 1.101 4285690480
0.27286199 0.46992001 1.099 4287532170
0.275592 0.46951199 1.098 4287269767
0.27831799 0.46910501 1.097 4286480251
0.28103799 0.46869901 1.096 4287072388
0.284013 0.468721 1.096 4287401353
0.28620401 0.46746001 1.0930001 4287598477
0.288643 0.46662799 1.091 4288387993
0.29160601 0.46665201 1.091 4288191384
0.29457 0.466676 1.091 4287467407
0.29699001 0.46584499 1.089 4288717728
0.29995 0.46587101 1.089 4287730833
0.302077 0.464614 1.086 4288059798
0.30502999 0.464641 1.086 4288586142
0.307134 0.46338499 1.0829999 4288520349
0.31008101 0.463413 1.0829999 4289178025
0.31302899 0.463442 1.0829999 4288059544
0.31568599 0.46304399 1.082 4288520097
0.31833899 0.46264601 1.081 4289309613
0.32039201 0.461393 1.0779999 4289046953
0.32212999 0.45971301 1.074 4289047469
0.324756 0.459317 1.073 4289376434
0.32737699 0.45892301 1.072 4290823881
0.33030099 0.45895699 1.072 4290232001
0.33291599 0.45856401 1.071 4289836986
0.33552599 0.45817101 1.0700001 4289968572
0.337816 0.457351 1.068 4289244334
0.33945799 0.45567599 1.064 4289968055
0.341079 0.45400101 1.0599999 4289573813
0.34300399 0.45275399 1.057 4290231743
0.34524101 0.45193699 1.0549999 4290823884
0.34614801 0.44940701 1.049 4290560712
0.34702301 0.44687799 1.043 4290626505
0.34853801 0.44520599 1.039 4290035136
0.350371 0.44396299 1.036 4289574584
0.35218799 0.44272101 1.033 4290692548
0.35398999 0.44148001 1.03 4290363581
0.35543099 0.43981001 1.026 4289771443
0.35755 0.438999 1.024 4288323484
0.36001 0.43861699 1.023 4288652449
0.36246699 0.438236 1.022 4288783781
0.36527699 0.43828499 1.022 4287402128
0.36952999 0.44005099 1.026 4286481026
0.374531 0.44267601 1.0319999 4284573283
0.37956801 0.44530299 1.038 4284704868
0.38574401 0.44921899 1.0470001 4284178778
0.39716801 0.459144 1.0700001 4283323469
0.41507801 0.47636899 1.11 4283191369
0.42868999 0.48844799 1.138 4283191369
0.43600801 0.49323499 1.149 4283125575
0.44033101 0.494589 1.152 4282006578
0.444287 0.495516 1.154 4282006833
0.44748101 0.49558601 1.154 4282137903
0.45106801 0.496086 1.155 4282598708
0.45426899 0.49615899 1.155 4282532408
0.45747301 0.49623299 1.155 4282664501
0.46028 0.49587801 1.154 4281809705
0.463485 0.49595499 1.154 4282664508
0.46709701 0.496463 1.155 4282335796
0.47112399 0.497403 1.1569999 4281414694
0.47516501 0.498344 1.159 4281743659
0.47756901 0.49756801 1.1569999 4282204210
0.48038 0.49722201 1.156 4282335796
0.48276901 0.49644801 1.154 4282401329
0.486413 0.49696699 1.155 4282663986
0.48964199 0.49705601 1.155 4282400814
0.49287301 0.49714699 1.155 4282071849
0.49567801 0.49680999 1.154 4282335535
0.49804801 0.496043 1.152 4282599222
-0.19714101 0.455134 1.072 4287072910
-0.19406199 0.45470101 1.071 4287072396
-0.19134501 0.45511699 1.072 4287138189
-0.18862399 0.45553401 1.073 4286546052
-0.18572401 0.45552701 1.073 4286677638
-0.182824 0.45551899 1.073 4287006605
-0.179757 0.45508799 1.072 4287533463
-0.17702501 0.455506 1.073 4287599770
-0.173801 0.45465001 1.071 4288520872
-0.171067 0.45506901 1.072 4288389286
-0.168328 0.45548701 1.073 4287797149
-0.165738 0.45633101 1.075 4287796635
-0.162531 0.45547599 1.073 4288783014
-0.159633 0.45547101 1.073 4288716707
-0.156588 0.455042 1.072 4288914088
-0.15355 0.45461199 1.071 4288914088
-0.150516 0.45418301 1.0700001 4290822083
-0.147351 0.45333001 1.068 4288256411
-0.144466 0.45332599 1.068 4289177513
-0.141582 0.45332199 1.068 4288190616
-0.13895801 0.45416701 1.0700001 4288519581
-0.136196 0.454588 1.071 4288321688
-0.13318001 0.45416 1.0700001 4288453021
-0.13004699 0.45330799 1.068 4287663505
-0.12716299 0.45330501 1.068 4288190618
-0.12428 0.453302 1.068 4287664788
-0.121396 0.45329899 1.068 4288783269
-0.118624 0.45372099 1.069 4289243820
-0.115846 0.454142 1.0700001 4288783783
-0.112852 0.45371601 1.069 4288980393
-0.10976 0.45286399 1.067 4289045927
-0.10688 0.45286199 1.067 4288322204
-0.103902 0.452436 1.066 4288716707
-0.100929 0.45200899 1.0650001 4289374637
-0.097962499 0.451583 1.064 4289374637
-0.0950009 0.451157 1.063 4290295739
-0.092044897 0.45073101 1.062 4289506737
-0.089262202 0.45115399 1.063 4290230460
-0.086311601 0.450728 1.062 4290165697
-0.083366401 0.450302 1.061 4290889421
-0.080426604 0.44987601 1.0599999 4291021011
-0.077492297 0.449451 1.059 4291087320
-0.074563399 0.44902501 1.058 4292073961
-0.07164 0.44859999 1.057 4291087066
-0.068721898 0.448174 1.056 4290758355
-0.065809302 0.44774899 1.0549999 4290231241
-0.0629021 0.44732299 1.054 4290626769
-0.0599433 0.44647399 1.052 4290758355
-0.056941099 0.4452 1.049 4291745250
-0.054058298 0.44477499 1.048 4291350492
-0.051180799 0.44435 1.0470001 4290692560
-0.048354998 0.44434899 1.0470001 4291218390
-0.045529101 0.44434899 1.0470001 4291086550
-0.042621698 0.443499 1.045 4290889171
-0.0398013 0.443499 1.045 4290692045
-0.0368747 0.44222501 1.0420001 4291020753
-0.0340298 0.4418 1.041 4291349718
-0.0311302 0.44052699 1.038 4290692042
-0.028301399 0.44010201 1.0369999 4290757835
-0.025478 0.439677 1.036 4290428870
-0.0226382 0.43882799 1.034 4290165697
-0.019789901 0.43755499 1.031 4289507767
-0.016990799 0.43713 1.03 4289770940
-0.0141972 0.43670601 1.029 4289836732
-0.0114089 0.436281 1.028 4291217872
-0.0086260103 0.435857 1.027 4290230462
-0.0058428301 0.43500799 1.025 4289177774
-0.00307646 0.43500799 1.025 4288848807
-0.000310086 0.43500799 1.025 4288454563
0.00245868 0.43543199 1.026 4288389540
0.00522266 0.43500799 1.025 4288456106
0.0079734502 0.43415901 1.023 4288719278
0.0107344 0.43415901 1.023 4289244595
0.0134954 0.43415901 1.023 4287928735
0.016256399 0.43415901 1.023 4286809224
0.0189988 0.43373501 1.022 4286216828
0.0217571 0.43373501 1.022 4286282619
0.0244914 0.43331099 1.021 4286611584
0.027247 0.433312 1.021 4285822068
0.030032 0.433736 1.022 4285296240
0.032854501 0.43458501 1.024 4285558898
0.0356878 0.435435 1.026 4285229163
0.038456898 0.435435 1.026 4284242268
0.041306399 0.43628401 1.028 4283846996
0.044080898 0.43628499 1.028 4284175445
0.046992201 0.43755901 1.031 4284241492
0.049919698 0.43883201 1.034 4284636249
0.0528634 0.440106 1.0369999 4284833628
0.0557696 0.440956 1.039 4285097054
0.0586867 0.44180501 1.041 4284768603
0.061732698 0.44350401 1.045 4284702810
0.064923897 0.446051 1.051 4284505431
0.067953996 0.44732499 1.054 4283715915
0.071067601 0.44902399 1.058 4285294947
0.074063003 0.44987401 1.0599999 4284637017
0.077214397 0.451572 1.064 4284637017
0.0802368 0.45242199 1.066 4283781961
0.083270103 0.453273 1.068 4284110926
0.086233601 0.45369801 1.069 4284505430
0.0893692 0.45497301 1.072 4284439637
0.092521101 0.45624799 1.075 4284373844
0.095600396 0.45709801 1.077 4284308051
0.098690502 0.45794901 1.079 4284242258
0.101697 0.45837501 1.08 4284044365
0.104613 0.458377 1.08 4284241744
0.107727 0.45922801 1.082 4284373584
0.110853 0.46007901 1.084 4284044619
0.113989 0.46092999 1.086 4284110411
0.117029 0.461357 1.087 4284176204
0.120074 0.46178401 1.0880001 4284176204
0.123124 0.46221101 1.089 4284570962
0.126064 0.46221399 1.089 4284570962
0.129241 0.46306601 1.091 4284374097
0.13218699 0.46306899 1.091 4283979593
0.13525701 0.46349701 1.092 4284439630
0.138458 0.464349 1.094 4284900181
0.141542 0.46477801 1.095 4284374097
0.144499 0.46478099 1.095 4284374097
0.14745601 0.46478501 1.095 4284439637
0.15068799 0.465639 1.097 4284571993
0.15379 0.46606699 1.098 4284966496
0.15689801 0.466497 1.099 4284505945
0.159867 0.466501 1.099 4284374359
0.162983 0.46693099 1.1 4284637017
0.16595501 0.46693599 1.1 4285031775
0.168926 0.46694201 1.1 4285097053
0.17220999 0.467796 1.102 4284175951
0.17518701 0.46780199 1.102 4283715653
0.178165 0.46780899 1.102 4284768341
0.181142 0.46781501 1.102 4284834648
0.184287 0.468247 1.103 4284374097
0.187437 0.468678 1.104 4284769109
0.190593 0.46911001 1.105 4285031767
0.193579 0.469118 1.105 4284900181
0.19674399 0.46955001 1.1059999 4283781953
0.199734 0.469558 1.1059999 4283979332
0.202723 0.469567 1.1059999 4284966486
0.20552699 0.46915099 1.105 4284966488
0.208326 0.46873599 1.104 4283848270
0.21111999 0.468321 1.103 4284440407
0.214297 0.46875501 1.104 4285493095
0.21747901 0.46919 1.105 4285229668
0.220468 0.469201 1.105 4284703324
0.22325499 0.46878701 1.104 4285492840
0.22624201 0.468799 1.104 4285426533
0.229229 0.46880999 1.104 4284965982
0.232216 0.46882299 1.104 4285887083
0.234991 0.46840999 1.103 4284900442
0.23819201 0.46884799 1.104 4285097306
0.24118 0.468862 1.104 4285229146
0.243948 0.46845099 1.103 4284571476
0.246935 0.468465 1.103 4285163614
0.24992201 0.46847999 1.103 4285756012
0.25336799 0.469345 1.105 4285822319
0.25589699 0.46851099 1.103 4285888628
0.25865099 0.46810201 1.102 4286283387
0.26116201 0.46726999 1.1 4286217594
0.264624 0.468137 1.102 4285756275
0.26712501 0.467305 1.1 4287269514
0.27010801 0.46732301 1.1 4286151033
0.272594 0.466492 1.098 4287730065
0.27532101 0.46608701 1.097 4287335305
0.278043 0.465682 1.096 4286743168
0.280761 0.46527699 1.095 4287138181
0.28373301 0.465298 1.095 4287401353
0.286181 0.46447 1.0930001 4287730063
0.28862 0.46364301 1.091 4288256923
0.29131499 0.46324 1.09 4288322716
0.294276 0.46326399 1.09 4287598993
0.29669201 0.46243799 1.0880001 4288520095
0.29937401 0.46203801 1.087 4287665554
0.301772 0.46121299 1.085 4288389277
0.30416101 0.46038899 1.0829999 4288586656
0.306539 0.45956501 1.081 4288191898
0.309194 0.459167 1.08 4288981162
0.31242201 0.45962 1.081 4287928219
0.31507301 0.45922399 1.08 4288388770
0.318014 0.45925301 1.08 4289507251
0.32006401 0.45800799 1.077 4289046955
0.32179901 0.45633799 1.073 4288981676
0.32411799 0.45551899 1.071 4288981676
0.32703799 0.455551 1.071 4290889673
0.33026701 0.456009 1.072 4290363329
0.33319199 0.45604399 1.072 4289639607
0.335491 0.45522699 1.0700001 4289836985
0.33777899 0.45441201 1.068 4289441711
0.339102 0.45232099 1.063 4289836469
0.341041 0.45108101 1.0599999 4289376434
0.34296501 0.44984299 1.057 4290034365
0.34487399 0.44860399 1.054 4290099904
0.34577799 0.44609001 1.048 4290363333
0.34665 0.44357601 1.0420001 4290758091
0.347826 0.441488 1.0369999 4290429894
0.350328 0.44110399 1.036 4290035136
0.35248601 0.44029501 1.034 4290824137
0.353946 0.43863499 1.03 4290363583
0.35538599 0.43697599 1.026 4289705651
0.35750401 0.436169 1.024 4288258205
0.359963 0.43578899 1.023 4288192412
0.36277401 0.435835 1.023 4288981928
0.365228 0.43545699 1.022 4287928212
0.36911899 0.43678501 1.025 4286217593
0.37375399 0.43896601 1.03 4284572768
0.37878299 0.44157499 1.036 4285494124
0.38532099 0.44589001 1.046 4284901987
0.39636901 0.45532399 1.068 4284244057
0.41352201 0.47158399 1.1059999 4284112471
0.427874 0.48443699 1.136 4283191369
0.43556401 0.489618 1.148 4282401853
0.44026399 0.49138999 1.152 4282467129
0.44421899 0.492309 1.154 4281875499
0.44780001 0.49280399 1.155 4281875498
0.451388 0.49329999 1.156 4281941291
0.45458999 0.49337101 1.156 4282467121
0.45779499 0.493444 1.156 4282335536
0.460603 0.49309099 1.155 4281612327
