# .PCD v0.7 - Point Cloud Data file format
VERSION 0.7
FIELDS x y z rgb
SIZE 4 4 4 4
TYPE F F F U
COUNT 1 1 1 1
WIDTH 1135
HEIGHT 1
VIEWPOINT 0 0 0 1 0 0 0
POINTS 1135
DATA ascii
0.28747699 0.15762299 0.75599998 4287597947
0.28952301 0.157626 0.75599998 4287795071
0.29234001 0.15804601 0.75800002 4287795071
0.29477999 0.15825699 0.759 4287860866
0.297227 0.15847 0.75999999 4287729278
0.29928601 0.158473 0.75999999 4287663485
0.30174199 0.158686 0.76099998 4287466361
0.303406 0.158482 0.75999999 4287532154
0.30586901 0.158696 0.76099998 4287663740
0.308339 0.15891001 0.76200002 4287992705
0.31 0.15870699 0.76099998 4287729533
0.31124601 0.158296 0.759 4287202676
0.313308 0.15830299 0.759 4287597947
0.31537101 0.158309 0.759 4287597947
0.317853 0.158525 0.75999999 4287861119
0.31949899 0.158324 0.759 4287926657
0.321565 0.15833201 0.759 4287927171
0.323632 0.15834101 0.759 4287992450
0.32655799 0.158767 0.76099998 4287664254
0.328201 0.158567 0.75999999 4287861633
0.32896999 0.157951 0.75700003 4287795840
0.33103499 0.157961 0.75700003 4287664254
0.33266199 0.157763 0.75599998 4287927426
0.33561301 0.158191 0.75800002 4287927171
0.33724001 0.157994 0.75700003 4287664254
0.33975899 0.158214 0.75800002 4287861633
0.34183401 0.158227 0.75800002 4287598975
0.343456 0.158031 0.75700003 4287467389
0.34553099 0.158044 0.75700003 4287663999
0.34760699 0.158057 0.75700003 4287400829
0.350146 0.15828 0.75800002 4287335804
0.35222799 0.15829501 0.75800002 4286875253
0.35384399 0.15810201 0.75700003 4286809459
0.35545501 0.15790799 0.75599998 4286677873
0.357063 0.15771601 0.755 4287072631
0.35914299 0.15773199 0.755 4286941045
0.36218101 0.158168 0.75700003 4286217836
0.36523199 0.158603 0.759 4286349422
0.36732799 0.158622 0.759 4286020204
0.369912 0.15885 0.75999999 4285822311
0.37201399 0.158869 0.75999999 4284835670
0.375103 0.159307 0.76200002 4284571728
0.37572899 0.158701 0.759 4283979340
0.37683901 0.15830401 0.75700003 4284045125
0.37843999 0.158117 0.75599998 4284769362
0.381547 0.158557 0.75800002 4285296220
0.383656 0.158581 0.75800002 4286216806
0.38525701 0.15839501 0.75700003 4286940531
0.38736701 0.158419 0.75700003 4286481252
0.38896501 0.158235 0.75599998 4286808953
0.39055899 0.158051 0.755 4282663490
0.39215001 0.157868 0.75400001 4288191626
0.39478299 0.158104 0.755 4287664766
0.39689901 0.158131 0.755 4287730559
0.39901701 0.15816 0.755 4287335801
0.40060601 0.157979 0.75400001 4287664252
0.40272599 0.15800799 0.75400001 4287730045
0.405386 0.15824801 0.755 4287466875
0.40697399 0.15807 0.75400001 4287730300
0.40856001 0.157892 0.75300002 4287861886
0.40959701 0.15750401 0.75099999 4287993219
0.41227099 0.157747 0.75199997 4287730047
0.41495299 0.15799101 0.75300002 4287730047
0.41708899 0.158025 0.75300002 4287861119
0.41978499 0.158271 0.75400001 4287466359
0.42249 0.158517 0.755 4287268980
0.42464101 0.158554 0.755 4287597688
0.42679599 0.158592 0.755 4287795326
0.42895299 0.15863 0.755 4287861119
0.43111399 0.15866999 0.755 4287663740
0.432704 0.1585 0.75400001 4287992703
0.43486899 0.15854099 0.75400001 4288190082
0.437617 0.158793 0.755 4287796093
0.44037399 0.15904699 0.75599998 4287861631
0.44372499 0.159511 0.75800002 4287861886
0.44532701 0.159346 0.75700003 4287861370
0.448109 0.159602 0.75800002 4287927163
0.44971299 0.159438 0.75700003 4287663991
0.45250899 0.159696 0.75800002 4287532405
0.454714 0.15974499 0.75800002 4287401335
0.45752701 0.160005 0.759 4287663993
0.45974299 0.16005599 0.759 4287729531
0.461355 0.159896 0.75800002 4287663738
0.462966 0.159738 0.75700003 4287532668
0.46518901 0.15979099 0.75700003 4287532929
0.468034 0.16005699 0.75800002 4287598722
0.47150999 0.16053499 0.75999999 4287598976
0.47375599 0.16059101 0.75999999 4287466875
0.476632 0.160861 0.76099998 4287861117
0.48077801 0.16155399 0.764 4287466359
0.48304901 0.161614 0.764 4287137394
0.48405501 0.16125201 0.76200002 4287400568
0.48441601 0.16068 0.759 4287400568
0.48796999 0.161167 0.76099998 4287334775
0.488965 0.160807 0.759 4287334775
0.491247 0.160873 0.759 4287466361
0.49288401 0.16072799 0.75800002 4287334775
0.49582699 0.161008 0.759 4287137394
0.498781 0.16128901 0.75999999 4287203183
-0.19927 0.154864 0.75199997 4289506727
-0.197246 0.15486901 0.75199997 4289111969
-0.195742 0.155287 0.75400001 4289572520
-0.193712 0.155293 0.75400001 4289243555
-0.19168299 0.15529899 0.75400001 4289966764
-0.189403 0.1551 0.75300002 4289111710
-0.18737601 0.15510599 0.75300002 4289309087
-0.185103 0.154906 0.75199997 4289374366
-0.183322 0.155118 0.75300002 4289505951
-0.18129601 0.15512501 0.75300002 4289374366
-0.179507 0.15533701 0.75400001 4288980124
-0.17700601 0.15493201 0.75199997 4290033326
-0.17521399 0.15514401 0.75300002 4289178017
-0.173187 0.15515099 0.75300002 4288980638
-0.17161401 0.15557 0.755 4289506980
-0.169356 0.15537 0.75400001 4289374882
-0.167548 0.15558299 0.755 4289374882
-0.16573399 0.15579601 0.75599998 4289505952
-0.163698 0.15580299 0.75599998 4289505438
-0.16123401 0.155397 0.75400001 4289505437
-0.15899099 0.15519799 0.75300002 4288255365
-0.15696301 0.155205 0.75300002 4288321157
-0.15514 0.15541799 0.75400001 4288386437
-0.153311 0.15563101 0.755 4288846987
-0.151076 0.155431 0.75400001 4288453001
-0.14904501 0.15543801 0.75400001 4288518794
-0.146817 0.155239 0.75300002 4288979347
-0.144788 0.155246 0.75300002 4288716175
-0.142758 0.15525199 0.75300002 4289176726
-0.14091501 0.15546501 0.75400001 4289110674
-0.138882 0.155472 0.75400001 4288979345
-0.136667 0.15527301 0.75300002 4288913294
-0.134637 0.155279 0.75300002 4288124291
-0.13295799 0.155698 0.755 4288519049
-0.13109501 0.155911 0.75599998 4288913552
-0.128885 0.15571199 0.755 4288913554
-0.12651201 0.155306 0.75300002 4288386956
-0.124481 0.155312 0.75300002 4288584589
-0.122612 0.155525 0.75400001 4288584332
-0.120577 0.155531 0.75400001 4288584330
-0.118385 0.155332 0.75300002 4288189572
-0.116352 0.155338 0.75300002 4288452743
-0.114471 0.155551 0.75400001 4288386951
-0.112287 0.15535 0.75300002 4287729278
-0.110254 0.155357 0.75300002 4288979347
-0.10822 0.15536299 0.75300002 4289110680
-0.106046 0.15516201 0.75199997 4289505438
-0.104015 0.155168 0.75199997 4289308319
-0.101984 0.155174 0.75199997 4289439906
-0.100218 0.15559299 0.75400001 4289177501
-0.098051101 0.15539201 0.75300002 4289045915
-0.096016601 0.155398 0.75300002 4288914329
-0.093982004 0.155403 0.75300002 4289242780
-0.091825001 0.155202 0.75199997 4289242780
-0.089673199 0.155001 0.75099999 4289308573
-0.087410003 0.154594 0.74900001 4289374882
-0.085499398 0.154806 0.75 4289177248
-0.083471797 0.15481099 0.75 4289177762
-0.0814441 0.154816 0.75 4288980638
-0.079310402 0.154614 0.74900001 4288980636
-0.077284999 0.15461899 0.74900001 4289112477
-0.074957997 0.15400399 0.74599999 4288848791
-0.072353803 0.15277 0.74000001 4289111963
-0.069876902 0.15174299 0.73500001 4289111708
-0.067519203 0.150921 0.73100001 4289374366
-0.065452099 0.150719 0.73000002 4288914329
-0.063477099 0.150723 0.73000002 4288980124
-0.061838999 0.151553 0.73400003 4289045917
-0.059934501 0.15176301 0.73500001 4289045662
-0.0581032 0.15218 0.73699999 4288783004
-0.056184798 0.15239 0.73799998 4289177762
-0.0541141 0.152187 0.73699999 4289046176
-0.052190099 0.15239701 0.73799998 4289046176
-0.050192501 0.1524 0.73799998 4288783774
-0.04826 0.15261 0.73900002 4289046692
-0.046134301 0.1522 0.73699999 4288783520
-0.044079199 0.151997 0.736 4288717727
-0.042086501 0.152 0.736 4288981153
-0.040148199 0.152209 0.73699999 4288980383
-0.038049102 0.15179799 0.73500001 4288849052
-0.036107901 0.152007 0.736 4288914845
-0.034114901 0.15200999 0.736 4289243555
-0.032209001 0.15242501 0.73799998 4288915360
-0.030169399 0.15222099 0.73699999 4288717727
-0.0281734 0.15222199 0.73699999 4288915106
-0.0261418 0.152018 0.736 4288915360
-0.0241812 0.152226 0.73699999 4288717981
-0.022184899 0.152228 0.73699999 4288849567
-0.0202161 0.152436 0.73799998 4288980638
-0.018192301 0.15222999 0.73699999 4288980638
-0.016195999 0.15223099 0.73699999 4289111969
-0.0141803 0.152026 0.736 4289177762
-0.0121699 0.15182 0.73500001 4288914590
-0.0101789 0.151821 0.73500001 4288848797
-0.0081877699 0.151822 0.73500001 4289111969
-0.00619664 0.151822 0.73500001 4289046176
-0.0042112302 0.15202899 0.736 4288651418
-0.00221435 0.151823 0.73500001 4288848797
-0.000222888 0.15161601 0.73400003 4288717211
0.00176556 0.15161601 0.73400003 4288585625
0.00375401 0.15161601 0.73400003 4288651418
0.00574244 0.15161601 0.73400003 4288848797
0.0077308598 0.15161499 0.73400003 4288519832
0.00971926 0.15161499 0.73400003 4288914076
0.0117076 0.151614 0.73400003 4288848283
0.013696 0.151613 0.73400003 4288979869
0.0156416 0.151199 0.73199999 4288716697
0.0176003 0.15099099 0.73100001 4288848283
0.0195536 0.150783 0.73000002 4288782490
0.021560499 0.150989 0.73100001 4288716697
0.0235404 0.150987 0.73100001 4288453525
0.025520399 0.150985 0.73100001 4288584597
0.0275378 0.15119 0.73199999 4288650643
0.029479999 0.15098201 0.73100001 4288848022
0.0314597 0.15098 0.73100001 4288782229
0.0334851 0.15118399 0.73199999 4288913815
0.0355158 0.151388 0.73299998 4288716436
0.037449501 0.151179 0.73199999 4288651159
0.039431501 0.151177 0.73199999 4288256401
0.041526601 0.15158699 0.73400003 4288585366
0.043454599 0.15137801 0.73299998 4288255631
0.045501001 0.151581 0.73400003 4288059022
0.047358699 0.15116499 0.73199999 4288124045
0.0493402 0.151162 0.73199999 4288189838
0.051111199 0.150539 0.72899997 4287926666
0.0530844 0.150536 0.72899997 4287663494
0.055132899 0.150739 0.73000002 4287466115
0.057108499 0.15073501 0.73000002 4287400323
0.059083901 0.150732 0.73000002 4287400323
0.061059199 0.150728 0.73000002 4287531908
0.063034303 0.15072399 0.73000002 4287597187
0.065187402 0.151133 0.73199999 4287597441
0.067167699 0.15112901 0.73199999 4287465854
0.069147803 0.151124 0.73199999 4287729026
0.070933402 0.15070701 0.73000002 4287531647
0.072807901 0.15049601 0.72899997 4287334522
0.074779399 0.150491 0.72899997 4287531901
0.076856002 0.150693 0.73000002 4287729540
0.078937799 0.150895 0.73100001 4287795334
0.080914199 0.15088999 0.73100001 4287664515
0.082550198 0.15026601 0.72799999 4285625970
0.083821498 0.149022 0.722 4284179038
0.085297801 0.148192 0.71799999 4288258710
0.087602802 0.14880601 0.72100002 4288324250
0.090172298 0.149832 0.72600001 4288586908
0.092514798 0.150446 0.72899997 4288652187
0.094614103 0.150647 0.73000002 4288454294
0.096453898 0.150435 0.72899997 4288388501
0.098423198 0.150429 0.72899997 4288782743
0.100392 0.150424 0.72899997 4289045915
0.102361 0.150418 0.72899997 4288717464
0.10433 0.15041199 0.72899997 4288454292
0.106298 0.150406 0.72899997 4288651671
0.108267 0.1504 0.72899997 4288586394
0.110386 0.150601 0.73000002 4288849567
0.112664 0.151007 0.73199999 4289441704
0.114797 0.151207 0.73299998 4289178532
0.116616 0.150995 0.73199999 4288652188
0.118429 0.150782 0.73100001 4288191636
0.120402 0.150776 0.73100001 4288520087
0.122541 0.150976 0.73199999 4288849052
0.124686 0.15117601 0.73299998 4288981406
0.126491 0.15096299 0.73199999 4288783773
0.128114 0.150544 0.73000002 4288718234
0.130261 0.15074401 0.73100001 4288718233
0.132594 0.15115 0.73299998 4288717205
0.134571 0.151143 0.73299998 4287466368
0.136361 0.150931 0.73199999 4287795071
0.138145 0.150718 0.73100001 4287795071
0.14011601 0.150711 0.73100001 4287861378
0.14266901 0.15132301 0.73400003 4288124550
0.144648 0.151317 0.73400003 4288256136
0.14722501 0.15192799 0.73699999 4288190343
0.149211 0.151922 0.73699999 4288124550
0.151402 0.15212101 0.73799998 4287202934
0.153182 0.151908 0.73699999 4288255622
0.155168 0.15190201 0.73699999 4288453001
0.15736701 0.152101 0.73799998 4287729278
0.15956999 0.152301 0.73900002 4288453001
0.161779 0.1525 0.74000001 4288189831
0.163772 0.152493 0.74000001 4287795073
0.16554099 0.152281 0.73900002 4287795333
0.167758 0.15248001 0.74000001 4287926919
0.16998 0.15267999 0.741 4288059275
0.172207 0.152879 0.74199998 4287927687
0.174439 0.153079 0.74299997 4287796103
0.176677 0.15327901 0.74400002 4287926919
0.17868 0.153272 0.74400002 4287992712
0.181168 0.153678 0.74599999 4287926405
0.183422 0.153877 0.74699998 4287465855
0.185929 0.154283 0.74900001 4287136889
0.18794499 0.154277 0.74900001 4287860866
0.18996 0.15427101 0.74900001 4287926659
0.19171999 0.15405899 0.74800003 4287598206
0.19373301 0.154053 0.74800003 4287927173
0.196007 0.15425301 0.74900001 4288124552
0.19802301 0.154247 0.74900001 4287927689
0.200305 0.154447 0.75 4287926919
0.202324 0.154442 0.75 4287992712
0.20515899 0.155054 0.75300002 4288058506
0.207185 0.155048 0.75300002 4288057992
0.20921201 0.15504301 0.75300002 4288123784
0.21095701 0.15483201 0.75199997 4287860613
0.212981 0.154827 0.75199997 4287663234
0.214718 0.154616 0.75099999 4288057991
0.216739 0.15461101 0.75099999 4288255370
0.21876 0.154606 0.75099999 4287992198
0.221075 0.154807 0.75199997 4287926659
0.223396 0.155009 0.75300002 4288058498
0.225722 0.15521 0.75400001 4288124291
0.227751 0.15520599 0.75400001 4288190084
0.229781 0.155202 0.75400001 4288190084
0.231811 0.15519799 0.75400001 4288387463
0.23384 0.155194 0.75400001 4288124291
0.235557 0.154985 0.75300002 4288189829
0.238216 0.155393 0.755 4288058245
0.24024899 0.15538999 0.755 4288190091
0.241961 0.15518101 0.75400001 4288519057
0.24334501 0.15476701 0.75199997 4288321677
0.24569599 0.15497001 0.75300002 4288124298
0.248054 0.155173 0.75400001 4288256138
0.25074899 0.155582 0.75599998 4288321929
0.252451 0.15537401 0.755 4288190343
0.25448599 0.15537301 0.755 4288124805
0.25652099 0.155371 0.755 4288782221
0.258899 0.15557501 0.75599998 4288519049
0.26093701 0.15557399 0.75599998 4287795324
0.26297599 0.155573 0.75599998 4288190596
0.26466399 0.155366 0.755 4288190596
0.266348 0.15515999 0.75400001 4288256391
0.26838201 0.15515999 0.75400001 4288190598
0.27005899 0.154954 0.75300002 4288256136
0.272091 0.154954 0.75300002 4288189829
0.27485201 0.155366 0.755 4288189831
0.27725801 0.155573 0.75599998 4288255622
0.27893099 0.155368 0.755 4288387463
0.28022701 0.15495799 0.75300002 4288453256
0.28188699 0.154754 0.75199997 4288190084
0.28391999 0.15475599 0.75199997 4288321670
0.285954 0.15475801 0.75199997 4287926657
0.28798801 0.15476 0.75199997 4288255622
0.290409 0.15496901 0.75300002 4288124036
0.29322401 0.155384 0.755 4287860866
0.295268 0.155387 0.755 4287860864
0.29691899 0.155185 0.75400001 4287926912
0.298962 0.15518899 0.75400001 4287926912
0.300607 0.15498801 0.75300002 4288057988
0.30264899 0.154992 0.75300002 4287597947
0.304692 0.15499701 0.75300002 4287729278
0.306328 0.154797 0.75199997 4287926912
0.307549 0.15439101 0.75 4287597945
0.309174 0.154191 0.74900001 4287729531
0.31204 0.15460999 0.75099999 4287795326
0.3145 0.15482201 0.75199997 4287532154
0.31612399 0.154624 0.75099999 4287466361
0.318591 0.154837 0.75199997 4287861119
0.32063901 0.154845 0.75199997 4287466361
0.32354501 0.155266 0.75400001 4287795326
0.325169 0.15506899 0.75300002 4287597947
0.32678699 0.154872 0.75199997 4287861119
0.32840201 0.15467601 0.75099999 4287794819
0.330452 0.154686 0.75099999 4287926406
0.33338901 0.155108 0.75300002 4287795840
0.33500099 0.15491299 0.75199997 4287598461
0.33795401 0.15533701 0.75400001 4287335289
0.34046799 0.155554 0.755 4287730047
0.342536 0.15556701 0.755 4287927426
0.34460399 0.15558 0.755 4287795840
0.34575599 0.15518101 0.75300002 4287400313
0.348746 0.155607 0.755 4287861119
0.35035399 0.155415 0.75400001 4287532668
0.35242599 0.15543 0.75400001 4287598461
0.35355899 0.15503301 0.75199997 4287730047
0.35562801 0.155048 0.75199997 4287532668
0.35769901 0.155065 0.75199997 4287467389
0.36072901 0.155494 0.75400001 4287467389
0.36329001 0.155717 0.755 4287335804
0.36489001 0.15552901 0.75400001 4287533183
0.36746001 0.155754 0.755 4287466622
0.37003699 0.15597899 0.75599998 4287598206
0.37311399 0.15641101 0.75800002 4287400829
0.37471899 0.156225 0.75700003 4287466622
0.37632 0.15604 0.75599998 4287270010
0.37791699 0.155854 0.755 4287270010
0.38051799 0.156083 0.75599998 4286941559
0.38211399 0.155899 0.755 4286809459
0.38421601 0.155922 0.755 4287006838
0.38529599 0.155532 0.75300002 4286479980
0.38739601 0.15555701 0.75300002 4285756772
0.388464 0.155168 0.75099999 4284440407
0.39056301 0.155194 0.75099999 4282335798
0.39318699 0.15542699 0.75199997 4283258180
0.39581999 0.15566 0.75300002 4283653193
0.39846 0.155894 0.75400001 4283323205
0.40057701 0.15592299 0.75400001 4283257414
0.40323099 0.156158 0.755 4283782989
0.40481901 0.155981 0.75400001 4283782475
0.40640399 0.15580501 0.75300002 4284439899
0.40744299 0.155422 0.75099999 4284702820
0.40902001 0.155246 0.75 4285888106
0.410593 0.155072 0.74900001 4287467136
0.413266 0.155312 0.75 4287928193
0.414839 0.155138 0.74900001 4287926666
0.41808 0.155587 0.75099999 4287400829
0.420775 0.15583 0.75199997 4287664242
0.42348 0.156073 0.75300002 4287861621
0.42562699 0.15611 0.75300002 4287729280
0.426642 0.155733 0.75099999 4287992964
0.42879099 0.155772 0.75099999 4287532413
0.429795 0.155396 0.74900001 4287072631
0.43194401 0.15543599 0.74900001 4287927940
0.43409699 0.155477 0.74900001 4287533180
0.43741801 0.15593401 0.75099999 4287862145
0.44016901 0.156185 0.75199997 4287927938
0.442929 0.156436 0.75300002 4287861886
0.44569901 0.156689 0.75400001 4287927677
0.44847801 0.156942 0.755 4288191104
0.451267 0.157196 0.75599998 4287993211
0.45286599 0.15703601 0.755 4287927163
0.45566899 0.15729301 0.75599998 4287729786
0.457876 0.157342 0.75599998 4287663738
0.45947799 0.157184 0.755 4287926912
0.461079 0.15702701 0.75400001 4287730047
0.463292 0.15707999 0.75400001 4287927941
0.46612701 0.157341 0.755 4287927941
0.46897301 0.15760399 0.75599998 4287796354
0.47120601 0.15765899 0.75599998 4287664766
0.474069 0.15792499 0.75700003 4287532668
0.47694299 0.158191 0.75800002 4287532152
0.479828 0.15845799 0.759 4287203189
0.481453 0.158309 0.75800002 4287663740
0.481801 0.15774401 0.755 4287466361
0.48470101 0.158015 0.75599998 4287532154
0.48632401 0.157868 0.755 4287268982
0.48923999 0.158142 0.75599998 4287400566
0.49086699 0.157998 0.755 4287466359
0.493799 0.15827399 0.75599998 4286874222
0.49608701 0.15834101 0.75599998 4287203442
0.49904001 0.15862 0.75700003 4287269235
-0.19901 0.15263399 0.75099999 4289572520
-0.19672699 0.152436 0.75 4289572520
-0.194709 0.15244199 0.75 4289440936
-0.192691 0.152448 0.75 4289375143
-0.19067299 0.152454 0.75 4289243555
-0.188906 0.15266401 0.75099999 4289178017
-0.186636 0.152467 0.75 4289374880
-0.184617 0.152473 0.75 4289308573
-0.18259799 0.15247899 0.75 4289505952
-0.18082 0.152689 0.75099999 4289243296
-0.179037 0.152899 0.75199997 4289703847
-0.17677701 0.152702 0.75099999 4289901740
-0.174988 0.15291201 0.75199997 4288980638
-0.17273299 0.152715 0.75099999 4289112222
-0.170939 0.152925 0.75199997 4289243808
-0.168465 0.15252499 0.75 4289309603
-0.166667 0.15273499 0.75099999 4289243810
-0.164425 0.152539 0.75 4289637538
-0.162838 0.152952 0.75199997 4289571745
-0.160385 0.15255199 0.75 4288781968
-0.158365 0.152559 0.75 4288387463
-0.15613601 0.152362 0.74900001 4288518536
-0.154324 0.15257201 0.75 4288255364
-0.15250599 0.15278301 0.75099999 4288650122
-0.150282 0.152586 0.75 4288584587
-0.148458 0.152796 0.75099999 4288979345
-0.146044 0.15239599 0.74900001 4289110931
-0.144025 0.152403 0.74900001 4289176724
-0.14200599 0.15241 0.74900001 4288979347
-0.140174 0.15262 0.75 4289373848
-0.137968 0.15242299 0.74900001 4289110933
-0.13613001 0.152633 0.75 4288913552
-0.13410699 0.15264 0.75 4288650380
-0.13243701 0.153054 0.75199997 4288321415
-0.130582 0.153264 0.75300002 4288913554
-0.12838 0.15306699 0.75199997 4289176726
-0.126183 0.15287 0.75099999 4288518796
-0.124157 0.152876 0.75099999 4288716173
-0.12213 0.15288299 0.75099999 4288650123
-0.120263 0.153093 0.75199997 4288518794
-0.118077 0.152895 0.75099999 4288321158
-0.11605 0.15290201 0.75099999 4288584330
-0.11387 0.152704 0.75 4288386951
-0.111995 0.152914 0.75099999 4287729280
-0.109821 0.15271699 0.75 4289308312
-0.107795 0.152723 0.75 4289308059
-0.10577 0.152729 0.75 4289636770
-0.104021 0.15314201 0.75199997 4289308319
-0.10199 0.153148 0.75199997 4289308319
-0.099958196 0.153154 0.75199997 4289243294
-0.097796403 0.15295599 0.75099999 4289309087
-0.095639698 0.152758 0.75 4289045915
-0.0937379 0.15296701 0.75099999 4289243294
-0.091586202 0.152769 0.75 4289176987
-0.089320302 0.152367 0.74800003 4289045917
-0.087181799 0.15216801 0.74699998 4289177503
-0.085390501 0.15258101 0.74900001 4289177503
-0.083365597 0.152586 0.74900001 4289046431
-0.0812319 0.15238699 0.74800003 4289112224
-0.0789975 0.151985 0.74599999 4289178015
-0.076876998 0.151786 0.745 4289046429
-0.073957801 0.149957 0.736 4288980375
-0.053219199 0.142453 0.699 4289243555
-0.051474102 0.142864 0.70099998 4289046693
-0.049718101 0.14327499 0.70300001 4288849828
-0.047951199 0.143686 0.70499998 4288981160
-0.046173301 0.144097 0.70700002 4288916137
-0.044259299 0.144099 0.70700002 4288784551
-0.042405002 0.144306 0.708 4288718242
-0.040602401 0.14471699 0.70999998 4288981413
-0.038843401 0.145331 0.713 4288850081
-0.036964402 0.145537 0.71399999 4288981413
-0.035080001 0.145743 0.71499997 4288849827
-0.033097301 0.145542 0.71399999 4288718242
-0.031207301 0.145748 0.71499997 4288849574
-0.0293527 0.146157 0.71700001 4288586402
-0.0274872 0.146567 0.71899998 4288520863
-0.0256107 0.14697599 0.72100002 4288718242
-0.0237562 0.14759 0.72399998 4288586655
-0.0218553 0.147999 0.72600001 4288455323
-0.019888701 0.148 0.72600001 4288652702
-0.017921999 0.148001 0.72600001 4288586909
-0.015955299 0.148003 0.72600001 4288652448
-0.0140078 0.14820801 0.727 4288586655
-0.0120217 0.14800499 0.72600001 4288520862
-0.0100549 0.14800499 0.72600001 4288586141
-0.0080880597 0.14800601 0.72600001 4288652188
-0.00613805 0.148414 0.72799999 4288586395
-0.0041714599 0.148618 0.72899997 4288454809
-0.00219642 0.148619 0.72899997 4288519834
-0.000220777 0.148211 0.727 4288848799
0.00174884 0.148211 0.727 4288585627
0.0037235699 0.148414 0.72799999 4288519834
0.00570371 0.148618 0.72899997 4288783004
0.0076681902 0.148414 0.72799999 4288651420
0.0096404701 0.148413 0.72799999 4288651418
0.0115968 0.14820901 0.727 4288716697
0.0135849 0.148412 0.72799999 4288848283
0.0155144 0.148003 0.72600001 4288717211
0.0174811 0.148002 0.72600001 4288717211
0.019421 0.147797 0.72500002 4288651418
0.021414399 0.147999 0.72600001 4288783004
0.023348801 0.14779399 0.72500002 4288783004
0.025312601 0.147792 0.72500002 4288848283
0.0272763 0.14779 0.72500002 4288716952
0.0291996 0.147585 0.72399998 4288651159
0.0312036 0.14778601 0.72500002 4288848791
0.0332128 0.14798801 0.72600001 4288848791
0.0351789 0.14798599 0.72600001 4288914329
0.037145 0.147983 0.72600001 4288716952
0.039057001 0.14777701 0.72500002 4288979869
0.041076701 0.14797799 0.72600001 4288650904
0.0429832 0.147772 0.72500002 4288848283
0.045008101 0.147973 0.72600001 4288716697
0.0469089 0.14776599 0.72500002 4288979869
0.048871499 0.147763 0.72500002 4289045662
0.050693899 0.147352 0.72299999 4288782745
0.052578099 0.147145 0.722 4288913561
0.0545322 0.14714099 0.722 4288781975
0.0566427 0.14754499 0.72399998 4288914076
0.058683001 0.147745 0.72500002 4288913561
0.060812101 0.148149 0.727 4288847768
0.0627793 0.14814501 0.727 4288847768
0.064835303 0.14834499 0.72799999 4288848022
0.066713102 0.148137 0.727 4288848021
0.068490803 0.147725 0.72500002 4288716435
0.070257597 0.147313 0.72299999 4288256654
0.072113201 0.14710499 0.722 4288256654
0.074168503 0.147304 0.72299999 4288125068
0.076228902 0.147504 0.72399998 4288256654
0.078294598 0.14770301 0.72500002 4287993227
0.080254897 0.147698 0.72500002 4287270534
0.081874803 0.147082 0.722 4286086521
0.083013803 0.145651 0.71499997 4284836971
0.0844713 0.144831 0.71100003 4288390297
0.086757503 0.145437 0.71399999 4288390043
0.089432299 0.14665399 0.72000003 4288717980
0.0916318 0.147056 0.722 4288586395
0.0935826 0.14705101 0.722 4288388246
0.095533296 0.147045 0.722 4287993743
0.097618699 0.14724299 0.72299999 4288716950
0.099571697 0.147238 0.72299999 4288651926
0.101384 0.147028 0.722 4288586133
0.103477 0.14722601 0.72299999 4289309856
0.105575 0.147424 0.72399998 4289046429
0.107679 0.147622 0.72500002 4288389269
0.109485 0.147412 0.72399998 4288454809
0.111593 0.14760999 0.72500002 4289376425
0.113707 0.147807 0.72600001 4289310632
0.115666 0.147801 0.72600001 4288981153
0.117301 0.147388 0.72399998 4288651418
0.119255 0.14738099 0.72399998 4288388501
0.121543 0.147782 0.72600001 4288585878
0.123672 0.14798 0.727 4289178015
0.12546 0.14777 0.72600001 4288717980
0.127068 0.147356 0.72399998 4288586394
0.128842 0.147146 0.72299999 4288717464
0.131154 0.14754701 0.72500002 4288190606
0.133292 0.147744 0.72600001 4287400575
0.13506299 0.147534 0.72500002 4288189829
0.137018 0.14752699 0.72500002 4287663740
0.139164 0.147724 0.72600001 4288058498
0.14150999 0.14812499 0.72799999 4288387722
0.14366899 0.148322 0.72899997 4288453515
0.146033 0.14872199 0.73100001 4288322445
0.1478 0.14851201 0.73000002 4287927173
0.14997301 0.148709 0.73100001 4287203450
0.151942 0.148702 0.73100001 4288453003
0.154332 0.149102 0.73299998 4288584589
0.156307 0.149096 0.73299998 4287531901
0.158713 0.149496 0.73500001 4288321417
0.160693 0.149489 0.73500001 4288189831
0.162672 0.149483 0.73500001 4288519056
0.164428 0.14927299 0.73400003 4287729540
0.166631 0.14947 0.73500001 4288124298
0.16929799 0.15007301 0.73799998 4287664262
0.171749 0.150473 0.74000001 4287861126
0.173976 0.15067001 0.741 4287926919
0.176208 0.150867 0.74199998 4287663747
0.178206 0.150861 0.74199998 4287926659
0.18020301 0.15085401 0.74199998 4287729280
0.182446 0.151051 0.74299997 4287992198
0.18444499 0.15104499 0.74299997 4287597440
0.18669599 0.151242 0.74400002 4288189577
0.188952 0.151439 0.745 4288386956
0.19095699 0.15143301 0.745 4287992712
0.19296201 0.151427 0.745 4287992712
0.195228 0.15162501 0.74599999 4288387470
0.19750001 0.151822 0.74699998 4288322447
0.19950999 0.151816 0.74699998 4288256654
0.20179 0.152014 0.74800003 4288255885
0.204347 0.15241501 0.75 4288387217
0.206365 0.152409 0.75 4287926920
0.208106 0.152201 0.74900001 4288321164
0.20984 0.15199199 0.74800003 4288123785
0.21156999 0.151784 0.74699998 4288189577
0.21358 0.151779 0.74699998 4287926405
0.21530101 0.15157101 0.74599999 4287795073
0.2176 0.151769 0.74699998 4287794819
0.22019801 0.152171 0.74900001 4287729278
0.22280701 0.152573 0.75099999 4288058498
0.224828 0.152568 0.75099999 4288124291
0.226849 0.152564 0.75099999 4288058498
0.229175 0.15276299 0.75199997 4288058498
0.230892 0.152556 0.75099999 4288124289
0.23229299 0.152146 0.74900001 4287992705
0.233997 0.151939 0.74800003 4288190084
0.236642 0.15234201 0.75 4288058245
0.239297 0.15274499 0.75199997 4287992198
0.241322 0.152742 0.75199997 4287861126
0.2427 0.15233199 0.75 4287795333
0.24472 0.15233 0.75 4287861126
0.247069 0.15253 0.75099999 4288058243
0.24975599 0.152934 0.75300002 4287795071
0.25178501 0.152932 0.75300002 4287663999
0.25347701 0.15272699 0.75199997 4287598461
0.25584301 0.15292799 0.75300002 4287926912
0.257873 0.152926 0.75300002 4287861117
0.26024801 0.153128 0.75400001 4287795324
0.261933 0.152924 0.75300002 4287663993
0.26361299 0.15272 0.75199997 4287861372
0.26528901 0.15251601 0.75099999 4287861633
0.26695901 0.15231299 0.75 4287927426
0.26898301 0.15231299 0.75 4288387208
0.271007 0.15231299 0.75 4288124036
0.27339599 0.15251601 0.75099999 4288124036
0.27579001 0.15272 0.75199997 4288255622
0.27745199 0.152518 0.75099999 4288255622
0.27873701 0.15211301 0.74900001 4288321415
0.280386 0.15191101 0.74800003 4288321670
0.282785 0.152116 0.74900001 4288453256
0.285191 0.152321 0.75 4287926657
0.28722 0.15232299 0.75 4287268727
0.289249 0.152326 0.75 4286808178
0.29127899 0.152329 0.75 4286610799
0.293309 0.15233199 0.75 4286611052
0.29494601 0.152132 0.74900001 4286611052
0.29776901 0.152542 0.75099999 4287071090
0.299804 0.152546 0.75099999 4287662713
0.301438 0.152348 0.75 4287662713
0.302663 0.15194599 0.74800003 4287531899
0.30469301 0.151952 0.74800003 4287861119
0.30631301 0.15175401 0.74699998 4287663738
0.30834201 0.15176 0.74699998 4287795324
0.31037101 0.151766 0.74699998 4287729786
0.31281999 0.151976 0.74800003 4287729531
0.31443301 0.15177999 0.74699998 4287466361
0.31688899 0.15199 0.74800003 4287729533
0.31892499 0.151998 0.74800003 4287466361
0.32225001 0.15261599 0.75099999 4287532668
0.32386401 0.152421 0.75 4287334775
0.32504001 0.152023 0.74800003 4287268982
0.326206 0.15162601 0.74599999 4287137910
0.328242 0.151636 0.74599999 4287400829
0.33027899 0.151646 0.74599999 4287072378
0.33187199 0.151453 0.745 4287006585
0.33435699 0.151668 0.74599999 4287335804
0.3373 0.152086 0.74800003 4287072632
0.33934799 0.152098 0.74800003 4287598206
0.34139699 0.15211 0.74800003 4287466620
0.342529 0.15171599 0.74599999 4287730047
0.34503701 0.151933 0.74699998 4287598461
0.346623 0.15174299 0.74599999 4287795840
0.34913999 0.151961 0.74699998 4287664254
0.35119301 0.151976 0.74699998 4287992705
0.35277501 0.151787 0.74599999 4288058496
0.35578001 0.15221 0.74800003 4287795324
0.35832 0.15243 0.74900001 4287926653
0.360385 0.152447 0.74900001 4287926653
0.362452 0.152464 0.74900001 4287860860
0.364521 0.152482 0.74900001 4287794819
0.36708099 0.152704 0.75 4287795071
0.36964899 0.152926 0.75099999 4287532413
0.371728 0.152946 0.75099999 4287730047
0.37331301 0.152762 0.75 4287795840
0.375393 0.15278301 0.75 4287730047
0.37797999 0.153008 0.75099999 4287532668
0.380573 0.153234 0.75199997 4287270010
0.38266599 0.153256 0.75199997 4287861633
0.38476101 0.15327901 0.75199997 4287795840
0.386343 0.153099 0.75099999 4287270011
0.38740501 0.152716 0.74900001 4287138685
0.38845801 0.15233301 0.74699998 4283783756
0.39107001 0.15256201 0.74800003 4284113744
0.394216 0.152996 0.75 4288719768
0.39790401 0.153635 0.75300002 4288916380
0.39948601 0.153459 0.75199997 4288587161
0.40106601 0.153283 0.75099999 4288783259
0.40264201 0.153108 0.75 4289046431
0.405294 0.153341 0.75099999 4288717211
0.40741199 0.153372 0.75099999 4287993235
0.410079 0.153607 0.75199997 4288256913
0.41165701 0.15343399 0.75099999 4283585873
0.413784 0.153467 0.75099999 4283849299
0.414805 0.153091 0.74900001 4283387725
0.41748899 0.153329 0.75 4283519564
0.42129901 0.15397701 0.75300002 4283717196
0.42344299 0.15401299 0.75300002 4283059007
0.42559001 0.15404899 0.75300002 4283059007
0.42660499 0.153677 0.75099999 4283125061
0.42818099 0.15351 0.75 4283782989
0.42975599 0.15334401 0.74900001 4284243795
0.430751 0.15297399 0.74699998 4285296483
0.43347701 0.153219 0.74800003 4286020458
0.435047 0.153055 0.74699998 4286678388
0.437785 0.153302 0.74800003 4287533697
0.43994501 0.15334401 0.74800003 4287664768
0.44269899 0.153593 0.74900001 4287598973
0.445463 0.153842 0.75 4287204713
0.44823599 0.154093 0.75099999 4287402093
0.45041999 0.154139 0.75099999 4287598714
0.45200399 0.153981 0.75 4287533182
0.453587 0.153824 0.74900001 4287466875
0.45516801 0.153668 0.74800003 4287401082
0.45796999 0.153923 0.74900001 4287466875
0.46078199 0.15418001 0.75 4287335804
0.46360499 0.15443701 0.75099999 4287664768
0.465817 0.15448999 0.75099999 4287335803
0.46741101 0.154339 0.75 4287467387
0.470256 0.15459999 0.75099999 4287796352
0.472482 0.15465599 0.75099999 4287795324
0.475344 0.154919 0.75199997 4287795326
0.47821799 0.155183 0.75300002 4287795326
0.48046499 0.15524299 0.75300002 4287729533
0.48335701 0.15550999 0.75400001 4287795326
0.48497301 0.15536501 0.75300002 4287795324
0.48658699 0.155222 0.75199997 4287729273
0.489501 0.15549199 0.75300002 4287598200
0.49242601 0.155764 0.75400001 4287466614
0.49470699 0.15583 0.75400001 4287532407
0.49633399 0.155691 0.75300002 4287335028
0.49796101 0.155553 0.75199997 4287532405
0.49958801 0.155416 0.75099999 4287269229
-0.198221 0.15000799 0.74800003 4289769899
-0.196209 0.150014 0.74800003 4289243555
-0.19393601 0.149819 0.74699998 4289835692
-0.191669 0.149625 0.74599999 4289440934
-0.189916 0.149832 0.74699998 4289572261
-0.187906 0.149838 0.74699998 4289309087
-0.185895 0.14984401 0.74699998 4289440159
-0.18388499 0.14985 0.74699998 4289242780
-0.18187401 0.149856 0.74699998 4289045147
-0.180105 0.15006401 0.74800003 4289243296
-0.17832901 0.150271 0.74900001 4289967019
-0.175842 0.149876 0.74699998 4289440675
-0.174064 0.15008301 0.74800003 4289046429
-0.17182 0.14988901 0.74699998 4289112477
-0.17026301 0.150297 0.74900001 4288980891
-0.167797 0.149902 0.74699998 4289441187
-0.165786 0.149909 0.74699998 4289441189
-0.163555 0.14971501 0.74599999 4289769124
-0.161762 0.149922 0.74699998 4289176987
-0.159964 0.15013 0.74800003 4287926405
-0.157949 0.15013599 0.74800003 4288518794
-0.15593401 0.150143 0.74800003 4288255364
-0.153919 0.15015 0.74800003 4288584330
-0.152106 0.15035699 0.74900001 4288584329
-0.14988799 0.15016399 0.74800003 4288781966
-0.14806999 0.150371 0.74900001 4288979345
-0.14585599 0.150177 0.74800003 4289308310
-0.143648 0.149983 0.74699998 4289045138
-0.141444 0.14978901 0.74599999 4289110931
-0.139433 0.14979599 0.74599999 4289176726
-0.137422 0.149802 0.74599999 4289242519
-0.13541 0.149809 0.74599999 4289176724
-0.133577 0.15001599 0.74699998 4288255622
-0.13173901 0.150224 0.74800003 4287268727
-0.130068 0.15063199 0.75 4288913552
-0.127874 0.150438 0.74900001 4289176724
-0.125853 0.150444 0.74900001 4288716175
-0.123667 0.15025 0.74800003 4288913552
-0.121649 0.15025599 0.74800003 4288584587
-0.11979 0.150464 0.74900001 4288387208
-0.117611 0.150269 0.74800003 4288386951
-0.115747 0.15047599 0.74900001 4288518537
-0.113421 0.15008099 0.74699998 4288255624
-0.111404 0.150087 0.74699998 4289045140
-0.109095 0.149691 0.745 4289505437
-0.107226 0.14989799 0.74599999 4289637024
-0.105212 0.149904 0.74599999 4289571745
-0.103473 0.15031201 0.74800003 4289374366
-0.101724 0.150719 0.75 4289243296
-0.099698097 0.15072501 0.75 4289111710
-0.0975416 0.15053 0.74900001 4289374882
-0.095390201 0.150334 0.74800003 4289178017
-0.093618497 0.15074199 0.75 4289046176
-0.091591597 0.150747 0.75 4289111455
-0.089445099 0.150552 0.74900001 4289308834
-0.086953603 0.149753 0.745 4289309089
-0.085167602 0.15016 0.74699998 4288914845
-0.083036698 0.149964 0.74599999 4288849050
-0.080911003 0.14976799 0.745 4289178017
-0.0785788 0.14917 0.74199998 4288980638
-0.076365702 0.148773 0.74000001 4289309603
-0.053911801 0.114002 0.56699997 4289177509
-0.0510846 0.111191 0.55299997 4288586919
-0.049229801 0.11039 0.54900002 4289705403
-0.048092201 0.111197 0.55299997 4289311160
-0.047017101 0.112205 0.55800003 4289180088
-0.046241101 0.114018 0.56699997 4289180090
-0.039906301 0.122883 0.611 4288719792
-0.038502499 0.12369 0.61500001 4288654258
-0.0373764 0.125503 0.62400001 4288719537
-0.0188215 0.138198 0.68699998 4288719790
-0.0170098 0.13860101 0.68900001 4288522413
-0.0151871 0.13900501 0.69099998 4288324520
-0.0133536 0.13940801 0.69300002 4288324520
-0.0114926 0.13961001 0.69400001 4288258725
-0.0095985197 0.13941 0.69300002 4288257957
-0.0077209398 0.13941 0.69300002 4288389797
-0.00584334 0.139411 0.69300002 4288323493
-0.0039771702 0.13981301 0.69499999 4288257700
-0.00209413 0.139814 0.69499999 4288389286
-0.00021077 0.139612 0.69400001 4288323493
0.00167438 0.14001501 0.69599998 4287928735
0.0035703699 0.14041699 0.69800001 4288060575
0.0054850099 0.14102 0.70099998 4288257184
0.00742643 0.14182401 0.70499998 4288191646
0.0093762502 0.142427 0.708 4288257691
0.0113742 0.14343201 0.713 4288126105
0.0133619 0.144035 0.71600002 4288586655
0.0153231 0.144235 0.71700001 4288258204
0.017289599 0.144435 0.71799999 4288258204
0.019234801 0.14443401 0.71799999 4288323998
0.0211799 0.14443301 0.71799999 4288258207
0.0231249 0.14443099 0.71799999 4288652195
0.0250699 0.14443 0.71799999 4288323484
0.027014799 0.144428 0.71799999 4288455070
0.0289193 0.144225 0.71700001 4288652188
0.0309474 0.14462499 0.71899998 4288783774
0.032940499 0.144824 0.72000003 4288586395
0.034841999 0.144621 0.71899998 4288520602
0.036789201 0.144619 0.71899998 4288848797
0.038736299 0.14461599 0.71899998 4288914590
0.040739901 0.144815 0.72000003 4288783004
0.0425709 0.14441 0.71799999 4288914590
0.044514999 0.144407 0.71799999 4288651418
0.046523701 0.144605 0.71899998 4288585625
0.048537601 0.144803 0.72000003 4288651418
0.050416701 0.14459901 0.71899998 4288717211
0.052144501 0.14399201 0.71600002 4288980383
0.054082502 0.143989 0.71600002 4288914590
0.056176901 0.14438701 0.71799999 4288783004
0.058281999 0.144786 0.72000003 4288585625
0.0603141 0.14498299 0.72100002 4288717211
0.062265102 0.144979 0.72100002 4288717211
0.064305 0.14517599 0.722 4288651418
0.066166699 0.144971 0.72100002 4288717464
0.067833804 0.144364 0.71799999 4288980636
0.069484502 0.143756 0.71499997 4288652440
0.071318597 0.14355101 0.71399999 4288849305
0.073557504 0.14415 0.71700001 4288980636
0.075601801 0.144346 0.71799999 4288914843
0.0775434 0.14434101 0.71799999 4288454809
0.079374097 0.144136 0.71700001 4287599760
0.080972403 0.143528 0.71399999 4284770661
0.082089901 0.142116 0.70700002 4287008140
0.0832882 0.14090499 0.70099998 4288784802
0.085669003 0.14170399 0.70499998 4289047460
0.0883196 0.142905 0.71100003 4288652188
0.090494797 0.143301 0.713 4288520602
0.092421502 0.143296 0.713 4288520602
0.094480202 0.143492 0.71399999 4288454809
0.096679099 0.143888 0.71600002 4288717466
0.098613203 0.14388201 0.71600002 4288520855
0.100407 0.143676 0.71499997 4288586648
0.102338 0.14366999 0.71499997 4289375394
0.104414 0.143865 0.71600002 4288717464
0.106348 0.14386 0.71600002 4288520087
0.108281 0.14385401 0.71600002 4288585880
0.110368 0.144049 0.71700001 4289375911
0.112616 0.144444 0.71899998 4289310632
0.114716 0.144639 0.72000003 4288717981
0.116659 0.144633 0.72000003 4288323222
0.118273 0.144225 0.71799999 4288388499
0.120545 0.144621 0.72000003 4289112222
0.122658 0.144815 0.72100002 4288652441
0.124603 0.14480899 0.72100002 4288849567
0.12637199 0.144602 0.72000003 4288849567
0.12813599 0.14439499 0.71899998 4288849052
0.130256 0.14458901 0.72000003 4288848538
0.13238101 0.144784 0.72100002 4287663233
0.134325 0.144777 0.72100002 4288124038
0.136079 0.14456999 0.72000003 4287926657
0.13801999 0.144563 0.72000003 4287992450
0.140544 0.14515901 0.72299999 4288190345
0.14249299 0.145153 0.72299999 4288321677
0.144841 0.145548 0.72500002 4288453517
0.146795 0.145541 0.72500002 4287795333
0.149158 0.145936 0.727 4287861126
0.151117 0.14592899 0.727 4288453003
0.153286 0.14612401 0.72799999 4288584589
0.155461 0.146318 0.72899997 4288255370
0.157856 0.146713 0.73100001 4287860612
0.160262 0.14710701 0.73299998 4288255884
0.16179401 0.146699 0.73100001 4288453010
0.163762 0.14669301 0.73100001 4288059022
0.16573 0.146686 0.73100001 4287992974
0.168387 0.147282 0.73400003 4287598216
0.170827 0.147677 0.736 4287860873
0.173043 0.147871 0.73699999 4288190091
0.175502 0.148266 0.73900002 4288124552
0.17749199 0.148259 0.73900002 4287729278
0.179481 0.14825299 0.73900002 4288255622
0.18147001 0.148247 0.73900002 4288124038
0.183459 0.148241 0.73900002 4287926659
0.18544701 0.14823399 0.73900002 4288518543
0.18794399 0.14862899 0.741 4288320910
0.18993799 0.148623 0.741 4287662980
0.19245 0.149018 0.74299997 4287860613
0.194711 0.149213 0.74400002 4287663234
0.196712 0.149207 0.74400002 4287597954
0.198714 0.14920101 0.74400002 4287861380
0.200986 0.149396 0.745 4287992712
0.20353501 0.149792 0.74699998 4287532676
0.20554499 0.149786 0.74699998 4287729540
0.207555 0.149781 0.74699998 4288190091
0.209565 0.149776 0.74699998 4287796103
0.211008 0.149369 0.745 4288058757
0.212727 0.14916401 0.74400002 4287663999
0.214729 0.149159 0.74400002 4287926657
0.217022 0.14935499 0.745 4287860864
0.219321 0.14955001 0.74599999 4287926657
0.22132801 0.149546 0.74599999 4288321415
0.223635 0.14974201 0.74699998 4288189831
0.22594699 0.149938 0.74800003 4288058245
0.228265 0.150134 0.74900001 4287992450
0.229974 0.14993 0.74800003 4288058243
0.23136701 0.149525 0.74599999 4288124038
0.233062 0.149321 0.745 4287992450
0.235067 0.149317 0.745 4288190343
0.23771 0.14971501 0.74699998 4287861380
0.240042 0.149912 0.74800003 4288321931
0.241732 0.149708 0.74699998 4287795585
0.243744 0.14970601 0.74699998 4288058757
0.245756 0.149703 0.74699998 4287927171
0.247768 0.149701 0.74699998 4287993219
0.249781 0.149698 0.74699998 4287664254
0.25213 0.14989699 0.74800003 4287993219
0.25448599 0.150095 0.74900001 4288255877
0.256504 0.150093 0.74900001 4288124289
0.25852299 0.15009201 0.74900001 4287992703
0.26089099 0.150291 0.75 4287729531
0.26256299 0.15008999 0.74900001 4287795324
0.264229 0.14988901 0.74800003 4287926912
0.266247 0.14988799 0.74800003 4287992450
0.26826501 0.14988799 0.74800003 4287795073
0.270284 0.14988799 0.74800003 4287860864
0.27230299 0.14988799 0.74800003 4287992450
0.27468899 0.150089 0.74900001 4287663485
0.276712 0.15008999 0.74900001 4287663485
0.27836299 0.14989001 0.74800003 4288189829
0.27963501 0.149491 0.74599999 4287992705
0.282029 0.149693 0.74699998 4288058498
0.284428 0.149895 0.74800003 4288058498
0.28645101 0.14989699 0.74800003 4287926912
0.28847501 0.14989901 0.74800003 4288058243
0.29010999 0.149702 0.74699998 4288189829
0.292133 0.14970499 0.74699998 4287992705
0.294155 0.149708 0.74699998 4287926399
0.29697201 0.150112 0.74900001 4287465848
0.29900101 0.150116 0.74900001 4287531127
0.30063 0.14992 0.74800003 4287465848
0.30225399 0.14972401 0.74699998 4287466361
0.303873 0.149529 0.74599999 4287203189
0.30589801 0.149534 0.74599999 4287334773
0.30750999 0.14933901 0.745 4287203442
0.30953401 0.149345 0.745 4287598200
0.31155899 0.149351 0.745 4287532407
0.313584 0.149358 0.745 4287795324
0.31603399 0.14956599 0.74599999 4288124291
0.31806499 0.149573 0.74599999 4288124291
0.32095399 0.14998201 0.74800003 4287993219
0.322128 0.149589 0.74599999 4287992705
0.323293 0.149197 0.74400002 4288256391
0.324884 0.149005 0.74299997 4288322184
0.32735199 0.149215 0.74400002 4288321931
0.329826 0.149426 0.745 4288059273
0.33186099 0.149436 0.745 4288256654
0.33389801 0.14944699 0.745 4288387724
0.33593601 0.14945801 0.745 4288321929
0.337975 0.149469 0.745 4288124550
0.340471 0.149682 0.74599999 4288256136
0.34205699 0.14949401 0.745 4288585356
0.3441 0.149507 0.745 4288387977
0.34614399 0.14951999 0.745 4287927426
0.34819001 0.149534 0.745 4287992705
0.34976801 0.14934701 0.74400002 4287729533
0.351814 0.149362 0.74400002 4286939764
0.35433799 0.14957801 0.745 4286544746
0.35639 0.14959399 0.745 4286545245
0.357963 0.14940999 0.74400002 4286676838
0.359532 0.14922599 0.74299997 4287531895
0.36158299 0.149243 0.74299997 4287466106
0.363637 0.149261 0.74299997 4287203189
0.366184 0.14948 0.74400002 4287071601
0.36873901 0.1497 0.745 4287598200
0.37080401 0.149719 0.745 4287400821
0.37287 0.149739 0.745 4287532407
0.375442 0.14996099 0.74599999 4287335542
0.37852699 0.15038399 0.74800003 4287598461
0.38060799 0.150406 0.74800003 4287927426
0.381668 0.15002701 0.74599999 4287664254
0.38374701 0.15005 0.74599999 4287730047
0.385829 0.15007301 0.74599999 4287664001
0.38791299 0.150098 0.74599999 4286874999
0.390522 0.150324 0.74699998 4282401599
0.393139 0.15054999 0.74800003 4287073409
0.39576301 0.150778 0.74900001 4288324241
0.39733401 0.15060399 0.74800003 4288455059
0.39943501 0.150631 0.74800003 4288783512
0.40100199 0.15045799 0.74699998 4288651418
0.403106 0.15048701 0.74699998 4288585878
0.40575501 0.150718 0.74800003 4288389259
0.40841201 0.150949 0.74900001 4289375387
0.41107699 0.151182 0.75 4288717727
0.41319999 0.151214 0.75 4288257944
0.41421801 0.15084299 0.74800003 4289178531
0.41578501 0.150674 0.74699998 4288652187
0.41790801 0.150708 0.74699998 4288125327
0.420596 0.15094499 0.74800003 4288849050
0.42329299 0.151182 0.74900001 4289046429
0.42486301 0.151016 0.74800003 4289178785
0.42700201 0.151053 0.74800003 4288652441
0.42914301 0.15109099 0.74800003 4288652441
0.43071201 0.15092701 0.74699998 4287468167
0.43343699 0.151169 0.74800003 4287204994
0.43442401 0.150804 0.74599999 4286283890
0.43774301 0.15125 0.74800003 4285757032
0.43990201 0.151292 0.74800003 4284966234
0.442065 0.151334 0.74800003 4284110926
0.44482499 0.15158001 0.74900001 4283913294
0.44699699 0.15162501 0.74900001 4283782467
0.449774 0.15187301 0.75 4284177225
0.45075199 0.15151399 0.74800003 4284572498
0.451722 0.15115599 0.74599999 4285888358
0.45329401 0.15100101 0.745 4286874738
0.45669699 0.151455 0.74699998 4286874738
0.459503 0.15170801 0.74800003 4287401082
0.46108401 0.151556 0.74699998 4287664254
0.463283 0.15160801 0.74699998 4287533182
0.46486399 0.151458 0.74599999 4287467390
0.46644399 0.151309 0.745 4287467893
0.468651 0.151363 0.745 4287072631
0.47086301 0.151419 0.745 4287400827
0.47435001 0.15188199 0.74699998 4287269241
0.47657701 0.15194 0.74699998 4287268727
0.479451 0.15220299 0.74800003 4287335289
0.481691 0.152263 0.74800003 4287729533
0.48393601 0.15232401 0.74800003 4287005808
0.48618701 0.15238699 0.74800003 4287005808
0.48909599 0.15265401 0.74900001 4287466614
0.492017 0.152923 0.75 4287400821
0.49428999 0.152989 0.75 4287598198
0.495906 0.152852 0.74900001 4287466867
0.49752301 0.152716 0.74800003 4287269486
-0.199169 0.147195 0.74400002 4289441189
-0.197432 0.14739899 0.745 4289703592
-0.195428 0.147404 0.745 4289835178
-0.193423 0.14741001 0.745 4289901226
-0.19116101 0.147219 0.74400002 4289309089
-0.18915901 0.14722501 0.74400002 4289308573
-0.187409 0.147429 0.745 4289308572
-0.185404 0.14743499 0.745 4289242779
-0.18339901 0.147441 0.745 4289045400
-0.181394 0.147448 0.745 4289176733
-0.17986999 0.14785001 0.74699998 4289176733
-0.17762101 0.14765801 0.74599999 4290032812
-0.175613 0.14766499 0.74599999 4289111710
-0.173372 0.14747301 0.745 4288980122
-0.17113701 0.147282 0.74400002 4289111963
-0.169361 0.147487 0.745 4289441189
-0.166905 0.14709701 0.74299997 4289375396
-0.164683 0.146906 0.74199998 4289572261
-0.16268501 0.14691301 0.74199998 4289505698
-0.16090301 0.147117 0.74299997 4288057992
-0.159329 0.14752001 0.745 4288518542
-0.157534 0.147725 0.74599999 4288387210
-0.155524 0.14773101 0.74599999 4288453256
-0.153308 0.14754 0.745 4288453001
-0.151504 0.147745 0.74599999 4288453001
-0.14929301 0.147554 0.745 4289110931
-0.14748301 0.14775801 0.74599999 4288716175
-0.145083 0.147369 0.74400002 4289308312
-0.143077 0.147376 0.74400002 4289308312
-0.14069299 0.14698599 0.74199998 4289308312
-0.138879 0.147191 0.74299997 4289308312
-0.136692 0.146999 0.74199998 4289308312
-0.134691 0.14700601 0.74199998 4288913295
-0.13286901 0.147211 0.74299997 4288979088
-0.131393 0.14781199 0.74599999 4288057985
-0.129728 0.148215 0.74800003 4288847501
-0.12771 0.148221 0.74800003 4288913552
-0.12518799 0.147633 0.745 4288650382
-0.123178 0.14763901 0.745 4288781966
-0.121167 0.147646 0.745 4288189829
-0.119317 0.14785001 0.74599999 4288453003
