# .PCD v0.7 - Point Cloud Data file format
VERSION 0.7
FIELDS x y z rgb
SIZE 4 4 4 4
TYPE F F F U
COUNT 1 1 1 1
WIDTH 1201
HEIGHT 1
VIEWPOINT 0 0 0 1 0 0 0
POINTS 1201
DATA ascii
-0.034005199 0.51447803 1.039 4291482078
-0.031197499 0.51447499 1.039 4292140008
-0.0283625 0.513978 1.038 4291810527
-0.0255084 0.51298499 1.036 4291415511
-0.0226431 0.51149702 1.033 4291217618
-0.019813299 0.51050502 1.031 4290954446
-0.017010899 0.51000899 1.03 4290691528
-0.0142001 0.50901699 1.028 4290362563
-0.011389 0.50752997 1.025 4290559941
-0.0086277397 0.50802499 1.026 4290625734
-0.00584399 0.507034 1.024 4290034111
-0.00307706 0.50703299 1.024 4289573560
-0.00030984401 0.50653797 1.023 4290034112
0.00245437 0.50653797 1.023 4288915631
0.0052185901 0.50653797 1.023 4288718509
0.0079828203 0.50653899 1.023 4289376182
0.010726 0.50554901 1.021 4288323494
0.0134849 0.50555098 1.021 4288652458
0.016243801 0.50555199 1.021 4288585635
0.019021301 0.50604802 1.022 4287270030
0.021782899 0.50604999 1.022 4286152063
0.0245685 0.50654697 1.023 4286217854
0.0273597 0.50704497 1.024 4286348926
0.030126801 0.507047 1.024 4286875270
0.032861799 0.50655502 1.023 4286085240
0.0356263 0.506558 1.023 4285887345
0.038465999 0.50755101 1.025 4285953138
0.041316401 0.50854498 1.027 4285756273
0.0441778 0.50953901 1.029 4285427308
0.047004402 0.51003802 1.03 4285362284
0.049836501 0.51053798 1.031 4285099112
0.052776098 0.51202798 1.034 4285099112
0.055732001 0.51351798 1.0369999 4285032805
0.0588171 0.51599902 1.0420001 4284834910
0.061811101 0.51749003 1.045 4285295461
0.064944997 0.51997203 1.05 4284571224
0.0679124 0.52096802 1.052 4284637531
0.071025297 0.522955 1.056 4283913808
0.074229799 0.52543801 1.061 4283913810
0.077534199 0.52841598 1.067 4284769117
0.080720298 0.53040397 1.071 4284900703
0.083850197 0.53189802 1.074 4284242773
0.086915597 0.53289598 1.076 4283913293
0.089992002 0.53389502 1.0779999 4284307790
0.0929932 0.53439897 1.079 4284241998
0.096088797 0.53539801 1.081 4284570709
0.099103801 0.53590202 1.082 4284570709
0.102313 0.53739798 1.085 4284439123
0.105539 0.538894 1.0880001 4283781708
0.108681 0.539895 1.09 4284307538
0.111629 0.53990501 1.09 4284505170
0.114473 0.53942102 1.089 4283978826
0.117635 0.54042298 1.091 4283650121
0.120697 0.54092997 1.092 4284176466
0.123991 0.54242802 1.095 4284505431
0.126954 0.54244101 1.095 4284308568
0.130155 0.54344398 1.097 4284439899
0.13324501 0.543953 1.098 4284176727
0.13634101 0.54446203 1.099 4284308313
0.13931599 0.54447597 1.099 4284111189
0.14241999 0.54498601 1.1 4285229668
0.14566199 0.54599202 1.102 4285032544
0.148781 0.54650301 1.103 4284308819
0.151768 0.54651898 1.103 4284374351
0.155035 0.547526 1.105 4284703314
0.15802801 0.54754299 1.105 4284571728
0.16102099 0.54755998 1.105 4284703316
0.163866 0.54708302 1.104 4284176718
0.16715901 0.54809201 1.1059999 4285097821
0.17046399 0.54910201 1.108 4285097567
0.173467 0.54912102 1.108 4284176719
0.17631 0.54864502 1.107 4283913546
0.17931101 0.54866499 1.107 4284768595
0.182641 0.54967701 1.109 4284440144
0.18564799 0.54969901 1.109 4284571476
0.188825 0.55021602 1.11 4284769625
0.191663 0.549743 1.109 4285098335
0.19467101 0.549766 1.109 4285295200
0.19785801 0.55028498 1.11 4284504916
0.20141201 0.55179602 1.113 4284439123
-0.19753 0.52853501 1.072 4288126368
-0.194259 0.52752501 1.0700001 4287994267
-0.191356 0.52750301 1.0700001 4287599507
-0.18827701 0.52698803 1.069 4287006856
-0.185378 0.52696598 1.069 4287598993
-0.182138 0.52595901 1.067 4287862419
-0.17941301 0.52643198 1.068 4288059028
-0.17635299 0.52591902 1.067 4288059028
-0.173948 0.52737802 1.0700001 4287665040
-0.17088801 0.52686602 1.069 4288848546
-0.16830599 0.52783298 1.071 4288651169
-0.165095 0.526829 1.069 4287927960
-0.16219901 0.52681202 1.069 4288783014
-0.15930299 0.52679503 1.069 4289309358
-0.156554 0.52727097 1.0700001 4289244079
-0.15365601 0.52725399 1.0700001 4288454565
-0.150336 0.52575999 1.067 4289769909
-0.14717001 0.52475899 1.0650001 4289375151
-0.14428701 0.52474499 1.0650001 4288256925
-0.14166901 0.52571499 1.067 4288782755
-0.138781 0.52570099 1.067 4288255895
-0.135893 0.52568799 1.067 4289111204
-0.13275599 0.52468902 1.0650001 4289308583
-0.129995 0.52516901 1.066 4288650653
-0.127111 0.52515602 1.066 4288716446
-0.124343 0.52563697 1.067 4288584606
-0.121228 0.52463901 1.0650001 4287729814
-0.118125 0.52364302 1.063 4288914088
-0.115141 0.523139 1.062 4289046188
-0.112268 0.52312797 1.062 4288388773
-0.109395 0.52311802 1.062 4290296769
-0.106724 0.52409297 1.064 4289244081
-0.103943 0.52457601 1.0650001 4288784044
-0.100968 0.52407402 1.064 4288586665
-0.097998902 0.52357203 1.063 4289770939
-0.095035002 0.52307099 1.062 4289376182
-0.092163399 0.523063 1.062 4290494666
-0.089291997 0.523054 1.062 4288981427
-0.086339302 0.52255398 1.061 4290626252
-0.083470799 0.52254701 1.061 4290626249
-0.080450498 0.52155399 1.059 4290823628
-0.077367902 0.52007002 1.056 4291218386
-0.074442796 0.51957101 1.0549999 4291152593
-0.071523197 0.519072 1.054 4291547098
-0.068543904 0.51808101 1.052 4292073699
-0.065637998 0.51758301 1.051 4290626769
-0.062797301 0.51757699 1.051 4291021527
-0.059842698 0.51658702 1.049 4290692560
-0.0570076 0.51658201 1.049 4291219420
-0.054120999 0.51608503 1.048 4292074729
-0.051288798 0.51608002 1.048 4292535280
-0.0483642 0.515091 1.046 4291877350
-0.045450401 0.514103 1.044 4291942629
-0.042547598 0.51311398 1.0420001 4291679457
-0.039731801 0.513111 1.0420001 4291613664
-0.0368453 0.51212299 1.04 4291613664
-0.034002401 0.51162702 1.039 4291745250
-0.031164899 0.511132 1.038 4291942629
-0.0283328 0.51063699 1.0369999 4291612890
-0.025457 0.50915802 1.034 4291481304
-0.0226193 0.50817102 1.0319999 4290954960
-0.0197924 0.50718403 1.03 4290823374
-0.016992999 0.50669098 1.029 4290363077
-0.0141851 0.50570399 1.027 4290099905
-0.0113991 0.505211 1.026 4290494662
-0.00861861 0.50471801 1.025 4290625734
-0.0058377902 0.50373203 1.023 4290231490
-0.0030737999 0.50373203 1.023 4289638839
-0.00030951499 0.50323898 1.022 4289770939
0.00245177 0.50323999 1.022 4288915630
0.00521306 0.50323999 1.022 4288586665
0.0079743499 0.50323999 1.022 4289178802
0.0107357 0.503241 1.022 4288455079
0.013497 0.50324202 1.022 4288389286
0.016274201 0.50373602 1.023 4289244595
0.019038299 0.50373697 1.023 4287467409
0.021802399 0.503739 1.023 4287006856
0.0245905 0.504233 1.024 4286480512
0.027357301 0.50423503 1.024 4286546559
0.030124201 0.50423801 1.024 4286678144
0.032859001 0.503748 1.023 4286216824
0.035623301 0.50375098 1.023 4285624173
0.038500201 0.50523102 1.026 4285756014
0.041312899 0.50572699 1.027 4285295722
0.0441311 0.50622302 1.028 4285098343
0.046909101 0.50622702 1.028 4285099112
0.0497839 0.50721598 1.03 4285164905
0.052669499 0.508205 1.0319999 4285032805
0.055619702 0.50968701 1.035 4284769633
0.058699101 0.51215398 1.04 4284834910
0.0617465 0.51412898 1.044 4285032289
0.064939298 0.51708901 1.05 4284900189
0.067906402 0.51808 1.052 4284505947
0.071086198 0.52054799 1.057 4283650636
0.074153297 0.52203202 1.0599999 4283848015
0.077454597 0.524993 1.066 4284769117
0.080562398 0.52647799 1.069 4284900703
0.083764598 0.52845502 1.073 4284045649
0.086827002 0.52944797 1.075 4284045649
0.089900397 0.53043997 1.077 4284242512
0.0928123 0.53044897 1.077 4284176465
0.095991097 0.53193498 1.08 4284768603
0.098911501 0.53194398 1.08 4284308052
0.102209 0.53392297 1.084 4284439123
0.105432 0.53540999 1.087 4283913547
0.108571 0.53640503 1.089 4284307791
0.111516 0.53641498 1.089 4284439376
0.114357 0.53593302 1.0880001 4284176204
0.117408 0.53643698 1.089 4283715914
0.120354 0.536448 1.089 4284175951
0.123639 0.53793699 1.092 4284439638
0.12671 0.53844202 1.0930001 4284373845
0.130023 0.53993303 1.096 4284440154
0.132989 0.53994501 1.096 4284505433
0.13620301 0.54094398 1.098 4284176982
0.139175 0.54095799 1.098 4283913808
0.142406 0.54195702 1.1 4284966496
0.145647 0.54295701 1.102 4284900188
0.148766 0.543464 1.103 4284243026
0.151752 0.54347998 1.103 4284505683
0.155019 0.54448098 1.105 4284834902
0.158154 0.54499 1.1059999 4284440144
0.16100401 0.544514 1.105 4284834648
0.163849 0.544038 1.104 4284176718
0.16699 0.54454899 1.105 4285032028
0.17029101 0.54555202 1.107 4285097567
0.173291 0.54557103 1.107 4284110672
0.176291 0.54558998 1.107 4284044618
0.179291 0.54561001 1.107 4284570962
0.18262 0.54661602 1.109 4284571476
0.185627 0.54663599 1.109 4284439890
0.18863299 0.54665798 1.109 4284638039
0.191468 0.54618597 1.108 4284966749
0.194824 0.547194 1.11 4285558372
0.19801299 0.54771 1.1109999 4284570963
0.201207 0.54822701 1.112 4284439377
0.204408 0.54874402 1.113 4285163100
0.207242 0.54827499 1.112 4284833881
0.21026 0.54830003 1.112 4284373845
0.21308701 0.54783303 1.1109999 4284637017
0.216492 0.54884601 1.113 4285821291
0.219515 0.54887301 1.113 4285361254
0.222737 0.549393 1.114 4284769117
0.22576401 0.54942203 1.114 4285360740
0.22837999 0.548464 1.112 4286018669
0.23140199 0.54849398 1.112 4284571223
0.23421299 0.54803097 1.1109999 4285558118
0.237234 0.54806203 1.1109999 4284835165
0.24047101 0.54858702 1.112 4285229923
0.243277 0.54812598 1.1109999 4284769884
0.246521 0.54865301 1.112 4283915344
0.249098 0.54769897 1.11 4284506967
0.25234601 0.54822803 1.1109999 4285165158
0.25514099 0.54776901 1.11 4284836194
0.25793099 0.54731202 1.109 4285954422
0.26118699 0.54784203 1.11 4286086008
0.264449 0.548374 1.1109999 4285690996
0.267717 0.54890603 1.112 4286020215
0.270262 0.54795802 1.11 4285494131
0.27304199 0.54750401 1.109 4285823350
0.27581799 0.54705101 1.108 4286744451
0.27858901 0.54659897 1.107 4285230952
0.281102 0.545654 1.105 4285757296
0.28386101 0.54520398 1.104 4287006593
0.28687599 0.54524797 1.104 4286744452
0.29015499 0.54578799 1.105 4287270542
0.29370499 0.54682201 1.107 4287336337
0.296731 0.54686898 1.107 4287336851
0.29894599 0.54543501 1.104 4287797140
0.30169201 0.54499 1.103 4287994518
0.304158 0.54405099 1.101 4287139209
0.30745101 0.54459703 1.102 4287862418
0.309342 0.54267198 1.098 4288651934
0.31206501 0.54223001 1.097 4288059797
0.315072 0.54228401 1.097 4288388762
0.31778899 0.54184401 1.096 4287862418
0.32108799 0.542395 1.097 4288454555
0.32350799 0.54146302 1.095 4289112486
0.326215 0.541026 1.094 4288586655
0.32831699 0.53960198 1.091 4287994518
0.33131501 0.539662 1.091 4288060311
0.33400699 0.53922802 1.09 4289836722
0.336696 0.53879601 1.089 4289376171
0.33938101 0.53836399 1.0880001 4289244586
0.34206101 0.53793401 1.087 4289244071
0.344102 0.536515 1.084 4289178793
0.346129 0.535097 1.081 4289310125
0.34781799 0.53318501 1.077 4289310641
0.350788 0.53325301 1.077 4289179313
-0.19732299 0.52508301 1.071 4288323493
-0.194418 0.52506 1.071 4287862426
-0.191513 0.525038 1.071 4287598995
-0.188256 0.52403599 1.069 4286743684
-0.185357 0.52401501 1.069 4287796372
-0.18228801 0.52350497 1.068 4287796626
-0.179561 0.52397501 1.069 4288125591
-0.17649899 0.52346599 1.068 4288322202
-0.17409199 0.52491701 1.071 4287730065
-0.17103 0.52440798 1.0700001 4288914341
-0.16813099 0.524391 1.0700001 4288388256
-0.164923 0.52339298 1.068 4287796121
-0.16203 0.52337599 1.068 4288717737
-0.15928701 0.52384901 1.069 4289244081
-0.15653799 0.52432299 1.0700001 4289047216
-0.15364 0.52430803 1.0700001 4288257700
-0.15032101 0.52282202 1.067 4289836218
-0.147155 0.52182698 1.0650001 4289573044
-0.144408 0.52230299 1.066 4288388511
-0.141655 0.52277899 1.067 4288716962
-0.138767 0.52276498 1.067 4288124055
-0.13575201 0.52226198 1.066 4289045411
-0.132743 0.52175897 1.0650001 4289374122
-0.12998299 0.522237 1.066 4288584606
-0.12721799 0.52271402 1.067 4288781986
-0.124448 0.523193 1.068 4288453021
-0.121331 0.522201 1.066 4287992216
-0.118336 0.52170098 1.0650001 4288847525
-0.115238 0.52070999 1.063 4288782502
-0.112363 0.52069998 1.063 4288519844
-0.109385 0.52020001 1.062 4290427841
-0.106614 0.52068001 1.063 4289112493
-0.103739 0.52067101 1.063 4288784044
-0.10077 0.520172 1.062 4289113263
-0.097897999 0.520163 1.062 4289441974
-0.094937101 0.519665 1.061 4289441975
-0.092068501 0.51965702 1.061 4290692042
-0.089200102 0.51964903 1.061 4289112756
-0.0863318 0.519642 1.061 4290691788
-0.083463602 0.51963401 1.061 4290560456
-0.080443598 0.51864803 1.059 4290626249
-0.077434599 0.51766199 1.057 4291283925
-0.074436396 0.51667601 1.0549999 4291481304
-0.071449198 0.51569003 1.053 4292863215
-0.0685381 0.51519501 1.052 4291284699
-0.065569997 0.51420999 1.05 4290955734
-0.062732302 0.51420403 1.05 4290889425
-0.0598947 0.51419902 1.05 4290692046
-0.057057202 0.51419502 1.05 4291284699
-0.054168101 0.51370001 1.049 4291943143
-0.051186699 0.512227 1.046 4292008936
-0.048314001 0.511733 1.045 4291811041
-0.045403201 0.51075 1.043 4292139492
-0.0425441 0.51025701 1.0420001 4291876320
-0.039690498 0.50976402 1.041 4291613662
-0.036877699 0.50976098 1.041 4291744734
-0.0340323 0.50926799 1.04 4291942113
-0.0311924 0.50877601 1.039 4291678941
-0.0283032 0.50730503 1.036 4291547097
-0.025454899 0.50632298 1.034 4291612890
-0.022595599 0.504852 1.031 4290954960
-0.0197716 0.50387102 1.029 4290494409
-0.016975099 0.50338 1.028 4290231491
-0.0141839 0.50288898 1.027 4290034112
-0.0113871 0.50190902 1.025 4290428870
-0.0086179199 0.501908 1.025 4289968318
-0.0058316202 0.50043899 1.022 4290099390
-0.0030735601 0.50092798 1.023 4289375667
-0.00030979299 0.50092798 1.023 4289111981
0.00245157 0.50043797 1.022 4288586151
0.0052126399 0.50043899 1.022 4287599770
0.0079659102 0.49994901 1.021 4288586919
0.0107348 0.50044 1.022 4287928989
0.0134695 0.499461 1.02 4288060575
0.0162252 0.49946299 1.02 4287927960
0.0189809 0.49946401 1.02 4286874756
0.021779301 0.50044501 1.022 4286808963
0.024540501 0.50044698 1.022 4286151801
0.0273284 0.500938 1.023 4286678144
0.0301218 0.50142998 1.024 4286480765
0.032888498 0.50143301 1.024 4286019700
0.035655301 0.501436 1.024 4285427049
0.038459599 0.50192797 1.025 4285821807
0.041269299 0.50242102 1.026 4285624428
0.044127502 0.50340402 1.028 4285295463
0.046905201 0.50340801 1.028 4285295461
0.049828101 0.50488102 1.031 4285690219
0.052716099 0.50586402 1.033 4285295461
0.055668801 0.50733799 1.036 4285032289
0.058694199 0.50930101 1.04 4284637531
0.0617413 0.51126498 1.044 4285098082
0.064871997 0.51371902 1.049 4284637533
0.067965299 0.515683 1.053 4284571740
0.071147397 0.51813799 1.058 4283716431
0.074356802 0.52059197 1.063 4283913810
0.077520601 0.52255797 1.067 4284834910
0.080555402 0.52354401 1.069 4284769117
0.083679304 0.52502 1.072 4284308566
0.086819403 0.52649701 1.075 4283782222
0.089975998 0.527973 1.0779999 4284044879
0.0928903 0.52798098 1.0779999 4284308052
0.095893703 0.52847898 1.079 4284373845
0.098902598 0.52897799 1.08 4284308052
0.102106 0.53045601 1.0829999 4284505430
0.105228 0.53144503 1.085 4284308305
0.108362 0.53243399 1.087 4284636755
0.111199 0.53195399 1.086 4283518528
0.114346 0.53294402 1.0880001 4283847493
0.117397 0.53344399 1.089 4283781961
0.120453 0.53394502 1.09 4284307537
0.123628 0.53493601 1.092 4284637017
0.12693 0.53641701 1.095 4284439638
0.13012899 0.53740799 1.097 4284242259
0.13309699 0.53742099 1.097 4284571224
0.136066 0.53743398 1.097 4284308052
0.139034 0.53744698 1.097 4284439638
0.142262 0.53843999 1.099 4285360739
0.14536899 0.53894401 1.1 4285032028
0.148616 0.53993797 1.102 4283980109
0.151737 0.540443 1.103 4284439890
0.155003 0.54143798 1.105 4284900695
0.157995 0.54145402 1.105 4284505169
0.160987 0.54146999 1.105 4284900442
0.16398001 0.54148698 1.105 4284308305
0.167124 0.54199398 1.1059999 4284768856
0.17042699 0.542992 1.108 4284900188
0.173272 0.54251999 1.107 4284241744
0.176272 0.54253799 1.107 4283715653
0.179271 0.542557 1.107 4284373583
0.182436 0.54306698 1.108 4284834648
0.18543901 0.54308599 1.108 4284571476
0.188612 0.54359698 1.109 4284769625
0.19161899 0.54361802 1.109 4285098335
0.194977 0.54461998 1.1109999 4285360993
0.19799 0.54464197 1.1109999 4284637016
0.201003 0.54466498 1.1109999 4284505430
0.204201 0.54517901 1.112 4285295200
0.20721801 0.54520202 1.112 4284571477
0.210235 0.54522699 1.112 4283979856
0.213061 0.544761 1.1109999 4284637784
0.216077 0.54478699 1.1109999 4285953644
0.21948799 0.54579401 1.113 4285164130
0.22231001 0.545331 1.112 4284834910
0.22553299 0.54584801 1.113 4285492325
0.228145 0.54489601 1.1109999 4285887083
0.23116399 0.54492402 1.1109999 4284637016
0.233972 0.54446298 1.11 4285755498
0.23698901 0.54449302 1.11 4285294947
0.240439 0.54550499 1.112 4285295716
0.24324401 0.54504597 1.1109999 4284769884
0.24626601 0.54507798 1.1109999 4283981642
0.24884 0.54413003 1.109 4284244553
0.25185701 0.544164 1.109 4285099619
0.255335 0.54517901 1.1109999 4284836193
0.258127 0.54472399 1.11 4285888628
0.26115 0.54475999 1.11 4286217593
0.263697 0.54381502 1.108 4285362799
0.26695701 0.54434299 1.109 4286218107
0.26973599 0.54389 1.108 4285494899
0.27250999 0.54343802 1.107 4285823350
0.27528 0.54298699 1.1059999 4287270281
0.278045 0.54253697 1.105 4285428331
0.281059 0.542579 1.105 4286019698
0.28381801 0.54212999 1.104 4286743421
0.28657201 0.541682 1.103 4286743938
0.28984699 0.54221702 1.104 4287335821
0.292597 0.54177099 1.103 4287599254
0.29561201 0.54181701 1.103 4287533461
0.298085 0.54088098 1.101 4287533716
0.30109599 0.54092902 1.101 4288322716
0.30383199 0.54048598 1.1 4287401868
0.306842 0.54053599 1.1 4287862419
0.308727 0.53862101 1.096 4288388762
0.31144401 0.53818101 1.095 4287862419
0.31444401 0.53823298 1.095 4288520348
0.31744501 0.53828698 1.095 4287862418
0.320447 0.53834099 1.095 4288126104
0.32286 0.53741401 1.0930001 4289112486
0.32526299 0.53648698 1.091 4288323484
0.32765701 0.53556103 1.089 4288125591
0.33064801 0.53561997 1.089 4288323484
0.33364001 0.53567898 1.089 4290099895
0.33632499 0.53524798 1.0880001 4289441965
0.33900499 0.53481799 1.087 4289113000
0.34136701 0.53389698 1.085 4288586142
0.34308499 0.53199297 1.081 4289178539
0.34478199 0.53008997 1.077 4289375918
0.34678099 0.52867901 1.074 4289442227
0.34974301 0.52874601 1.074 4289310642
0.35172001 0.52733803 1.071 4290035138
0.353021 0.52494502 1.066 4289771966
0.35329399 0.52107602 1.058 4290166722
0.355207 0.519669 1.0549999 4290166207
0.356767 0.51777101 1.051 4289771192
0.35967401 0.51784497 1.051 4289771446
0.36189401 0.51693398 1.049 4289705137
0.36340901 0.51503903 1.045 4287928212
0.36560401 0.51413 1.043 4287467660
0.36814401 0.51371503 1.0420001 4287270795
0.37103501 0.51379502 1.0420001 4287270795
0.37392899 0.51387602 1.0420001 4286284414
0.37863299 0.51642501 1.0470001 4285363566
0.38446 0.52045602 1.0549999 4284705636
0.391435 0.52596998 1.066 4284244571
0.40254399 0.53691602 1.0880001 4283717713
0.41936901 0.55527103 1.125 4283388233
0.43377301 0.57017797 1.155 4282796096
0.44115901 0.57571101 1.166 4283190338
0.445559 0.57729697 1.169 4282795835
0.448827 0.57740402 1.169 4282532661
0.45248401 0.57800603 1.17 4282532915
0.45615 0.57861102 1.171 4282927673
0.46021599 0.57971102 1.173 4282467122
0.46390101 0.58032 1.174 4282664761
0.46759501 0.58093101 1.175 4282467382
0.47049499 0.58055502 1.174 4282796347
0.47379699 0.58067602 1.174 4281875499
0.47750801 0.58129299 1.175 4281875499
-0.196932 0.52115101 1.069 4288126114
-0.194033 0.52112901 1.069 4287533461
-0.19149099 0.52208298 1.071 4287467409
-0.188411 0.52157497 1.0700001 4287401614
-0.185684 0.52204198 1.071 4287598993
-0.18261001 0.52153498 1.0700001 4287598993
-0.179878 0.522003 1.071 4287862165
-0.176645 0.52100903 1.069 4287796374
-0.174073 0.52196598 1.071 4287598995
-0.171012 0.52146101 1.0700001 4288651428
-0.16795599 0.52095598 1.069 4288454051
-0.164906 0.52045202 1.068 4287993500
-0.16201399 0.52043498 1.068 4288455080
-0.15912101 0.520419 1.068 4288915631
-0.15623 0.52040398 1.068 4289376182
-0.15348201 0.52087599 1.069 4288586665
-0.150447 0.520374 1.068 4290033597
-0.14741699 0.51987201 1.067 4289112493
-0.144529 0.519858 1.067 4288125339
-0.141642 0.51984501 1.067 4288782755
-0.138754 0.51983202 1.067 4288189848
-0.135739 0.51933199 1.066 4288847778
-0.13298 0.51980603 1.067 4289242536
-0.13009299 0.51979399 1.067 4288453020
-0.127206 0.51978302 1.067 4288650400
-0.124203 0.51928401 1.066 4288584607
-0.121092 0.51829898 1.064 4288255388
-0.118103 0.51780099 1.063 4288584353
-0.11512 0.517304 1.062 4288979111
-0.112459 0.51826799 1.064 4288650916
-0.109479 0.51777101 1.063 4290296253
-0.106504 0.51727498 1.062 4289309358
-0.10373 0.51775301 1.063 4288915884
-0.100856 0.517744 1.063 4289178286
-0.097981803 0.51773602 1.063 4289902009
-0.094839498 0.516267 1.0599999 4289376181
-0.091973901 0.51625901 1.0599999 4289705147
-0.089108497 0.51625103 1.0599999 4288652459
-0.086243197 0.51624399 1.0599999 4290626249
-0.083378002 0.51623702 1.0599999 4290691528
-0.080361001 0.515257 1.058 4290560456
-0.077428199 0.514763 1.057 4291415512
-0.074430302 0.51378298 1.0549999 4291415769
-0.071579099 0.51377702 1.0549999 4291811043
-0.0686628 0.51328498 1.054 4291745764
-0.065627202 0.51181799 1.051 4291218904
-0.062727302 0.51132601 1.05 4290757839
-0.059889901 0.51132101 1.05 4290758353
-0.057107002 0.51180398 1.051 4291218904
-0.054163799 0.51082599 1.049 4291877350
-0.0512316 0.509848 1.0470001 4292140522
-0.0482639 0.50838298 1.044 4291811296
-0.045399599 0.50789201 1.043 4291942112
-0.0425408 0.507402 1.0420001 4291678941
-0.039687399 0.50691199 1.041 4291810526
-0.036839399 0.50642198 1.04 4291678940
-0.0340297 0.506419 1.04 4291547354
-0.03119 0.50593001 1.039 4291284182
-0.028301001 0.50446701 1.036 4290889421
-0.025428301 0.50300401 1.033 4291086546
-0.0225938 0.50202799 1.031 4290099652
-0.019789301 0.50154001 1.03 4289376186
-0.0170068 0.50153798 1.03 4288784048
-0.0142105 0.50105 1.029 4288849841
-0.0114085 0.50007498 1.027 4289047217
-0.0086172596 0.49910101 1.025 4289770940
-0.0058368798 0.498126 1.023 4289310388
-0.0030763301 0.498613 1.024 4289573046
-0.00031007201 0.498613 1.024 4288914602
0.0024585801 0.4991 1.025 4287862426
0.0052224402 0.498613 1.024 4287994782
0.0079731001 0.49764001 1.022 4287994782
0.0107235 0.497154 1.021 4287928989
0.0134552 0.49618101 1.0190001 4287468438
0.0162239 0.49666899 1.02 4287467409
0.018998099 0.49715701 1.021 4286019963
0.021756301 0.497159 1.021 4285887861
0.0244906 0.49667299 1.02 4285558894
0.027272901 0.49716201 1.021 4285164391
0.030090099 0.49813801 1.023 4284638047
0.032885998 0.49862799 1.024 4284440668
0.035687301 0.49911699 1.025 4284176980
0.038494099 0.499607 1.026 4284834396
0.041266099 0.49961001 1.026 4284965982
0.044081099 0.50010002 1.027 4284637531
0.0468559 0.50010401 1.027 4284900703
0.049775802 0.50156802 1.03 4285295461
0.052660901 0.50254601 1.0319999 4285229668
0.055610701 0.50401098 1.035 4284966496
0.0586331 0.50596398 1.039 4284966496
0.061736401 0.508403 1.044 4284900705
0.064866804 0.51084298 1.049 4284703326
0.067959704 0.51279598 1.053 4284571740
0.071141601 0.51523697 1.058 4283453259
0.074420601 0.51816499 1.064 4283979601
0.077586897 0.52011901 1.068 4284834910
0.080624104 0.52109897 1.0700001 4284703324
0.0836723 0.52208 1.072 4283716429
0.086731397 0.52306098 1.074 4283584843
0.0898849 0.52452898 1.077 4283782222
0.092882402 0.525024 1.0779999 4284111187
0.0958855 0.52551901 1.079 4284177494
0.098985702 0.526501 1.081 4284177749
0.102097 0.527484 1.0829999 4284572246
0.105219 0.528467 1.085 4284177486
0.108252 0.52896303 1.086 4284177225
0.111189 0.52897203 1.086 4283519295
0.114231 0.52946901 1.087 4283453247
0.117278 0.529966 1.0880001 4283716167
0.120442 0.53095102 1.09 4284242512
0.123617 0.53193599 1.092 4284242259
0.126802 0.53292102 1.094 4284176466
0.129999 0.533907 1.096 4284373845
0.132842 0.53343201 1.095 4284373845
0.135929 0.53393102 1.096 4283979087
0.138895 0.53394401 1.096 4284176465
0.142249 0.53541899 1.099 4284966234
0.145355 0.53591901 1.1 4284374097
0.148467 0.53641999 1.101 4284242511
0.151584 0.53692198 1.102 4284505683
0.15484799 0.537911 1.104 4284636755
0.15798 0.538414 1.105 4284768342
0.160971 0.53842902 1.105 4284768342
0.16381501 0.53795803 1.104 4284570962
0.167107 0.53894901 1.1059999 4284899927
0.170256 0.53945303 1.107 4284570962
0.173411 0.539958 1.108 4284439630
0.17625301 0.53948802 1.107 4284176458
0.17908999 0.53901899 1.1059999 4284637009
0.182252 0.53952497 1.107 4284374349
0.18541899 0.54003203 1.108 4284769877
0.188592 0.54053903 1.109 4284704084
0.191771 0.54104698 1.11 4284967518
0.19495501 0.541556 1.1109999 4285230690
0.19796801 0.54157698 1.1109999 4284374359
0.2008 0.54111099 1.11 4284242773
0.20381001 0.541134 1.11 4285360993
0.20682099 0.54115701 1.11 4284834649
0.210022 0.541668 1.1109999 4284177488
0.212845 0.54120499 1.11 4284703830
0.216051 0.54171699 1.1109999 4285559141
0.219264 0.54223001 1.112 4285427300
0.22228301 0.542256 1.112 4285164130
0.2251 0.54179502 1.1109999 4285426532
0.228117 0.54182303 1.1109999 4285755498
0.231135 0.54185098 1.1109999 4284505431
0.234154 0.541879 1.1109999 4285623912
0.236959 0.541421 1.11 4285229154
0.24019299 0.54193801 1.1109999 4285558888
0.242994 0.54148102 1.11 4284900956
0.246234 0.542 1.1109999 4284178253
0.24903101 0.54154402 1.11 4284243793
0.25182399 0.541089 1.109 4285625448
0.25507101 0.54161102 1.11 4284704607
0.25809199 0.54164499 1.11 4285625710
0.261114 0.54167998 1.11 4286415226
0.263661 0.540739 1.108 4285494384
0.26643801 0.54028797 1.107 4286481279
0.269454 0.54032499 1.107 4285560692
0.27222499 0.53987497 1.1059999 4285758073
0.27524 0.53991401 1.1059999 4287139209
0.27750099 0.53848898 1.103 4285757810
0.28076401 0.53901702 1.104 4285822319
0.28326201 0.538082 1.102 4286282870
0.28626901 0.53812402 1.102 4286546559
0.289278 0.538167 1.102 4287401614
0.29228699 0.53821099 1.102 4287664788
0.29529801 0.53825599 1.102 4287533716
0.29803899 0.53781301 1.101 4287401614
0.30104899 0.53785902 1.101 4288191384
0.304059 0.537907 1.101 4287533454
0.307071 0.537956 1.101 4287862165
0.309239 0.53653902 1.098 4288585372
0.31110799 0.53463501 1.094 4287994005
0.31381699 0.53419697 1.0930001 4288651935
0.316522 0.53376001 1.092 4287665553
0.31980699 0.53430301 1.0930001 4288257944
0.32250899 0.53386801 1.092 4289112999
0.325207 0.53343397 1.091 4288784034
0.32759899 0.53251302 1.089 4287862933
0.33028501 0.53208101 1.0880001 4288257691
0.33357999 0.53262901 1.089 4290034102
0.33626401 0.53219903 1.0880001 4289639344
0.338943 0.53176999 1.087 4289178539
0.34099001 0.53036499 1.084 4289441197
0.342704 0.52846998 1.08 4289178539
0.34439701 0.52657598 1.076 4289375918
0.346715 0.525662 1.074 4289574067
0.34935001 0.52523899 1.073 4289244848
0.35132399 0.52383697 1.0700001 4290100415
0.35262099 0.52145702 1.0650001 4289837242
0.35322401 0.518098 1.058 4290232000
0.35479999 0.51620901 1.054 4290297536
0.35669401 0.51481098 1.051 4289771446
0.35925901 0.51439297 1.05 4289639860
0.36078399 0.51250601 1.046 4289902262
0.36298499 0.51160002 1.044 4288323230
0.36517701 0.51069599 1.0420001 4287730833
0.36771199 0.51028198 1.041 4286941317
0.37059999 0.51036 1.041 4287204489
0.37384799 0.51093 1.0420001 4286349693
0.37854999 0.51346302 1.0470001 4285362798
0.384011 0.51697999 1.054 4285034087
0.39098099 0.522461 1.0650001 4284112985
0.40208301 0.53334302 1.087 4284046678
0.41852799 0.55110002 1.123 4283980370
0.43292201 0.56592 1.153 4283190340
0.44105601 0.572402 1.166 4283190338
0.44507399 0.57348597 1.168 4282926651
0.44833699 0.57359099 1.168 4282334768
0.45237601 0.57467902 1.17 4282597938
0.45565 0.57478797 1.17 4282795572
0.45971099 0.575881 1.1720001 4282664501
0.46339199 0.57648498 1.173 4282796087
0.46708 0.57709002 1.174 4281941038
0.47077799 0.57769799 1.175 4282730554
0.47408 0.57781702 1.175 4282138671
0.47738501 0.57793701 1.175 4281743399
0.479875 0.57707602 1.173 4282335021
0.482357 0.57621598 1.171 4282532661
0.48524499 0.57585001 1.17 4282531633
0.48771399 0.57499403 1.168 4283057723
0.490594 0.57463199 1.1670001 4282334254
0.49431899 0.57525599 1.168 4282334507
0.49805301 0.57588398 1.169 4282137642
-0.19999699 0.518709 1.0700001 4289441974
-0.19690999 0.51820302 1.069 4287994782
-0.194011 0.51818198 1.069 4287402130
-0.191113 0.518161 1.069 4287467923
-0.188567 0.51911002 1.071 4287401616
-0.185664 0.51909101 1.071 4287796374
-0.182761 0.519072 1.071 4287730581
-0.179859 0.51905298 1.071 4287796374
-0.176957 0.51903498 1.071 4287927960
-0.174218 0.51950198 1.072 4287796374
-0.171314 0.51948398 1.072 4288848807
-0.168254 0.51898301 1.071 4288848807
-0.16504399 0.51799703 1.069 4288125086
-0.161998 0.517497 1.068 4288980909
-0.159106 0.51748198 1.068 4288915630
-0.156214 0.51746702 1.068 4289376181
-0.153467 0.51793599 1.069 4288586665
-0.15043201 0.51743799 1.068 4289902011
-0.147542 0.51742399 1.068 4289441460
-0.144651 0.51740998 1.068 4288519328
-0.141496 0.51642799 1.066 4288848293
-0.138741 0.5169 1.067 4288453020
-0.1356 0.51591903 1.0650001 4289110950
-0.13296799 0.51687598 1.067 4289176743
-0.129959 0.51638001 1.066 4288650653
-0.127076 0.51636899 1.066 4288518813
-0.124076 0.51587301 1.0650001 4288781986
-0.121081 0.515378 1.064 4288387228
-0.118093 0.514884 1.063 4288584607
-0.11511 0.51438999 1.062 4288782500
-0.112344 0.51486403 1.063 4288716707
-0.109469 0.51485503 1.063 4290493373
-0.106395 0.51387799 1.061 4289375406
-0.103624 0.51435298 1.062 4289309613
-0.100752 0.51434499 1.062 4289375406
-0.097973697 0.51482099 1.063 4289835702
-0.094831698 0.51336002 1.0599999 4289572530
-0.091879703 0.512869 1.059 4289836216
-0.089017197 0.51286101 1.059 4289046702
-0.086073503 0.51236999 1.058 4291019978
-0.083214 0.51236397 1.058 4290954185
-0.080202699 0.51138902 1.056 4291218132
-0.077348799 0.51138198 1.056 4291283926
-0.074353904 0.51040798 1.054 4291482076
-0.071505703 0.51040298 1.054 4291679455
-0.068592303 0.50991303 1.053 4291811041
-0.065622099 0.50893903 1.051 4291153366
-0.0627224 0.50844997 1.05 4290560459
-0.059885301 0.50844598 1.05 4290495436
-0.057048298 0.50844097 1.05 4291153366
-0.054108098 0.507469 1.048 4291745248
-0.051178701 0.50649601 1.046 4291547869
-0.048306499 0.50600803 1.045 4291548124
-0.045483202 0.50600499 1.045 4291152596
-0.042578399 0.50503302 1.043 4291218390
-0.039722499 0.50454599 1.0420001 4291218390
-0.0368721 0.50405902 1.041 4291152596
-0.034059901 0.50405598 1.041 4291021010
-0.0312177 0.50357002 1.04 4290954960
-0.0282989 0.50163102 1.036 4291283925
-0.0254265 0.50017601 1.033 4291678683
-0.0225922 0.49920601 1.031 4290626253
-0.0198071 0.49920499 1.031 4290297287
-0.017005499 0.49871901 1.03 4290297284
-0.0141956 0.49775001 1.028 4289770943
-0.0113965 0.49678001 1.026 4290363080
-0.00861663 0.49629599 1.025 4290560713
-0.00583645 0.495327 1.023 4290165698
-0.0030731 0.49532601 1.023 4290231491
-0.00031005 0.49581 1.024 4289243567
0.0024560001 0.49581 1.024 4288848809
0.0052220598 0.49581099 1.024 4288520358
0.0079803197 0.495327 1.023 4288915630
0.0107227 0.49435899 1.021 4288718251
0.0134675 0.49387601 1.02 4288455079
0.0162069 0.493393 1.0190001 4288651942
0.018996701 0.494362 1.021 4286940810
0.021733399 0.49388 1.02 4286151033
0.024488799 0.49388099 1.02 4286216824
0.027244201 0.49388301 1.02 4286874754
0.030058401 0.494854 1.022 4286283387
0.032883499 0.49582401 1.024 4285887859
0.0356846 0.49631101 1.025 4285558380
0.038453698 0.49631399 1.025 4286150772
0.041262999 0.49680099 1.026 4285558119
0.044077799 0.49728799 1.027 4284571224
0.046898 0.497776 1.028 4284505431
0.049820401 0.49923199 1.031 4284571224
0.052707899 0.50020403 1.033 4284242773
0.055713899 0.50214499 1.0369999 4284308566
0.058685001 0.50360203 1.04 4284637531
0.061731599 0.50554401 1.044 4284505945
0.064799897 0.50748599 1.048 4284505945
0.067954503 0.50991201 1.053 4284505945
0.071068801 0.51185399 1.057 4283387464
0.074414797 0.51524901 1.064 4283914063
0.077508099 0.51670802 1.067 4284505945
0.080617703 0.51816702 1.0700001 4284637531
0.083587602 0.51865798 1.071 4284242259
0.086643703 0.519633 1.073 4284110673
0.089710698 0.52060801 1.075 4283979087
0.092702597 0.52109998 1.076 4284110673
0.095788799 0.52207601 1.0779999 4284177233
0.098977603 0.52353698 1.081 4284243542
0.102088 0.52451402 1.0829999 4284309074
0.10521 0.525491 1.085 4283848775
0.108243 0.52598399 1.086 4284111432
0.11118 0.52599299 1.086 4283190330
0.114221 0.52648699 1.087 4283650626
0.117268 0.526981 1.0880001 4283716167
0.120542 0.52844399 1.091 4284110672
0.123606 0.52893901 1.092 4284505431
0.126791 0.52991802 1.094 4284702810
0.129869 0.53041399 1.095 4284242259
0.132709 0.52994102 1.094 4284439638
0.13566899 0.529953 1.094 4284242259
0.13875499 0.53044897 1.095 4284044879
0.141977 0.53143102 1.097 4285097820
0.145209 0.53241199 1.099 4284966488
0.14831799 0.53290999 1.1 4284637523
0.15143301 0.53340799 1.101 4284505423
0.15469299 0.534392 1.103 4284768595
0.157822 0.53489101 1.104 4284702549
0.16080999 0.53490603 1.104 4284834135
0.163799 0.53492099 1.104 4284702548
0.16693901 0.53542203 1.105 4284900181
0.170239 0.53640699 1.107 4284571216
0.173237 0.53642398 1.107 4284176456
0.17623501 0.53644103 1.107 4283847491
0.17891 0.53548998 1.105 4284702800
0.18206801 0.53599203 1.1059999 4284176970
0.185232 0.53649598 1.107 4284572498
0.188742 0.53796899 1.11 4284441172
0.19192301 0.53847301 1.1109999 4284835932
0.194759 0.53800899 1.11 4284901725
0.19758999 0.53754503 1.109 4284375128
0.200416 0.537081 1.108 4284440407
0.203421 0.537103 1.108 4285098590
0.20661201 0.53760999 1.109 4283980109
0.20980901 0.538118 1.11 4283782730
0.21281999 0.53814101 1.11 4284572244
0.21602701 0.53864998 1.1109999 4285361760
0.219239 0.53916001 1.112 4285295969
0.222257 0.53918499 1.112 4284967004
0.22547901 0.53969598 1.113 4285361507
0.22850101 0.53972203 1.113 4285821291
0.23152301 0.53974998 1.113 4284505431
0.234336 0.53929198 1.112 4285821291
0.23693 0.538351 1.11 4285492326
0.23994701 0.53838003 1.11 4285296228
0.243182 0.53889501 1.1109999 4285098590
0.24620301 0.53892499 1.1109999 4283914830
0.248999 0.53847098 1.11 4284243795
0.251564 0.53753299 1.108 4285296997
0.25503799 0.538535 1.11 4284704861
0.25805801 0.53856897 1.11 4285625710
0.26131499 0.53908801 1.1109999 4286020468
0.26338699 0.53718197 1.107 4285362798
0.26616099 0.53673202 1.1059999 4286744451
0.26868701 0.535797 1.104 4285560178
0.27169499 0.53583401 1.104 4285889657
0.27495199 0.53635699 1.105 4287401867
0.27796501 0.53639603 1.105 4285888628
0.28097799 0.53643501 1.105 4286348410
0.28373501 0.53599 1.104 4286874754
0.28648701 0.535546 1.103 4286809731
0.289235 0.53510201 1.102 4287335821
0.291713 0.53417301 1.1 4287730581
0.294985 0.53470302 1.101 4287731095
0.297452 0.53377599 1.099 4287467407
0.30072901 0.534307 1.1 4288322970
0.30346 0.53386801 1.099 4287467661
0.306465 0.53391498 1.099 4287993235
0.30862701 0.53250599 1.096 4288716960
0.311342 0.53206903 1.095 4288124823
0.314053 0.53163302 1.094 4288586142
0.31676 0.53119802 1.0930001 4287862418
0.319462 0.53076398 1.092 4288126358
0.32245499 0.53081697 1.092 4289178792
0.324853 0.529899 1.09 4288718241
0.32754299 0.529468 1.089 4288455069
0.329925 0.52855098 1.087 4288323484
0.33321601 0.52909499 1.0880001 4290034101
0.335895 0.52866602 1.087 4289508272
0.33888301 0.52872598 1.087 4289178793
0.34092799 0.527327 1.084 4289046953
0.342958 0.52592897 1.081 4289178025
0.34465301 0.52404499 1.077 4289441711
0.34665099 0.52264899 1.074 4289442479
0.348308 0.52076602 1.0700001 4289245102
0.35060099 0.519858 1.068 4290166207
0.352222 0.51797801 1.064 4290166207
0.35348901 0.51561099 1.059 4290297794
0.35473001 0.51324499 1.054 4290231744
0.35628501 0.51136601 1.05 4289770678
0.35850301 0.51046199 1.048 4289770678
0.36002201 0.50858498 1.044 4289046953
0.36256301 0.50817102 1.043 4286941577
0.36510101 0.50775802 1.0420001 4286414973
0.367989 0.507833 1.0420001 4284901734
0.370166 0.506935 1.04 4286020214
0.37340999 0.50749999 1.041 4285691249
0.37846899 0.51050502 1.0470001 4284046424
0.38465601 0.51497501 1.056 4284507229
0.39162901 0.52042401 1.067 4284638815
0.401254 0.52929097 1.085 4284045908
0.41619799 0.54499298 1.117 4283454026
0.430197 0.559237 1.146 4282993473
0.439821 0.56763202 1.163 4282533177
0.44459 0.56968498 1.1670001 4282861626
0.448616 0.57076401 1.169 4282598708
0.45227 0.57135701 1.17 4282401075
0.456321 0.57244003 1.1720001 4282532145
0.459209 0.57205999 1.171 4282598708
0.46288401 0.57265902 1.1720001 4283059005
0.46537501 0.57179302 1.17 4282138417
0.46985999 0.57337397 1.173 4282598454
0.47275099 0.57300103 1.1720001 4282532915
0.476046 0.57311898 1.1720001 4281743398
0.478526 0.57226098 1.17 4282269228
0.481821 0.57238299 1.17 4282663986
0.48470399 0.57201701 1.169 4282729010
0.48800299 0.57214302 1.169 4282531631
0.49088499 0.57178199 1.168 4282400308
0.495033 0.572891 1.17 4282663219
0.498344 0.57302397 1.17 4282268721
-0.197073 0.51573902 1.0700001 4287139219
-0.19399101 0.51523602 1.069 4285889406
-0.19127201 0.51569802 1.0700001 4286151808
-0.188548 0.51616102 1.071 4286151294
-0.185818 0.51662397 1.072 4286348673
-0.182743 0.516123 1.071 4286348928
-0.179673 0.51562297 1.0700001 4286414721
-0.17660899 0.51512402 1.069 4286677893
-0.17403799 0.51607102 1.071 4286809479
-0.171138 0.51605397 1.071 4287467154
-0.168237 0.516038 1.071 4287336082
-0.16518299 0.51554 1.0700001 4286809740
-0.16213401 0.51504302 1.069 4288059807
-0.159091 0.51454598 1.068 4287994014
-0.15605401 0.51405001 1.067 4288323493
-0.153309 0.51451802 1.068 4288126114
-0.15055899 0.51498598 1.069 4289112495
-0.14752799 0.51449001 1.068 4288454565
-0.144503 0.51399601 1.067 4288256156
-0.14135 0.51301998 1.0650001 4288256156
-0.13872901 0.51397097 1.067 4288255641
-0.13571499 0.51347798 1.066 4288584606
-0.13283101 0.513466 1.066 4288913825
-0.129704 0.512492 1.064 4288716446
-0.126826 0.51248097 1.064 4287992469
-0.123832 0.511989 1.063 4288124055
-0.120958 0.51197898 1.063 4288058263
-0.118083 0.51196897 1.063 4288716192
-0.1151 0.51147801 1.062 4288585121
-0.112334 0.51195002 1.063 4288651169
-0.10946 0.51194102 1.063 4290295994
-0.106587 0.51193303 1.063 4289440685
-0.103908 0.512887 1.0650001 4289638064
-0.100934 0.512398 1.064 4289177513
-0.098058097 0.51239002 1.064 4289967029
-0.094913699 0.51093799 1.061 4289375406
-0.092046 0.51093102 1.061 4289704371
-0.089094304 0.51044202 1.0599999 4289243565
-0.086066902 0.50947201 1.058 4290888392
-0.0832863 0.50994802 1.059 4290691013
-0.080272503 0.50897801 1.057 4290954960
-0.077416196 0.508973 1.057 4290823375
-0.074559897 0.50896698 1.057 4291218390
-0.071635999 0.50848001 1.056 4291021525
-0.068717502 0.50799298 1.0549999 4290560974
-0.065679602 0.50654399 1.052 4290099908
-0.062837303 0.50653899 1.052 4289771197
-0.059937999 0.50605297 1.051 4290034115
-0.0570985 0.50604898 1.051 4290495436
-0.0541558 0.50508201 1.049 4291021525
-0.051224001 0.504116 1.0470001 4291350490
-0.048303001 0.50314897 1.045 4291416538
-0.045480002 0.50314599 1.045 4291613147
-0.0425345 0.50169802 1.0420001 4291942113
-0.039719701 0.50169498 1.0420001 4291876320
-0.036834098 0.50072998 1.04 4291678941
-0.034024701 0.500727 1.04 4292007649
-0.0311854 0.50024402 1.039 4291349719
-0.0283242 0.49927899 1.0369999 4291876063
-0.0254493 0.497832 1.034 4291744476
-0.0226344 0.49734899 1.033 4290823632
-0.0198249 0.49686599 1.0319999 4290626252
-0.0170209 0.49638399 1.031 4290099905
-0.0141946 0.49493799 1.028 4289968576
-0.0113957 0.493974 1.026 4289968322
-0.0086244298 0.493974 1.026 4290494920
-0.0058417502 0.49301001 1.024 4289968322
-0.00307589 0.49301001 1.024 4290231491
-0.000310028 0.49301001 1.024 4289375667
0.0024582299 0.49349099 1.025 4288915114
0.00522679 0.49349201 1.025 4288455079
0.0079875598 0.493011 1.024 4289178802
0.0107219 0.49156699 1.021 4288784302
0.0134665 0.49108601 1.02 4288718509
0.0162216 0.49108699 1.02 4288520358
0.0190139 0.49205101 1.022 4287072910
0.021753199 0.49157101 1.021 4286217342
0.024535101 0.49205399 1.022 4286085238
0.027295699 0.49205601 1.022 4286479996
0.0301151 0.49302101 1.024 4286282619
0.032913301 0.493505 1.025 4285887861
0.0357517 0.49447 1.027 4285493103
0.038563501 0.49495399 1.028 4286347896
0.0413405 0.494957 1.028 4285690219
0.044117499 0.49496001 1.028 4284769117
0.046849001 0.49448201 1.027 4285295461
0.049768399 0.49592999 1.03 4285361254
0.0527041 0.49737799 1.033 4285163875
0.055709802 0.49930701 1.0369999 4284440154
0.058680698 0.50075603 1.04 4284703324
0.061845299 0.503649 1.046 4284637531
0.064856902 0.50509799 1.049 4283715915
0.067949399 0.507029 1.053 4283518536
0.070996299 0.508479 1.056 4283058499
0.074269302 0.51137298 1.062 4283651405
0.077356897 0.51282299 1.0650001 4284571993
0.080536202 0.51475501 1.069 4284571993
0.083659202 0.51620603 1.072 4284044879
0.086636998 0.51669401 1.073 4284044366
0.0896203 0.51718199 1.074 4284373330
0.092609197 0.51767099 1.075 4284242258
0.095781296 0.51912302 1.0779999 4284571991
0.098969698 0.52057499 1.081 4284703832
0.102269 0.52250898 1.085 4284440144
0.105396 0.52348 1.087 4284439628
0.108534 0.52445197 1.089 4284242249
0.111375 0.52397901 1.0880001 4283452733
0.114317 0.52398801 1.0880001 4283912779
0.117259 0.52399701 1.0880001 4283715400
0.120532 0.52545202 1.091 4284044879
0.123709 0.526425 1.0930001 4284505945
0.126664 0.52643597 1.0930001 4284440152
0.129739 0.52692801 1.094 4284374359
0.132698 0.52693897 1.094 4284308566
0.13578101 0.52743202 1.095 4283913808
0.138743 0.52744401 1.095 4284242773
0.141964 0.52841902 1.097 4284900188
0.14519601 0.52939498 1.099 4284439891
0.14816999 0.52940798 1.099 4284439891
0.151419 0.53038502 1.101 4284505423
0.154679 0.531362 1.103 4284637009
0.15780701 0.53185803 1.104 4284637269
0.160795 0.53187197 1.104 4284899927
0.163932 0.53236902 1.105 4284768341
0.166923 0.53238398 1.105 4284702548
0.17006899 0.53288198 1.1059999 4284702802
0.17306399 0.53289801 1.1059999 4284439628
0.17605899 0.532915 1.1059999 4284110663
0.179216 0.53341299 1.107 4284965974
0.18221501 0.53343099 1.107 4284966741
0.185381 0.53393102 1.108 4284309326
0.188723 0.534913 1.11 4284703830
0.19190399 0.53541398 1.1109999 4284967518
0.194564 0.53447002 1.109 4284835932
0.197391 0.53400803 1.108 4284309335
0.200214 0.53354698 1.107 4284243542
0.203766 0.53501397 1.11 4285230176
0.206403 0.53407103 1.108 4284703832
0.20959701 0.534576 1.109 4283716682
0.212414 0.53411603 1.108 4284703062
0.215808 0.53510398 1.11 4285032542
0.21921401 0.53609198 1.112 4285032542
0.222232 0.536116 1.112 4284966749
0.22525001 0.53614098 1.112 4285229923
0.228269 0.53616703 1.112 4285361254
0.23149601 0.53667599 1.113 4284637531
0.234308 0.53622001 1.112 4285361254
0.236902 0.53528303 1.11 4285032289
0.23991799 0.535312 1.11 4285230435
0.242934 0.53534001 1.11 4284703577
0.246172 0.53585202 1.1109999 4284178002
0.24896801 0.53539997 1.11 4284704346
0.25176001 0.534949 1.109 4285099618
0.25454599 0.53449798 1.108 4284573789
0.25802499 0.53549498 1.11 4285297258
0.26104501 0.535528 1.11 4286218361
0.26382899 0.53508002 1.109 4285625970
0.26612601 0.53366703 1.1059999 4286875524
0.26889399 0.53321898 1.105 4286020475
0.271658 0.53277302 1.104 4286217854
0.27491501 0.533292 1.105 4287401868
0.277926 0.53333002 1.105 4285559664
0.28119299 0.53385103 1.1059999 4285888629
0.283438 0.53244197 1.103 4287072903
0.28618601 0.53199899 1.102 4286941317
0.28893101 0.53155702 1.101 4287205003
0.29193601 0.53159899 1.101 4287797140
0.29521 0.53212398 1.102 4288323484
0.29794899 0.53168499 1.101 4287599761
0.30095699 0.53172898 1.101 4287797140
0.303413 0.53080797 1.099 4287401867
0.30613899 0.53037101 1.098 4287862418
0.308579 0.52945203 1.096 4288389277
0.31129301 0.52901697 1.095 4287928726
0.31400299 0.52858299 1.094 4288717474
0.316129 0.527183 1.091 4287599761
0.31911701 0.52723402 1.091 4288060311
0.321812 0.526802 1.09 4288915620
0.32450199 0.52637202 1.089 4288652448
0.32748801 0.526425 1.089 4288323483
0.330172 0.52599698 1.0880001 4288652963
0.332546 0.52508599 1.086 4289837237
0.33491001 0.52417499 1.084 4289639858
0.33757699 0.52375001 1.0829999 4289113514
0.34055299 0.52380902 1.0829999 4289770930
0.342897 0.522901 1.081 4289112486
0.34555101 0.522479 1.08 4289310379
0.347233 0.52060598 1.076 4289376686
0.34856901 0.51824999 1.071 4289245102
0.349879 0.515894 1.066 4289969082
0.35215601 0.51499099 1.064 4290232000
0.353755 0.51312101 1.0599999 4289902779
0.355335 0.51125097 1.056 4289508021
0.356215 0.50841397 1.05 4288915883
0.35843199 0.50751501 1.048 4288191646
0.359606 0.50516403 1.043 4289441711
0.36249101 0.50523502 1.043 4288060058
0.36467701 0.50433803 1.041 4287467661
0.36756 0.504412 1.041 4287336075
0.37008899 0.50400299 1.04 4287007109
0.37369099 0.50504798 1.0420001 4286941316
0.378389 0.50755 1.0470001 4285362285
0.38384601 0.511024 1.054 4284243803
0.39007699 0.51547003 1.063 4284112217
0.400058 0.52476799 1.082 4283651150
0.415362 0.54086298 1.115 4283256647
0.43010101 0.55599397 1.146 4282796094
0.439722 0.56433898 1.163 4282730556
0.44563201 0.56783402 1.17 4282598456
0.450048 0.56939203 1.173 4282466868
0.453325 0.56949401 1.173 4282335282
0.45621401 0.56911302 1.1720001 4282795319
0.458709 0.56824899 1.17 4282598454
0.46158999 0.56787097 1.169 4282861626
0.464468 0.56749499 1.168 4282401075
0.468945 0.56906402 1.171 4282401075
0.47223201 0.56917799 1.171 4282006571
0.47552201 0.56929398 1.171 4281742884
0.47881499 0.56941199 1.171 4282532653
0.48169899 0.56904602 1.17 4282598446
0.48541 0.56965399 1.171 4282531884
0.48871201 0.56977803 1.171 4282729265
0.491597 0.569417 1.17 4282399794
0.494903 0.56954497 1.17 4282333494
0.49821201 0.56967503 1.17 4282597173
-0.197237 0.51327199 1.071 4288323493
-0.194153 0.51277202 1.0700001 4287468184
-0.19125199 0.51275301 1.0700001 4287533463
-0.188529 0.51321399 1.071 4287467154
-0.185627 0.51319498 1.071 4287861912
-0.182725 0.51317698 1.071 4287467409
-0.179656 0.51268101 1.0700001 4288059544
-0.17692301 0.513143 1.071 4287993751
-0.17418399 0.513605 1.072 4288125853
-0.171441 0.51406801 1.073 4288652197
-0.16837899 0.513574 1.072 4288717735
-0.16532201 0.51307899 1.071 4287599254
-0.162119 0.512106 1.069 4288322977
-0.159225 0.51209199 1.069 4288652197
-0.156478 0.51255703 1.0700001 4288521126
-0.153439 0.51206398 1.069 4288520872
-0.150546 0.51205099 1.069 4289178288
-0.147377 0.51108003 1.067 4288520358
-0.14462601 0.51154703 1.068 4287598742
-0.141471 0.51057702 1.066 4287598742
-0.138717 0.51104403 1.067 4287664021
-0.13557599 0.51007497 1.0650001 4287664019
-0.13282 0.51054299 1.066 4287861398
-0.129815 0.51005298 1.0650001 4287664019
-0.126816 0.50956398 1.064 4287531919
-0.124055 0.51003301 1.0650001 4287071368
-0.121175 0.510023 1.0650001 4287202954
-0.118296 0.51001298 1.0650001 4287598481
-0.115308 0.509525 1.064 4287203723
-0.112326 0.50903797 1.063 4287401102
-0.109555 0.50950801 1.064 4288585376
-0.106679 0.50950003 1.064 4288387997
-0.103802 0.50949198 1.064 4288124825
-0.100832 0.50900501 1.063 4288322202
-0.097866297 0.50851899 1.062 4287927446
-0.094906598 0.50803298 1.061 4288454302
-0.092039101 0.508026 1.061 4288059544
-0.089087702 0.507541 1.0599999 4287862167
