# .PCD v0.7 - Point Cloud Data file format
VERSION 0.7
FIELDS x y z rgb
SIZE 4 4 4 4
TYPE F F F U
COUNT 1 1 1 1
WIDTH 1210
HEIGHT 1
VIEWPOINT 0 0 0 1 0 0 0
POINTS 1210
DATA ascii
0.48561701 0.279268 1.096 4286943118
0.48773399 0.27878401 1.094 4287864736
0.48894501 0.27779201 1.09 4287798688
0.49058801 0.277055 1.087 4288390827
0.49221501 0.27631801 1.084 4287798690
0.49382901 0.275583 1.081 4287863967
0.49496901 0.274593 1.077 4289245102
0.49608901 0.27360401 1.073 4288981414
0.498119 0.27312499 1.071 4282993220
-0.197851 0.274903 1.091 4287400332
-0.19491 0.274912 1.091 4287400586
-0.19196799 0.274921 1.091 4287335307
-0.189199 0.27518201 1.092 4287269514
-0.18625399 0.27519101 1.092 4287730833
-0.183309 0.27520001 1.092 4287862419
-0.180198 0.274957 1.091 4288257177
-0.17741799 0.27521801 1.092 4288322200
-0.174472 0.27522701 1.092 4287993235
-0.171683 0.27548799 1.0930001 4287138442
-0.16842601 0.274993 1.091 4287861912
-0.165482 0.275002 1.091 4288520358
-0.16224 0.274506 1.089 4287994528
-0.159447 0.27476701 1.09 4288257186
-0.15621801 0.27427101 1.0880001 4288783530
-0.153282 0.27428001 1.0880001 4288652458
-0.150069 0.27378401 1.086 4289507767
-0.147001 0.27353999 1.085 4289244853
-0.144072 0.27354801 1.085 4289639611
-0.141013 0.27330399 1.084 4290297284
-0.13808601 0.273312 1.084 4289573561
-0.13503399 0.27306801 1.0829999 4289113010
-0.13198701 0.27282301 1.082 4289310389
-0.12882701 0.27232599 1.08 4289639354
-0.125793 0.272082 1.079 4289705147
-0.122651 0.27158499 1.077 4290363077
-0.119853 0.271844 1.0779999 4290099905
-0.116941 0.271851 1.0779999 4290099904
-0.113922 0.271606 1.077 4290626249
-0.110806 0.271108 1.075 4290033598
-0.1076 0.270358 1.072 4290230977
-0.104411 0.26960799 1.069 4290099390
-0.101427 0.26936299 1.068 4290428355
-0.098448098 0.269117 1.067 4290297283
-0.095474698 0.26887 1.066 4290297283
-0.092419602 0.268372 1.064 4289376182
-0.089375198 0.26787299 1.062 4289047217
-0.086341403 0.26737401 1.0599999 4289244081
-0.083475798 0.26738 1.0599999 4288717737
-0.080533899 0.267133 1.059 4288783528
-0.077597298 0.26688501 1.058 4288783783
-0.074595302 0.266386 1.056 4288454818
-0.0717398 0.26639101 1.056 4288125853
-0.068884201 0.266395 1.056 4287994014
-0.066091001 0.26665199 1.057 4287007119
-0.063112803 0.26615199 1.0549999 4288125600
-0.060259499 0.26615599 1.0549999 4287994014
-0.057351701 0.26590699 1.054 4287402391
-0.0544491 0.265659 1.053 4287468438
-0.051551901 0.26541001 1.052 4286743945
-0.0487062 0.26541299 1.052 4286348673
-0.045860399 0.265416 1.052 4285756277
-0.043096401 0.26592401 1.054 4286084726
-0.040283199 0.266179 1.0549999 4286216312
-0.037464499 0.26643401 1.056 4285558380
-0.0346076 0.26643601 1.056 4286084979
-0.031780601 0.266691 1.057 4285032289
-0.028948201 0.266945 1.058 4285295461
-0.026085701 0.266947 1.058 4285558119
-0.023244999 0.26720101 1.059 4285229154
-0.020379599 0.267203 1.059 4284834649
-0.017514201 0.26720399 1.059 4284703062
-0.0146903 0.26796201 1.062 4284439891
-0.0118501 0.26872 1.0650001 4284439637
-0.0090020197 0.26973 1.069 4284637017
-0.0061208699 0.270235 1.071 4284439638
-0.0032348901 0.271245 1.075 4284241745
-0.000326965 0.27200201 1.0779999 4283715914
0.0025972 0.27275899 1.081 4283715914
0.0055324901 0.27326301 1.0829999 4284505170
0.0084942104 0.27427199 1.087 4284241744
0.011467 0.27502799 1.09 4284242258
0.0144429 0.27553201 1.092 4284307537
0.017413501 0.275783 1.0930001 4283912779
0.020370999 0.27578199 1.0930001 4284110672
0.023413699 0.27678901 1.097 4284308051
0.026454 0.27754501 1.1 4284505430
0.029456999 0.27779499 1.101 4284110673
0.032465201 0.278045 1.102 4284242259
0.0354467 0.278043 1.102 4284176466
0.038497899 0.27854499 1.104 4284176466
0.041559801 0.27904701 1.1059999 4284505431
0.044592101 0.27929601 1.107 4284308052
0.047543801 0.27904099 1.1059999 4283584329
0.050535601 0.27903801 1.1059999 4283715915
0.053624202 0.27953899 1.108 4284044880
0.056774501 0.280292 1.1109999 4284374359
0.059779599 0.28028801 1.1109999 4284176980
0.062840998 0.28053701 1.112 4284242259
0.0658485 0.280532 1.112 4284242259
0.0688558 0.28052801 1.112 4284044879
0.071863003 0.280523 1.112 4284373845
0.074870102 0.28051901 1.112 4284965468
0.078017101 0.28101799 1.114 4285163361
0.081029303 0.28101301 1.114 4284768603
0.084116697 0.28126001 1.115 4284702810
0.087131299 0.28125399 1.115 4284505430
0.090388201 0.28200501 1.118 4284242512
0.093326896 0.28174701 1.117 4284571991
0.096432596 0.28199399 1.118 4284243026
0.0994545 0.28198701 1.118 4284703579
0.10266 0.28248599 1.12 4284769372
0.105592 0.28222701 1.119 4284769117
0.108616 0.28222001 1.119 4284768602
0.11154 0.28196099 1.118 4284636502
0.114664 0.28220701 1.119 4284044366
0.117792 0.28245199 1.12 4284899421
0.120926 0.28269699 1.1210001 4285228386
0.123955 0.28268901 1.1210001 4284440154
0.127096 0.28293401 1.122 4284834912
0.130127 0.28292599 1.122 4285229668
0.133039 0.282666 1.1210001 4285361254
0.136066 0.28265899 1.1210001 4284637531
0.138969 0.28239799 1.12 4284900189
0.14224701 0.282895 1.122 4285690219
0.145147 0.28263399 1.1210001 4285098596
0.148174 0.282626 1.1210001 4284638562
0.150931 0.28211299 1.119 4284704355
0.153952 0.282105 1.119 4286218107
0.15697201 0.282096 1.119 4285494384
0.160135 0.28233999 1.12 4285954675
0.163158 0.28233099 1.12 4286941570
0.165884 0.281818 1.118 4286809214
0.16875 0.28155699 1.117 4285296491
0.17161 0.28129601 1.1160001 4286020214
0.174778 0.28153899 1.117 4286875523
0.177791 0.28152999 1.117 4286875777
0.181128 0.28202501 1.119 4287073156
0.183982 0.281764 1.118 4286414972
0.186663 0.28125101 1.1160001 4286020214
0.18933301 0.280738 1.114 4288322455
0.192165 0.280476 1.113 4287862165
0.19499101 0.280215 1.112 4287862681
0.197989 0.28020599 1.112 4287994012
0.20080701 0.27994499 1.1109999 4289112493
0.203802 0.279935 1.1109999 4287862942
0.206797 0.279926 1.1109999 4288455337
0.209792 0.279917 1.1109999 4288061095
0.212596 0.27965501 1.11 4289640386
0.21539301 0.279394 1.109 4289377984
0.217988 0.27888101 1.107 4288062638
0.22057299 0.278368 1.105 4289443777
0.22294401 0.277603 1.102 4288852154
0.225503 0.27709001 1.1 4288852668
0.22826 0.27682999 1.099 4289773256
0.23122101 0.27682099 1.099 4289970120
0.233969 0.27656001 1.098 4289904328
0.236711 0.276299 1.097 4290166730
0.239448 0.27603799 1.096 4290232009
0.24173699 0.27527401 1.0930001 4290364109
0.244234 0.274762 1.091 4289838281
0.24694601 0.27450201 1.09 4290562520
0.249424 0.27399001 1.0880001 4290694106
0.25189099 0.273478 1.086 4290496727
0.254581 0.27321801 1.085 4291286243
0.25750399 0.27320999 1.085 4290890969
0.25994599 0.27269799 1.0829999 4290496211
0.26262 0.272439 1.082 4290167762
0.265044 0.271927 1.08 4290825178
0.26720801 0.27116501 1.077 4290363857
0.27035999 0.271409 1.0779999 4290758615
0.27275601 0.27089801 1.076 4290824408
0.27488601 0.270136 1.073 4290824408
0.276481 0.26887101 1.068 4291417313
0.27831101 0.26785699 1.064 4290496727
0.280384 0.267095 1.061 4291813101
0.28190699 0.26583001 1.056 4291352295
0.28340301 0.264566 1.051 4292208117
0.28487301 0.26330101 1.046 4291682287
0.28631499 0.26203701 1.041 4290826464
0.288008 0.26102501 1.0369999 4291418088
0.28968 0.26001301 1.033 4291614694
0.29133099 0.259002 1.029 4289640388
0.293246 0.25824201 1.026 4288849842
0.29600999 0.25823799 1.026 4289836736
0.298484 0.25798199 1.025 4289705403
0.30183399 0.258481 1.027 4288520872
0.30400801 0.257974 1.025 4286612875
0.30736899 0.25847399 1.027 4286415750
0.31104299 0.25922599 1.03 4286481289
0.31595299 0.26098499 1.0369999 4285297269
0.32182199 0.26350001 1.0470001 4285034097
0.32991701 0.26777601 1.064 4284507753
0.34373301 0.276582 1.099 4284310373
0.356161 0.28413001 1.1289999 4284441445
0.363978 0.28790399 1.1440001 4284309343
0.367706 0.28840601 1.146 4282533186
0.371445 0.28890899 1.148 4282071604
0.37487 0.28916001 1.149 4282466617
0.37764201 0.28890899 1.148 4282598970
0.38107201 0.289161 1.149 4282532663
0.384509 0.28941399 1.15 4282796349
0.38727799 0.28916299 1.149 4282269750
0.39004099 0.28891301 1.148 4282663994
0.39348501 0.28916699 1.149 4282729787
0.39728001 0.289673 1.151 4282400824
0.40073901 0.28992799 1.152 4282729789
0.403853 0.28993201 1.152 4282532922
0.406261 0.289433 1.15 4281415210
0.40972799 0.289689 1.151 4282598968
0.41212401 0.28919101 1.149 4282664761
0.415595 0.28944799 1.15 4282730808
0.41797999 0.28895 1.148 4282334768
0.42035401 0.288454 1.146 4282663733
0.423089 0.28820899 1.145 4282531633
0.426191 0.28821701 1.145 4282926389
0.42929399 0.288225 1.145 4282334252
0.43202001 0.28798199 1.1440001 4282597940
0.434742 0.28773999 1.143 4283322179
0.43707699 0.28724599 1.141 4283980109
0.43978801 0.28700501 1.14 4282861373
0.44210601 0.28651199 1.138 4282861373
0.44480601 0.28627199 1.137 4282400307
0.44789499 0.28628501 1.137 4282663479
0.45098501 0.28629801 1.137 4283190077
0.45327899 0.285808 1.135 4282926905
0.455562 0.28531799 1.133 4282993212
0.45743099 0.284578 1.13 4283519556
0.46050799 0.28459299 1.13 4283388231
0.46276599 0.28410599 1.128 4283651919
0.46542799 0.283871 1.127 4284375642
0.466838 0.28288099 1.123 4284573021
0.46906501 0.28239501 1.1210001 4284507229
0.470862 0.28165799 1.118 4284375643
0.47349101 0.28142601 1.117 4284375643
0.47483701 0.28043801 1.113 4284968294
0.47702199 0.279955 1.1109999 4284441950
0.47876501 0.279221 1.108 4285231466
0.481363 0.27899101 1.107 4284770915
0.48352 0.27851099 1.105 4285297773
0.485228 0.277778 1.102 4286745219
0.48603499 0.27654299 1.097 4286877323
0.487708 0.275812 1.094 4287601564
0.48936701 0.27508101 1.091 4287798943
0.49101099 0.27435201 1.0880001 4288258725
0.49218699 0.27337101 1.084 4288258725
0.494257 0.27289501 1.082 4286942865
0.49539801 0.27191499 1.0779999 4289179309
0.49605799 0.270684 1.073 4289113514
0.49808699 0.27021 1.071 4283782736
-0.19804201 0.27221701 1.092 4287203207
-0.19527601 0.272475 1.0930001 4287268998
-0.192329 0.272484 1.0930001 4287006340
-0.189555 0.27274299 1.094 4287269512
-0.186434 0.27250299 1.0930001 4287665040
-0.183318 0.27226299 1.092 4287994005
-0.180042 0.27177301 1.09 4287796626
-0.17742699 0.27228099 1.092 4288124821
-0.174481 0.27228999 1.092 4287730063
-0.171692 0.27254799 1.0930001 4287466893
-0.168589 0.27230701 1.092 4287861653
-0.165794 0.27256599 1.0930001 4288322718
-0.162249 0.271577 1.089 4288191391
-0.159456 0.271835 1.09 4288125600
-0.15622699 0.27134499 1.0880001 4288783530
-0.15329 0.27135301 1.0880001 4288783530
-0.150077 0.270863 1.086 4289573046
-0.147145 0.27087101 1.086 4289310388
-0.14408 0.27063 1.085 4289573561
-0.141021 0.27038801 1.084 4290297283
-0.13796601 0.270147 1.0829999 4289639354
-0.135042 0.27015501 1.0829999 4289113010
-0.13199501 0.26991299 1.082 4289178802
-0.12895399 0.26967099 1.081 4289705147
-0.125801 0.26918 1.079 4289705147
-0.122658 0.26868799 1.077 4290428869
-0.119749 0.268695 1.077 4290297283
-0.116839 0.26870301 1.077 4289968318
-0.113929 0.26870999 1.077 4290626248
-0.11071 0.267968 1.074 4289902525
-0.107607 0.26747599 1.072 4290099390
-0.104515 0.266983 1.0700001 4290033597
-0.101623 0.26698899 1.0700001 4290296769
-0.098638803 0.26674601 1.069 4290165697
-0.095570199 0.26625299 1.067 4290099904
-0.092512302 0.26576 1.0650001 4289310389
-0.089465 0.26526701 1.063 4288849838
-0.086346902 0.26452401 1.0599999 4288980909
-0.083402298 0.26427999 1.059 4288783530
-0.080463 0.26403499 1.058 4288783528
-0.077602297 0.26403999 1.058 4289046441
-0.074670799 0.263796 1.057 4288389023
-0.071812503 0.26380101 1.057 4288191130
-0.068888701 0.263556 1.056 4288125084
-0.066032797 0.26356 1.056 4287467154
-0.063236602 0.263814 1.057 4287993500
-0.060320601 0.26356801 1.056 4287862428
-0.057464302 0.26357201 1.056 4287534231
-0.054504398 0.26307699 1.054 4287336852
-0.051604301 0.262831 1.053 4286283649
-0.048663199 0.262335 1.051 4286546307
-0.045863502 0.26258799 1.052 4285493103
-0.043058399 0.26284 1.053 4285953140
-0.040324099 0.263592 1.056 4285887347
-0.037466999 0.26359501 1.056 4285295208
-0.034609899 0.26359701 1.056 4285690221
-0.031752702 0.26359901 1.056 4285032291
-0.0289228 0.26385099 1.057 4285492842
-0.0261121 0.26435199 1.059 4285558119
-0.0232905 0.264853 1.061 4285558119
-0.020419501 0.26485401 1.061 4284966235
-0.017532 0.264606 1.0599999 4284176719
-0.0146913 0.26510599 1.062 4284373844
-0.0118509 0.265856 1.0650001 4284242259
-0.0089942096 0.266606 1.068 4284965982
-0.0061212801 0.267355 1.071 4284308054
-0.0032321101 0.26810399 1.074 4284175952
-0.00032698701 0.26910299 1.0779999 4283979087
0.00259738 0.26985201 1.081 4283650121
0.00553797 0.270601 1.084 4284505684
0.00850261 0.27159899 1.0880001 4284176465
0.0114678 0.27209699 1.09 4284110672
0.0144439 0.272596 1.092 4284242259
0.017398801 0.272594 1.092 4283913294
0.020391 0.273092 1.094 4283847501
0.0234366 0.27408901 1.098 4284308051
0.026455799 0.27458701 1.1 4284900188
0.0294322 0.27458501 1.1 4284044880
0.032437999 0.27483299 1.101 4284110673
0.0354813 0.27533001 1.103 4284241745
0.038535301 0.27582601 1.105 4284307538
0.041600101 0.27632299 1.107 4284308052
0.0445951 0.27632001 1.107 4284176466
0.047547001 0.27606699 1.1059999 4283715915
0.0505847 0.27631399 1.107 4283913294
0.053676099 0.27680901 1.109 4284176466
0.0568294 0.27755401 1.112 4284637017
0.0597835 0.27730101 1.1109999 4284374359
0.062845103 0.27754599 1.112 4284373844
0.065793604 0.277293 1.1109999 4284242258
0.068736501 0.27703899 1.11 4283913293
0.071738496 0.27703401 1.11 4284439638
0.074874997 0.27752799 1.112 4284768603
0.078092203 0.278272 1.115 4285294947
0.081107304 0.278267 1.115 4284768603
0.084197603 0.27851099 1.1160001 4285032289
0.087214999 0.27850601 1.1160001 4284242773
0.090393901 0.278999 1.118 4284637784
0.093332902 0.27874401 1.117 4284769372
0.096438698 0.27898699 1.118 4284177747
0.099460803 0.278981 1.118 4284375128
0.102574 0.27922401 1.119 4284506200
0.105599 0.27921799 1.119 4285098337
0.108526 0.278961 1.118 4284900188
0.111647 0.27920401 1.119 4284702296
0.114773 0.27944699 1.12 4284373331
0.117905 0.27968901 1.1210001 4284965214
0.120934 0.27968201 1.1210001 4285229156
0.123741 0.27917501 1.119 4284834912
0.12687699 0.27941701 1.12 4284834912
0.129903 0.27941 1.12 4285229668
0.133046 0.27965099 1.1210001 4285624426
0.13607401 0.27964401 1.1210001 4284637533
0.139102 0.279636 1.1210001 4284769119
0.142129 0.27962801 1.1210001 4285361256
0.145285 0.27986899 1.122 4285032805
0.148182 0.27961099 1.1210001 4284112218
0.15107401 0.27935299 1.12 4284901734
0.15396 0.27909499 1.119 4286218107
0.157121 0.27933601 1.12 4285757810
0.160144 0.27932701 1.12 4285889396
0.163021 0.27906901 1.119 4287073156
0.165893 0.27881101 1.118 4286875777
0.168759 0.27855301 1.117 4285428077
0.171619 0.278294 1.1160001 4286020215
0.174787 0.27853501 1.117 4287139210
0.177641 0.278276 1.1160001 4286809984
0.180813 0.27851599 1.117 4286809984
0.183662 0.278258 1.1160001 4286283640
0.186505 0.27799901 1.115 4286414972
0.18934201 0.27774099 1.114 4288125591
0.192174 0.277482 1.113 4287665300
0.19499999 0.27722299 1.112 4287928474
0.197999 0.27721399 1.112 4288454563
0.20081601 0.27695501 1.1109999 4288980907
0.203811 0.27694601 1.1109999 4288060321
0.206434 0.276438 1.109 4288455079
0.209424 0.276429 1.109 4288192165
0.21222199 0.27616999 1.108 4289837506
0.215014 0.27591199 1.107 4289377984
0.217801 0.275653 1.1059999 4288128431
0.220781 0.275644 1.1059999 4289115325
0.22295301 0.274638 1.102 4289049532
0.225512 0.27412999 1.1 4289181633
0.22806101 0.27362201 1.098 4289839049
0.23123001 0.27386299 1.099 4290233292
0.233978 0.27360401 1.098 4290101192
0.23672 0.27334601 1.097 4289969606
0.23923901 0.27283901 1.095 4290692815
0.24174599 0.27233201 1.0930001 4290561488
0.244019 0.27157599 1.09 4289904328
0.24695501 0.27156699 1.09 4290430418
0.249662 0.27131 1.089 4290562004
0.252363 0.271052 1.0880001 4290365141
0.25482401 0.27054501 1.086 4290891483
0.257512 0.27028799 1.085 4290496211
0.25995401 0.26978201 1.0829999 4290233039
0.26262799 0.26952499 1.082 4290299348
0.26505101 0.26901901 1.08 4291417315
0.26746401 0.26851299 1.0779999 4291350752
0.270116 0.26825699 1.077 4291088350
0.27225599 0.26750201 1.074 4291153373
0.27438 0.26674801 1.071 4291022555
0.27622899 0.26574501 1.067 4291285727
0.27779499 0.26449299 1.062 4290628313
0.279598 0.26348999 1.058 4291746794
0.281113 0.262238 1.053 4291483881
0.28314 0.26148501 1.05 4292076531
0.28460601 0.260234 1.045 4291353322
0.28632101 0.25923201 1.041 4290826464
0.28801399 0.25823101 1.0369999 4291483881
0.28968501 0.257229 1.033 4291680487
0.291619 0.256477 1.03 4289771974
0.29353601 0.25572601 1.027 4288850356
0.29601401 0.255472 1.026 4289836736
0.29848799 0.25521901 1.025 4289442231
0.30125001 0.25521499 1.025 4288455336
0.30371499 0.254962 1.024 4286941840
0.307073 0.255456 1.026 4286218371
0.31104699 0.25644901 1.03 4286086788
0.315956 0.25818899 1.0369999 4285099893
0.32213199 0.26092499 1.048 4284902511
0.32991901 0.26490599 1.064 4284441960
0.343422 0.27336901 1.098 4284441445
0.35553101 0.28058699 1.127 4284573031
0.36398 0.28481799 1.1440001 4283914585
0.36802801 0.28556299 1.147 4282598209
0.37176999 0.28606001 1.149 4282137652
0.37454399 0.28581101 1.148 4282203443
0.37764201 0.28580999 1.148 4282467382
0.38073999 0.28581101 1.148 4282861626
0.38417399 0.28606001 1.149 4282730554
0.38693899 0.28581199 1.148 4282401077
0.3897 0.28556499 1.147 4282466870
0.39313999 0.28581601 1.148 4282663994
0.39658701 0.28606701 1.149 4282532408
0.399692 0.28606999 1.149 4282729789
0.403148 0.286322 1.15 4282467131
0.406257 0.28632599 1.15 4281678382
0.40901101 0.28608099 1.149 4282467896
0.41176 0.28583699 1.148 4282665529
0.414866 0.285842 1.148 4282862394
0.41760901 0.28559899 1.147 4282532145
0.42034799 0.28535599 1.146 4283124282
0.42308101 0.28511301 1.145 4282202666
0.42618299 0.28512099 1.145 4282400300
0.429286 0.28512901 1.145 4282597679
0.43163401 0.284639 1.143 4282334766
0.43435299 0.284399 1.142 4282730294
0.43744999 0.284408 1.142 4283454017
0.44016299 0.28416899 1.141 4282796349
0.44287199 0.28393099 1.14 4282664763
0.444794 0.28319499 1.137 4282137903
0.44748899 0.282958 1.136 4282795835
0.45017901 0.28272101 1.135 4283321663
0.45246601 0.28223601 1.133 4283124282
0.45554799 0.28224999 1.133 4282992698
0.457416 0.281517 1.13 4283716935
0.460085 0.28128299 1.1289999 4283454279
0.46193001 0.28055099 1.126 4283257415
0.46458501 0.28031799 1.125 4284310102
0.46682101 0.279836 1.123 4284442202
0.46946499 0.279605 1.122 4284442202
0.471264 0.27887601 1.119 4284244823
0.473472 0.27839601 1.117 4283981652
0.47481701 0.277419 1.113 4285100133
0.47614199 0.27644199 1.109 4284573789
0.478311 0.27596501 1.107 4284968293
0.481341 0.275987 1.107 4284639328
0.48349699 0.275511 1.105 4285429359
0.48432299 0.27428699 1.1 4287468688
0.48600999 0.273563 1.097 4286876809
0.487683 0.27283999 1.094 4287929759
0.48978901 0.27236599 1.092 4287732380
0.49098399 0.271395 1.0880001 4287863967
0.49215901 0.27042401 1.084 4288456103
0.49377099 0.269703 1.081 4287468694
0.49445 0.268484 1.076 4289179309
0.49602801 0.26776499 1.073 4288258205
0.49805599 0.26729599 1.071 4283585612
-0.198414 0.26977199 1.094 4286742654
-0.195821 0.27027401 1.096 4286282103
-0.192866 0.27028301 1.096 4286545789
-0.18990999 0.270293 1.096 4286479996
-0.18661401 0.26980901 1.094 4287007110
-0.183327 0.26932499 1.092 4286743938
-0.180547 0.26958001 1.0930001 4287006342
-0.177598 0.26958901 1.0930001 4287269512
-0.17465 0.26959801 1.0930001 4287137928
-0.171544 0.26936099 1.092 4286743172
-0.168752 0.26961601 1.0930001 4287006858
-0.16565099 0.26937801 1.092 4287467923
-0.162406 0.26889399 1.09 4287730840
-0.159464 0.26890299 1.09 4287599256
-0.156379 0.268664 1.089 4288520356
-0.153721 0.26916599 1.091 4288717737
-0.1505 0.26868099 1.089 4289309874
-0.14728899 0.26819599 1.087 4288849837
-0.144089 0.26771101 1.085 4289376181
-0.140899 0.26722601 1.0829999 4290034111
-0.13797399 0.267234 1.0829999 4289705146
-0.13505 0.26724201 1.0829999 4288849837
-0.132247 0.26749599 1.084 4288981423
-0.12908 0.26701 1.082 4289376181
-0.125925 0.26652399 1.08 4289310388
-0.122779 0.266038 1.0779999 4289902525
-0.119867 0.266045 1.0779999 4290297283
-0.116846 0.26580599 1.077 4289902525
-0.11383 0.26556599 1.076 4290428869
-0.110717 0.26507899 1.074 4289770940
-0.107814 0.265086 1.074 4289902525
-0.104717 0.264599 1.072 4290033597
-0.101724 0.264359 1.071 4290165697
-0.098737299 0.26411799 1.0700001 4289836732
-0.095576301 0.26338401 1.067 4289770939
-0.092605002 0.263143 1.066 4289376181
-0.089554898 0.26265499 1.064 4288718251
-0.086596802 0.26241401 1.063 4289243565
-0.083644003 0.26217201 1.062 4288454304
-0.080620296 0.261684 1.0599999 4288717476
-0.0776807 0.26144201 1.059 4288322716
-0.074675597 0.26095301 1.057 4288125591
-0.0718171 0.26095799 1.057 4287861649
-0.068958499 0.26096299 1.057 4287795858
-0.066162303 0.26121399 1.058 4286940547
-0.063300602 0.26121801 1.058 4287664272
-0.060381699 0.260975 1.057 4287598995
-0.057468101 0.260732 1.056 4287138703
-0.054508101 0.26024199 1.054 4287336082
-0.051656801 0.26024601 1.054 4286283394
-0.048666399 0.25950801 1.051 4286217601
-0.045866601 0.25975901 1.052 4285296238
-0.043020401 0.25976199 1.052 4285624689
-0.040212199 0.26001099 1.053 4286150519
-0.037363101 0.260014 1.053 4285361001
-0.034546699 0.260263 1.054 4285558635
-0.0317549 0.260759 1.056 4285229156
-0.0289248 0.26100799 1.057 4285294949
-0.026113899 0.26150399 1.059 4285491812
-0.0232701 0.26175299 1.0599999 4285426019
-0.0204209 0.26200101 1.061 4284899674
-0.017549699 0.26200199 1.061 4284505170
-0.0147061 0.26249701 1.063 4284504916
-0.0118628 0.263239 1.066 4284439124
-0.0090032499 0.26398101 1.069 4284833882
-0.0061274199 0.26472199 1.072 4284504663
-0.0032323301 0.26521599 1.074 4284241491
-0.00032701 0.266204 1.0779999 4284044366
0.00260236 0.26743901 1.0829999 4283912780
0.0055434601 0.267932 1.085 4284439123
0.0085031902 0.268673 1.0880001 4284242258
0.0114686 0.26916599 1.09 4284176465
0.0144448 0.26965901 1.092 4283979087
0.0174319 0.270152 1.094 4283979087
0.020429701 0.27064401 1.096 4283584329
0.0234382 0.271137 1.098 4284637017
0.0264335 0.271382 1.099 4284702809
0.0294342 0.27162701 1.1 4284373584
0.0324402 0.27187201 1.101 4284307791
0.035451502 0.27211601 1.102 4284110158
0.038468201 0.27236101 1.103 4284110159
0.0415278 0.272852 1.105 4284373847
0.044557799 0.273096 1.1059999 4284242261
0.0475072 0.27284601 1.105 4283913041
0.050588101 0.27333701 1.107 4284110675
0.053631298 0.27358001 1.108 4283979087
0.056679901 0.27382299 1.109 4284505431
0.059626099 0.273572 1.108 4283979601
0.0627928 0.27430901 1.1109999 4284373845
0.065798 0.27430499 1.1109999 4284110672
0.068802997 0.27430001 1.1109999 4284176719
0.071807802 0.27429599 1.1109999 4284308051
0.0748799 0.27453801 1.112 4284900189
0.078097299 0.275273 1.115 4284965982
0.081185304 0.27551499 1.1160001 4284702810
0.084353901 0.276003 1.118 4284703326
0.087298803 0.27575099 1.117 4284242773
0.090399697 0.27599201 1.118 4284440152
0.093255199 0.275493 1.1160001 4284703324
0.0963585 0.27573299 1.117 4284440407
0.099467099 0.27597401 1.118 4284637786
0.102581 0.27621499 1.119 4284637531
0.105417 0.27571401 1.117 4284769372
0.108436 0.27570799 1.117 4284703063
0.111654 0.27619499 1.119 4284702295
0.114883 0.27668101 1.1210001 4284504917
0.117912 0.276674 1.1210001 4285097054
0.120833 0.27642 1.12 4285097568
0.123638 0.27591899 1.118 4284702812
0.12665799 0.275911 1.118 4284900703
0.129794 0.276151 1.119 4285295463
0.132817 0.27614301 1.119 4285624428
0.135839 0.276135 1.119 4284769119
0.138861 0.27612701 1.119 4284834912
0.14213701 0.27661201 1.1210001 4285492073
0.145294 0.276851 1.122 4285492842
0.148191 0.27659601 1.1210001 4284506461
0.151217 0.27658701 1.1210001 4284900964
0.15410601 0.27633199 1.12 4286086007
0.156849 0.27583 1.118 4285954675
0.159867 0.275821 1.118 4285888882
0.16303 0.276059 1.119 4287007363
0.165902 0.275803 1.118 4287007109
0.168768 0.27554801 1.117 4285297005
0.171628 0.27529201 1.1160001 4285954936
0.174796 0.275529 1.117 4287205003
0.17749099 0.27502701 1.115 4286744705
0.180337 0.274771 1.114 4287007363
0.18334199 0.274762 1.114 4286349433
0.18651401 0.27499899 1.115 4286546558
0.189522 0.27498999 1.115 4288125591
0.19235601 0.27473399 1.114 4287533714
0.19518501 0.27447799 1.113 4287731093
0.198008 0.27422199 1.112 4288125853
0.201006 0.274212 1.112 4288850090
0.203637 0.27371001 1.11 4287994782
0.20663001 0.2737 1.11 4288455079
0.209433 0.273444 1.109 4288257957
0.212231 0.27318799 1.108 4289771711
0.21521799 0.27317899 1.108 4289049016
0.21781 0.27267599 1.1059999 4288456881
0.220791 0.27266699 1.1059999 4289575362
0.22336701 0.272165 1.104 4289312190
0.226137 0.271909 1.103 4289312190
0.22869299 0.27140701 1.101 4289838535
0.23144899 0.27115101 1.1 4290364364
0.233987 0.27064899 1.098 4289969606
0.236945 0.27063999 1.098 4290035399
0.239466 0.270138 1.096 4290100678
0.24197599 0.26963601 1.094 4290166985
0.244251 0.268888 1.091 4289574593
0.247417 0.269126 1.092 4289771974
0.2499 0.26862401 1.09 4290166732
0.25260299 0.26836899 1.089 4290035660
0.25483301 0.26762101 1.086 4291220448
0.257283 0.26712 1.084 4290628313
0.25996199 0.266866 1.0829999 4290628313
0.262393 0.26636499 1.081 4290825437
0.26505899 0.26611099 1.08 4291351781
0.26747099 0.26561001 1.0779999 4291351522
0.26987299 0.26510999 1.076 4291022557
0.272264 0.26460901 1.074 4290890971
0.274131 0.26361701 1.0700001 4291022557
0.276236 0.26287001 1.067 4291285729
0.27754 0.26138499 1.061 4290693592
0.27960399 0.26064 1.058 4291681001
0.28111899 0.25940099 1.053 4291615467
0.28260699 0.25816301 1.048 4292076531
0.28433999 0.25717199 1.044 4291287529
0.28577599 0.255934 1.039 4290826464
0.28774101 0.25519001 1.036 4291418088
0.289691 0.25444499 1.033 4292009452
0.29134101 0.25345501 1.029 4289443523
0.29296899 0.25246501 1.025 4288784818
0.29515299 0.25196701 1.023 4289902783
0.29790899 0.25196299 1.023 4289442231
0.30096 0.25220501 1.024 4288389286
0.303422 0.251955 1.023 4286744461
0.30677801 0.252444 1.025 4286481289
0.31074801 0.253425 1.029 4286415753
0.31504399 0.25465399 1.034 4285626237
0.320905 0.25711301 1.044 4284902257
0.32868099 0.261051 1.0599999 4284770671
0.34217301 0.26942199 1.094 4284704362
0.354902 0.27705401 1.125 4284441445
0.363345 0.281239 1.142 4284243550
0.36770901 0.282222 1.146 4282466623
0.37112299 0.28246701 1.147 4282137397
0.37421799 0.28246701 1.147 4282400822
0.37731299 0.28246599 1.147 4282401589
0.38073999 0.28271201 1.148 4282664247
0.38417301 0.28295901 1.149 4282927419
0.38693801 0.282713 1.148 4282401075
0.39003801 0.28271401 1.148 4282532661
0.39313799 0.28271601 1.148 4282795580
0.39658499 0.28296399 1.149 4282466615
0.39968899 0.282967 1.149 4282598203
0.40349501 0.28346199 1.151 4282730303
0.406607 0.28346601 1.151 4281481003
0.40971899 0.28346899 1.151 4282335798
0.41211399 0.28298101 1.149 4282928449
0.4145 0.282493 1.147 4282862140
0.41723901 0.28225201 1.146 4282466354
0.41997501 0.28201199 1.145 4282334514
0.42270499 0.28177199 1.1440001 4282465840
0.42580301 0.28177899 1.1440001 4282860851
0.42852801 0.28154001 1.143 4282531886
0.43124801 0.28130099 1.142 4282400559
0.433963 0.281064 1.141 4282992951
0.437058 0.281073 1.141 4283454016
0.439767 0.28083599 1.14 4282927419
0.44208401 0.28035301 1.138 4282466868
0.444783 0.28011799 1.137 4282401075
0.44747701 0.279883 1.136 4282598454
0.450167 0.27964899 1.135 4282926905
0.45245299 0.27916801 1.133 4283255868
0.454328 0.278442 1.13 4282992698
0.45618799 0.27771699 1.127 4283650374
0.45844001 0.27723801 1.125 4283125059
0.46109301 0.27700701 1.124 4283783759
0.46415499 0.27702299 1.124 4284507481
0.46680301 0.276793 1.123 4284376663
0.46902901 0.276317 1.1210001 4284310870
0.47124499 0.27584201 1.119 4284376663
0.473876 0.27561399 1.118 4283915858
0.47565001 0.27489299 1.115 4284836961
0.476551 0.27368 1.11 4284244824
0.47828999 0.27296099 1.107 4284639328
0.48088399 0.27273601 1.1059999 4284836707
0.48303699 0.27226499 1.104 4285363566
0.48473999 0.27154699 1.101 4286744965
0.48554301 0.27033699 1.096 4287337360
0.48765799 0.26986799 1.094 4287797659
0.489315 0.269153 1.091 4287929245
0.49095801 0.26843801 1.0880001 4287666587
0.49213201 0.26747799 1.084 4287601048
0.49374399 0.266765 1.081 4287271829
0.49396199 0.26531199 1.075 4287797402
0.49599901 0.26484701 1.073 4288258207
0.49756101 0.264135 1.0700001 4284243287
-0.198423 0.266828 1.094 4287203205
-0.196009 0.26756901 1.097 4287203205
-0.192875 0.26733401 1.096 4287597963
-0.18991999 0.267344 1.096 4286743170
-0.186452 0.26662099 1.0930001 4287861651
-0.183504 0.26662999 1.0930001 4288322202
-0.180391 0.266395 1.092 4287467409
-0.177608 0.26664901 1.0930001 4287927958
-0.174659 0.26665801 1.0930001 4288125337
-0.17171 0.26666701 1.0930001 4287006858
-0.168915 0.26692 1.094 4287861912
-0.16596299 0.266929 1.094 4288059805
-0.16271301 0.266449 1.092 4288125600
-0.159766 0.266458 1.092 4287928221
-0.15653101 0.26597899 1.09 4288322979
-0.153589 0.26598701 1.09 4288520872
-0.150508 0.26575199 1.089 4289178802
-0.14729699 0.26527199 1.087 4289113009
-0.144097 0.264792 1.085 4289507767
-0.141037 0.26455599 1.084 4290297283
-0.137982 0.26431999 1.0829999 4289770939
-0.13493299 0.26408401 1.082 4288718251
-0.13213301 0.26433599 1.0829999 4288915884
-0.129088 0.26409999 1.082 4289507767
-0.126049 0.263863 1.081 4289113009
-0.122901 0.26338199 1.079 4290297283
-0.119986 0.26339 1.079 4290099904
-0.116745 0.262665 1.076 4289968318
-0.113732 0.26242799 1.075 4290494663
-0.110724 0.26219001 1.074 4290034112
-0.107922 0.26244101 1.075 4289770940
-0.104918 0.26220399 1.074 4290034111
-0.101826 0.261722 1.072 4290231490
-0.098743498 0.26124001 1.0700001 4289902525
-0.0956719 0.26075801 1.068 4290034111
-0.092697799 0.26052001 1.067 4289310388
-0.089560598 0.25979301 1.064 4288981423
-0.086602397 0.259554 1.063 4289178541
-0.083649397 0.259316 1.062 4288717476
-0.080701597 0.25907701 1.061 4288651683
-0.077759102 0.258838 1.0599999 4288717474
-0.0746805 0.25810999 1.057 4288453788
-0.071821898 0.25811499 1.057 4287993235
-0.068962999 0.25812 1.057 4287927442
-0.066166602 0.25836799 1.058 4286743168
-0.063304797 0.25837299 1.058 4287466893
-0.0603857 0.25813201 1.057 4287533202
-0.057471901 0.25789201 1.056 4287072910
-0.0545117 0.25740701 1.054 4287007117
-0.051709201 0.25765499 1.0549999 4286151294
-0.048762299 0.25716999 1.053 4285361778
-0.045956898 0.25741801 1.054 4285229931
-0.043064199 0.25717601 1.053 4285098345
-0.040215001 0.25717899 1.053 4284834657
-0.037401199 0.25742599 1.054 4284505947
-0.034549098 0.25742799 1.054 4284703324
-0.031787101 0.25816301 1.057 4284373847
-0.028926799 0.25816599 1.057 4283979087
-0.026115701 0.258656 1.059 4284439124
-0.0232717 0.25890201 1.0599999 4284175952
-0.0204223 0.259148 1.061 4284373584
-0.0175675 0.25939301 1.062 4283978826
-0.0147348 0.26012701 1.0650001 4284110412
-0.0118859 0.26086101 1.068 4284439123
-0.0090207104 0.261594 1.071 4284504917
-0.0061335601 0.26208299 1.073 4284044882
-0.0032385699 0.26281601 1.076 4284109905
-0.000327335 0.263549 1.079 4283583815
0.00260494 0.26477 1.084 4284044366
0.00555406 0.26550299 1.087 4284373330
0.0085115898 0.265991 1.089 4283979087
0.0114799 0.26647899 1.091 4283913294
0.0144723 0.26721099 1.094 4284044880
0.017449001 0.267454 1.095 4283913294
0.0204497 0.267941 1.097 4283913808
0.0234398 0.26818401 1.098 4284373845
0.026435301 0.268426 1.099 4284373330
0.029463001 0.268913 1.101 4284044619
0.032471899 0.269155 1.102 4284176205
0.035486098 0.26939699 1.103 4284241744
0.038540602 0.26988301 1.105 4284175951
0.041568201 0.27012399 1.1059999 4284373847
0.044560801 0.27012101 1.1059999 4284505178
0.047553401 0.270118 1.1059999 4283847764
0.0506372 0.270603 1.108 4283913555
0.053634901 0.27059999 1.108 4284044627
0.056683701 0.27083999 1.109 4284702812
0.059629999 0.270592 1.108 4283913808
0.0628535 0.27156499 1.112 4284373845
0.065802298 0.27131701 1.1109999 4284176465
0.068807498 0.271312 1.1109999 4283913293
0.0718126 0.27130699 1.1109999 4284373844
0.074952103 0.27179101 1.113 4284834396
0.078242503 0.27276301 1.117 4285623912
0.081263296 0.27275801 1.117 4284834396
0.0844348 0.27324101 1.119 4284571740
0.0873826 0.272991 1.118 4284308052
0.0904864 0.273229 1.119 4284374359
0.093428299 0.27297899 1.118 4284637531
0.096450903 0.272973 1.118 4284505945
0.099473402 0.27296701 1.118 4284308566
0.102496 0.27296099 1.118 4284505945
0.105423 0.27271 1.117 4284900703
0.108539 0.27294701 1.118 4284834395
0.111761 0.27342901 1.12 4284110672
0.11489 0.27366599 1.1210001 4284176466
0.117919 0.27365899 1.1210001 4284768602
0.12084 0.27340701 1.12 4284965982
0.123535 0.272668 1.117 4284768603
0.12666599 0.27290401 1.118 4284769117
0.129802 0.27314001 1.119 4285295463
0.132943 0.273377 1.12 4285624428
0.135847 0.27312499 1.119 4284637533
0.13887 0.27311701 1.119 4284769119
0.14201801 0.27335301 1.12 4285558121
0.145172 0.273588 1.1210001 4285492842
0.14819901 0.27358001 1.1210001 4284637533
0.151226 0.27357101 1.1210001 4285032805
0.15411501 0.27331901 1.12 4286085491
0.15699799 0.27306601 1.119 4286152054
0.160162 0.27330101 1.12 4286283640
0.162893 0.27280399 1.118 4286941316
0.165911 0.27279499 1.118 4286876038
0.168626 0.27229801 1.1160001 4285428591
0.171637 0.27228901 1.1160001 4286152315
0.174805 0.272524 1.117 4286941831
0.17749999 0.27202699 1.115 4286678398
0.180508 0.27201799 1.115 4287073156
0.183351 0.27176499 1.114 4286415226
0.18635599 0.27175501 1.114 4286414458
0.18936101 0.27174601 1.114 4287796626
0.192193 0.271492 1.113 4287796886
0.19519401 0.271483 1.113 4288257437
0.198195 0.27147299 1.113 4288060574
0.20101599 0.27122 1.112 4288521125
0.20383 0.27096701 1.1109999 4287731610
0.206826 0.27095699 1.1109999 4288257700
0.20963199 0.270704 1.11 4288126114
0.21224099 0.27020699 1.108 4289705403
0.21503299 0.26995301 1.107 4289377467
0.217623 0.269456 1.105 4288785332
0.2208 0.26969001 1.1059999 4289574848
0.22337601 0.26919299 1.104 4289377469
0.22635099 0.26918399 1.104 4289246397
0.22891 0.26868701 1.102 4289903558
0.23145901 0.26819 1.1 4289969606
0.233996 0.26769301 1.098 4289706434
0.236954 0.26768401 1.098 4289377469
0.239475 0.267187 1.096 4289509055
0.24220601 0.26693499 1.095 4290166985
0.24426 0.26595101 1.091 4289377214
0.247199 0.26594201 1.091 4290561488
0.249679 0.26544601 1.089 4290759637
0.25261199 0.26543701 1.089 4290496211
0.254841 0.26469699 1.086 4291220448
0.25729099 0.26420099 1.084 4290759899
0.25973001 0.263706 1.082 4290694106
0.26215899 0.26321 1.08 4290825951
0.26482201 0.26295799 1.079 4291417574
0.26723099 0.262463 1.077 4290956764
0.26963001 0.26196799 1.075 4291351522
0.27227101 0.26171699 1.074 4291088350
0.274138 0.26073501 1.0700001 4290956764
0.276243 0.259996 1.067 4291351522
0.277547 0.25852701 1.061 4290430934
0.279347 0.25754601 1.057 4291681001
0.28059101 0.25607699 1.051 4291681260
0.28261301 0.25534001 1.048 4292142324
0.28434601 0.25435901 1.044 4291484394
0.28578201 0.253135 1.039 4290958050
0.287747 0.25239801 1.036 4291220709
0.28969601 0.25166199 1.033 4291877864
0.29134601 0.250682 1.029 4289443777
0.292974 0.24970201 1.025 4288258472
0.295158 0.24921 1.023 4289836989
0.297914 0.24920499 1.023 4289244852
0.30067 0.249201 1.023 4288389286
0.30372301 0.24944 1.024 4286941840
0.30708 0.249924 1.026 4286283911
0.31075099 0.250651 1.029 4286349961
0.31504801 0.251865 1.034 4285428859
0.32090801 0.254298 1.044 4284836721
0.328374 0.25794899 1.059 4284441706
0.34154999 0.265984 1.092 4284638571
0.35490501 0.27401999 1.125 4284638569
0.363029 0.277915 1.141 4284177757
0.36738899 0.278887 1.145 4282795843
0.370801 0.279129 1.146 4282663741
0.37389201 0.27912799 1.146 4282598203
0.37731299 0.27937099 1.147 4282335798
0.38040799 0.27937001 1.147 4282993214
0.38417301 0.27985799 1.149 4282664247
0.387274 0.27985799 1.149 4282137903
0.390376 0.27985901 1.149 4282664247
0.39313701 0.27961701 1.148 4282861628
0.39658201 0.27986199 1.149 4282401077
0.39933899 0.27961999 1.148 4282400824
0.40279099 0.27986601 1.149 4282795582
0.40589699 0.27986899 1.149 4282006319
0.40935901 0.28011701 1.15 4282664249
0.41211 0.27987701 1.149 4282729787
0.414134 0.27915099 1.146 4283124545
0.41687 0.27891201 1.145 4282466615
0.41923499 0.27843001 1.143 4282860605
0.42232901 0.27843601 1.143 4282268721
0.42542401 0.27844301 1.143 4282466354
0.42851999 0.27845001 1.143 4282663986
0.43123999 0.27821401 1.142 4282269742
0.43395501 0.277978 1.141 4283322430
0.437049 0.277987 1.141 4283388224
0.44014299 0.277996 1.141 4282598456
0.442074 0.277275 1.138 4282664249
0.44477201 0.27704099 1.137 4282663479
0.447465 0.27680901 1.136 4282860858
0.44975799 0.276333 1.1339999 4283387202
0.45164201 0.27561399 1.131 4283255616
0.453511 0.27489501 1.128 4282992445
0.45536399 0.274178 1.125 4283716684
0.458018 0.27394801 1.124 4283388233
0.460668 0.27371901 1.123 4283849552
0.463727 0.273734 1.123 4284375895
0.465956 0.27326199 1.1210001 4284310870
0.46817499 0.272791 1.119 4284376663
0.47080699 0.27256501 1.118 4284639067
0.473434 0.27233899 1.117 4283981138
0.47520399 0.271626 1.114 4285164389
0.476531 0.27067 1.11 4284374873
0.478701 0.27020201 1.108 4284704608
0.48129699 0.269979 1.107 4285296745
0.483015 0.26926801 1.104 4285297519
0.48471799 0.26855901 1.101 4286481793
0.48596299 0.26760599 1.097 4287205517
0.48807999 0.26714101 1.095 4286745223
0.48929 0.26618999 1.091 4286021502
0.491384 0.26572701 1.089 4287008397
0.49256 0.26477599 1.085 4287535255
0.49326 0.263583 1.08 4287469208
0.49393401 0.262389 1.075 4288981677
0.49550799 0.26168501 1.072 4288850090
0.497067 0.26098099 1.069 4285295977
0.499547 0.260766 1.068 4284440152
-0.198432 0.26388401 1.094 4287137412
-0.19601899 0.264617 1.097 4287268998
-0.19306099 0.264626 1.097 4287203205
-0.189583 0.26391199 1.094 4286743170
-0.186461 0.26368001 1.0930001 4287598479
-0.18384901 0.26417199 1.095 4288256925
-0.180896 0.26418099 1.095 4287533202
-0.17794199 0.26418999 1.095 4287927960
-0.17482799 0.26395801 1.094 4288191132
-0.171876 0.26396701 1.094 4286941324
-0.16877 0.263735 1.0930001 4287994012
-0.16582 0.263744 1.0930001 4288520356
-0.162871 0.263753 1.0930001 4288388772
-0.159628 0.26327899 1.091 4288059807
-0.15654001 0.263046 1.09 4288454563
-0.153597 0.263055 1.09 4288389286
-0.150793 0.26330501 1.091 4289376181
-0.147577 0.26282999 1.089 4289376181
-0.144371 0.26235601 1.087 4289639353
-0.141175 0.26188099 1.085 4290428869
-0.138245 0.26188901 1.085 4289836732
-0.135065 0.261415 1.0829999 4289047216
-0.13214 0.26142299 1.0829999 4288718251
-0.128976 0.26094699 1.081 4289376181
-0.126056 0.26095501 1.081 4289310642
-0.122908 0.26047999 1.079 4290428869
-0.120104 0.26072901 1.08 4290034111
-0.11686 0.26001099 1.077 4289968319
-0.11395 0.26001799 1.077 4290494663
-0.110937 0.25978401 1.076 4290099651
-0.108029 0.25979099 1.076 4289968065
-0.105023 0.259556 1.075 4290099904
-0.101832 0.258838 1.072 4290297284
-0.098842002 0.25860301 1.071 4289639353
-0.095767498 0.25812599 1.069 4289968318
-0.092790604 0.257891 1.068 4289178802
-0.089650497 0.25717199 1.0650001 4288915884
-0.086689398 0.25693601 1.064 4289375920
-0.083733603 0.25670001 1.063 4288717476
-0.080782898 0.256464 1.062 4288979879
-0.077764198 0.25598601 1.0599999 4289045927
-0.074756101 0.25550801 1.058 4288585376
-0.0718266 0.255272 1.057 4288387995
-0.069032803 0.25551799 1.058 4288124821
-0.066358604 0.25624701 1.061 4287401353
-0.0634287 0.25601 1.0599999 4287993235
-0.060446899 0.25553101 1.058 4288059544
-0.057421401 0.25481001 1.0549999 4287664533
-0.054515399 0.254572 1.054 4287861914
-0.0516637 0.254576 1.054 4286875019
-0.048811901 0.25457901 1.054 4285690745
-0.045960002 0.25458199 1.054 4285690229
-0.043108001 0.254585 1.054 4285821300
-0.0402559 0.25458801 1.054 4285887863
-0.037474699 0.25507399 1.056 4285361003
-0.034649801 0.25531799 1.057 4285755759
-0.031849399 0.25580299 1.059 4285098084
-0.0289561 0.255564 1.058 4285163361
-0.026117399 0.25580701 1.059 4285294946
-0.023251399 0.25580901 1.059 4284768602
-0.020404501 0.25605199 1.0599999 4284965721
-0.0175687 0.25653699 1.062 4284110926
-0.0147497 0.25750399 1.066 4283913293
-0.0118978 0.25822899 1.069 4284373844
-0.00902976 0.258955 1.072 4284176466
-0.0061396901 0.25943899 1.074 4284176466
-0.00324481 0.260405 1.0779999 4283650122
-0.00032826801 0.26137099 1.082 4283452229
0.00260993 0.26233801 1.086 4283189056
0.0055646598 0.263062 1.089 4283715400
0.0085356198 0.26378599 1.092 4283781707
0.0115228 0.26451001 1.095 4284044879
0.014513 0.26499301 1.097 4283650121
0.017498 0.26523301 1.098 4283716429
0.020469701 0.265232 1.098 4284045394
0.0234628 0.26547199 1.099 4284637017
0.026461201 0.26571199 1.1 4284505431
0.029464999 0.26595101 1.101 4283979087
0.0324446 0.26594901 1.101 4284504916
0.035488501 0.26642999 1.103 4284241744
0.038543198 0.26690999 1.105 4284044366
0.041570999 0.267149 1.1059999 4284373847
0.0446041 0.26738799 1.107 4284439385
0.047599599 0.26738501 1.107 4283584592
0.0505949 0.26738101 1.107 4283979350
0.0535901 0.267378 1.107 4284044627
0.0566363 0.267616 1.108 4284505433
0.059634 0.26761201 1.108 4284110673
0.062857702 0.268574 1.112 4284241998
0.065865897 0.26857001 1.112 4284307791
0.068935901 0.26880699 1.113 4284308051
0.071946599 0.26880199 1.113 4284637016
0.075024404 0.26903901 1.114 4284702812
0.078177601 0.269517 1.1160001 4284900450
0.081195801 0.26951101 1.1160001 4284505947
0.084289402 0.269748 1.117 4284703324
0.087388203 0.26998299 1.118 4284045394
0.090411402 0.26997799 1.118 4284637786
0.093434297 0.269972 1.118 4284637786
0.096457101 0.26996601 1.118 4284308566
0.099479698 0.269959 1.118 4284440152
0.102502 0.26995301 1.118 4284965982
0.105524 0.26994699 1.118 4285294947
0.108546 0.26993999 1.118 4284965981
0.111668 0.270174 1.119 4284571224
0.114794 0.27040899 1.12 4284242259
0.117611 0.26991901 1.118 4284900188
0.120632 0.26991099 1.118 4285163361
0.123653 0.26990399 1.118 4284571224
0.1269 0.27037901 1.12 4284703324
0.12981001 0.27013001 1.119 4285427047
0.13295101 0.27036399 1.12 4285492842
0.135855 0.270114 1.119 4284703840
0.139002 0.27034801 1.12 4284637533
0.1419 0.270098 1.119 4285163877
0.144922 0.27009001 1.119 4285558633
0.147943 0.27008101 1.119 4284637531
0.15109999 0.27031401 1.12 4285032291
0.15412401 0.27030501 1.12 4286414456
0.156867 0.26981401 1.118 4286086007
0.16017 0.27028799 1.12 4285822836
0.163048 0.27003801 1.119 4287007110
0.16592 0.26978701 1.118 4286809477
0.168635 0.26929599 1.1160001 4285757557
0.1718 0.269528 1.117 4285954936
0.17497 0.26976001 1.118 4287467660
0.177828 0.26950899 1.117 4286809984
0.18067899 0.26925901 1.1160001 4286941570
0.183525 0.26900801 1.115 4286743421
0.186533 0.26899901 1.115 4286809216
0.18937001 0.26874799 1.114 4288059798
0.192202 0.26849699 1.113 4287796372
0.195204 0.26848799 1.113 4287994265
0.19784901 0.26799601 1.1109999 4288389539
0.200844 0.267986 1.1109999 4288521125
0.20384 0.267977 1.1109999 4287928989
0.206835 0.26796699 1.1109999 4288192161
0.20964099 0.26771599 1.11 4288257700
0.21224999 0.26722401 1.108 4289902525
0.215042 0.266974 1.107 4289047217
0.217632 0.266482 1.105 4287928739
0.22060999 0.26647201 1.105 4288718255
0.223588 0.26646301 1.105 4288324267
0.22677 0.26669499 1.1059999 4288916663
0.229127 0.265962 1.103 4289640386
0.23146801 0.26522899 1.1 4289904328
0.234005 0.26473799 1.098 4289970120
0.236747 0.264487 1.097 4290035913
0.239703 0.264478 1.097 4290233292
0.24221499 0.263987 1.095 4290233292
0.244717 0.26349601 1.0930001 4289904328
0.247208 0.263004 1.091 4290365139
0.249688 0.262514 1.089 4290562518
0.252157 0.262023 1.087 4290430934
0.25461501 0.26153201 1.085 4291417829
0.25706199 0.26104099 1.0829999 4290562520
0.25949901 0.26055101 1.081 4290628058
0.26241001 0.26054299 1.081 4290891744
0.265075 0.26029301 1.08 4291681260
0.267735 0.26004401 1.079 4291154402
0.27013901 0.25955501 1.077 4291153888
0.27253199 0.259065 1.075 4290956764
0.27465799 0.25833401 1.072 4291153373
0.27650899 0.25736299 1.068 4291548131
0.27807701 0.25615099 1.063 4290759385
0.27988201 0.25518 1.059 4291548901
0.28113201 0.253728 1.053 4291681515
0.28288901 0.25275701 1.049 4292207859
0.284352 0.251546 1.044 4291352808
0.28606299 0.25057599 1.04 4290957537
0.28803101 0.24984699 1.0369999 4291089378
0.289702 0.248878 1.033 4292206313
0.29135099 0.24790899 1.029 4289574848
0.292979 0.24694 1.025 4288126886
0.29516301 0.246453 1.023 4289771196
0.29791901 0.246448 1.023 4289508794
0.30096799 0.246684 1.024 4288389543
0.304023 0.246921 1.025 4287007890
0.30708399 0.24715801 1.026 4286218375
0.31075501 0.247876 1.029 4286087303
0.31505099 0.24907701 1.034 4285494662
0.319989 0.25075999 1.041 4285034617
0.32775599 0.25461099 1.057 4284573549
0.340927 0.262557 1.09 4284770925
0.354592 0.270744 1.124 4284638824
0.36271301 0.27459601 1.14 4284309597
0.36706999 0.27555701 1.1440001 4282861636
0.37080199 0.27603701 1.146 4282137397
0.37422001 0.27627701 1.147 4282795582
0.37764299 0.276517 1.148 4282401591
0.380409 0.27627501 1.147 4282532663
0.383838 0.27651599 1.148 4282795835
0.38693699 0.27651599 1.148 4282598454
0.39003599 0.27651599 1.148 4282466868
0.39313501 0.276517 1.148 4282531893
0.39658099 0.27676001 1.149 4282598456
0.39933601 0.27652001 1.148 4282729789
0.40243801 0.27652299 1.148 4282927168
0.40553999 0.27652499 1.148 4281808940
0.40935501 0.27700999 1.15 4282072112
0.41210601 0.27677301 1.149 4282532408
0.41449001 0.27629501 1.147 4283124545
0.41686499 0.27581799 1.145 4282203190
0.419963 0.275823 1.145 4282400824
0.42269301 0.27558801 1.1440001 4282531893
0.42541799 0.27535301 1.143 4282400561
0.42813799 0.27511901 1.142 4282400814
0.43085501 0.274885 1.141 4282138156
0.433947 0.27489299 1.141 4283059258
0.43627399 0.27441901 1.1390001 4283322431
0.43974799 0.27466899 1.14 4283124030
0.44206399 0.274196 1.138 4282729273
0.44515201 0.27420601 1.138 4282860345
0.44784799 0.273976 1.137 4282860344
0.45014301 0.273505 1.135 4282860858
0.45202899 0.27279299 1.132 4283189823
0.45390001 0.27208301 1.1289999 4282992445
0.45575601 0.271373 1.126 4283650121
0.45841199 0.27114499 1.125 4283322440
0.46065301 0.270677 1.123 4283717966
0.46371099 0.27069199 1.123 4284704860
0.46552399 0.26998401 1.12 4284639581
0.46774 0.26951799 1.118 4284376409
0.470368 0.26929399 1.117 4284639068
0.472992 0.26907 1.1160001 4284046163
0.47475901 0.26836401 1.113 4285032803
0.47651201 0.26765999 1.11 4284506459
0.47824901 0.266956 1.107 4284835426
0.48084199 0.26673499 1.1059999 4285296745
0.48255599 0.26603201 1.103 4285100140
0.485136 0.26581201 1.102 4285165933
0.48638299 0.264869 1.098 4285955449
0.488056 0.26416901 1.095 4287074443
0.48836899 0.26274499 1.089 4287732118
0.49045601 0.26228601 1.087 4287863704
0.49208 0.26158801 1.084 4288982187
0.49369001 0.26088899 1.081 4287469209
0.49436599 0.259709 1.076 4288981680
0.49548 0.258771 1.072 4288784555
0.496573 0.257833 1.068 4285165166
