# .PCD v0.7 - Point Cloud Data file format
VERSION 0.7
FIELDS x y z rgb
SIZE 4 4 4 4
TYPE F F F U
COUNT 1 1 1 1
WIDTH 1137
HEIGHT 1
VIEWPOINT 0 0 0 1 0 0 0
POINTS 1137
DATA ascii
-0.036529802 0.169918 0.745 4289111193
-0.034606099 0.170377 0.74699998 4289242779
-0.032584202 0.170379 0.74699998 4289045400
-0.0305622 0.17038099 0.74699998 4289111193
-0.028502 0.170155 0.74599999 4289045400
-0.026447101 0.169929 0.745 4289046170
-0.0244631 0.170159 0.74599999 4289243549
-0.0224436 0.17016099 0.74599999 4288980636
-0.0204514 0.17038999 0.74699998 4289046429
-0.0184044 0.17016301 0.74599999 4289045915
-0.016362799 0.169936 0.745 4289045915
-0.0143651 0.170166 0.74599999 4288980122
-0.0123453 0.170167 0.74599999 4288848791
-0.0103394 0.170395 0.74699998 4289176986
-0.0082946196 0.16993999 0.745 4289045400
-0.00627751 0.16993999 0.745 4288913814
-0.0042546601 0.16971301 0.74400002 4288782229
-0.0022402301 0.16971301 0.74400002 4289111193
-0.00022610401 0.16994099 0.745 4288979607
0.00179344 0.170169 0.74599999 4289045401
0.0038030599 0.16971301 0.74400002 4288913815
0.0057862098 0.1688 0.74000001 4289045401
0.00772662 0.167431 0.73400003 4288913815
0.0094757201 0.163324 0.71600002 4288650643
0.0106331 0.152146 0.667 4288585364
0.0119541 0.14621501 0.64099997 4288585364
0.0133478 0.142564 0.625 4288782745
0.0148234 0.14050999 0.616 4288256913
0.016116301 0.137316 0.602 4288585617
0.017451201 0.13503399 0.59200001 4288519826
0.018474501 0.130927 0.574 4288782996
0.0197841 0.129329 0.56699997 4288651926
0.021469399 0.13023999 0.57099998 4288323212
0.021563999 0.122027 0.53500003 4289640125
0.0220658 0.117008 0.51300001 4289576397
0.0230429 0.114954 0.50400001 4288786881
0.0242617 0.114268 0.50099999 4288063158
0.025617599 0.114266 0.50099999 4288062645
0.029685101 0.11426 0.50099999 4287404715
0.031040801 0.114258 0.50099999 4285562766
0.032396398 0.114256 0.50099999 4287602601
0.048657201 0.114225 0.50099999 4286154126
0.050111499 0.11445 0.50199997 4286811542
0.051468499 0.114447 0.50199997 4286548368
0.0527202 0.114215 0.50099999 4285956231
0.055428401 0.114209 0.50099999 4287206812
0.056895599 0.114433 0.50199997 4287141789
0.058136102 0.114202 0.50099999 4287338914
0.0596085 0.114426 0.50199997 4286878363
0.061086301 0.11465 0.50300002 4286746778
0.062693402 0.115103 0.505 4287009436
0.064184397 0.115327 0.50599998 4287009435
0.065551102 0.115323 0.50599998 4286680471
0.066917703 0.115319 0.50599998 4286943643
0.068149298 0.115087 0.505 4287009696
0.069650598 0.115311 0.50599998 4287009696
0.071297497 0.115763 0.50800002 4286878624
0.072812103 0.115987 0.509 4286615452
0.074331902 0.116211 0.50999999 4286418073
0.075560197 0.115979 0.509 4286681245
0.077236302 0.11643 0.51099998 4286549145
0.078615397 0.116426 0.51099998 4286220434
0.080307499 0.116877 0.51300001 4286483091
0.082169503 0.117556 0.51599997 4285825159
0.085181199 0.11983 0.52600002 4285890952
0.092691898 0.128254 0.56300002 4286286227
0.111948 0.15239599 0.66900003 4286615452
0.121575 0.16286901 0.71499997 4286681245
0.125576 0.16559599 0.727 4286681245
0.12823801 0.1665 0.73100001 4286549659
0.130031 0.16626599 0.73000002 4286418073
0.132181 0.16648801 0.73100001 4286746524
0.134519 0.16693699 0.73299998 4286220434
0.136867 0.167386 0.73500001 4286286227
0.139226 0.167835 0.73699999 4285825159
0.141596 0.168283 0.73900002 4285890438
0.143977 0.168732 0.741 4285890179
0.146368 0.169181 0.74299997 4284310627
0.14837 0.169175 0.74299997 4288323483
0.150372 0.169168 0.74299997 4288717980
0.152169 0.168934 0.74199998 4288652187
0.15416899 0.168927 0.74199998 4288783259
0.156378 0.169148 0.74299997 4288585880
0.158593 0.169369 0.74400002 4288584850
0.160813 0.16959099 0.745 4287334268
0.16282 0.16958401 0.745 4287729021
0.16482601 0.169578 0.745 4287597434
0.167281 0.170026 0.74699998 4287729020
0.169293 0.17002 0.74699998 4287860606
0.171075 0.16978601 0.74599999 4288519049
0.173316 0.17000701 0.74699998 4287992705
0.175327 0.170001 0.74699998 4288124289
0.17757601 0.170223 0.74800003 4287137390
0.17959 0.17021599 0.74800003 4288321664
0.181361 0.169983 0.74699998 4288452736
0.183373 0.16997699 0.74699998 4287597941
0.18538401 0.169971 0.74699998 4288386950
0.18739501 0.169965 0.74699998 4288255364
0.189659 0.170187 0.74800003 4288518536
0.191673 0.17018101 0.74800003 4287400568
0.19368701 0.170176 0.74800003 4288189829
0.1957 0.17016999 0.74800003 4288058498
0.197978 0.17039201 0.74900001 4287597947
0.199728 0.17016 0.74800003 4287795326
0.201741 0.17015401 0.74800003 4287795326
0.203482 0.16992199 0.74699998 4287926399
0.205493 0.169917 0.74699998 4288123778
0.207782 0.17014 0.74800003 4287597437
0.209796 0.17013501 0.74800003 4287597435
0.21180999 0.17013 0.74800003 4287926657
0.213824 0.17012601 0.74800003 4287795071
0.216415 0.170577 0.75 4287861119
0.218725 0.1708 0.75099999 4287992450
0.22045401 0.170569 0.75 4287992450
0.222177 0.17033701 0.74900001 4288124291
0.22419401 0.170334 0.74900001 4287992705
0.226211 0.17033 0.74900001 4287795585
0.227924 0.1701 0.74800003 4287730047
0.22963101 0.16986901 0.74699998 4287729794
0.23164301 0.169866 0.74699998 4287861380
0.233969 0.170091 0.74800003 4288189577
0.23630001 0.170316 0.74900001 4287531901
0.238636 0.170541 0.75 4287926657
0.240657 0.17053901 0.75 4287861119
0.242679 0.17053699 0.75 4287730047
0.244048 0.17008001 0.74800003 4287861633
0.24606501 0.17007899 0.74800003 4287861378
0.248082 0.17007799 0.74800003 4287795073
0.25076801 0.170531 0.75 4287926659
0.25312799 0.17075799 0.75099999 4287795326
0.25515401 0.17075799 0.75099999 4288124291
0.25718001 0.170757 0.75099999 4288059012
0.25886199 0.17053001 0.75 4287927426
0.260539 0.170303 0.74900001 4287730561
0.26256099 0.170303 0.74900001 4287993734
0.26493701 0.170531 0.75 4288058759
0.26696199 0.170532 0.75 4287927426
0.26863 0.170306 0.74900001 4287992966
0.270293 0.170081 0.74800003 4288387724
0.272315 0.170082 0.74800003 4287861380
0.27470401 0.170312 0.74900001 4288124550
0.27672899 0.170315 0.74900001 4287926912
0.27838299 0.17009 0.74800003 4288059012
0.28003299 0.169866 0.74699998 4288058498
0.28205499 0.16986901 0.74699998 4287532154
0.28407699 0.169873 0.74699998 4288058498
0.286484 0.170105 0.74800003 4288190082
0.28812501 0.169882 0.74699998 4288190082
0.29053801 0.170114 0.74800003 4288058498
0.29217499 0.169892 0.74699998 4288255877
0.293807 0.16967 0.74599999 4287795326
0.29543501 0.169448 0.745 4288189829
0.297856 0.169682 0.74599999 4287992450
0.300686 0.17014299 0.74800003 4288124038
0.30271801 0.17015 0.74800003 4287927171
0.30475101 0.170158 0.74800003 4287927173
0.306375 0.169938 0.74699998 4287927173
0.30840701 0.169947 0.74699998 4288190084
0.31002399 0.169728 0.74599999 4287861119
0.31121901 0.169282 0.74400002 4287663481
0.313667 0.16951901 0.745 4287531895
0.31654501 0.169984 0.74699998 4287926653
0.31900799 0.170222 0.74800003 4287729531
0.321049 0.170232 0.74800003 4287663738
0.323091 0.17024399 0.74800003 4287730037
0.326004 0.170711 0.75 4287663993
0.328053 0.17072301 0.75 4287401072
0.33010501 0.170736 0.75 4287072109
0.3326 0.170977 0.75099999 4287401074
0.33510199 0.17121799 0.75199997 4287598453
0.33716199 0.171232 0.75199997 4287598200
0.338772 0.171019 0.75099999 4287663740
0.340379 0.170807 0.75 4287598461
0.34198099 0.17059501 0.74900001 4287466875
0.34449801 0.170839 0.75 4287664252
0.34656 0.170856 0.75 4287730045
0.34815899 0.170645 0.74900001 4287663738
0.35022101 0.170663 0.74900001 4288058751
0.352285 0.170681 0.74900001 4287861631
0.35482299 0.170928 0.75 4287532666
0.35736901 0.171176 0.75099999 4287335289
0.35944301 0.171196 0.75099999 4287466875
0.361038 0.17098901 0.75 4287466875
0.36311299 0.17101 0.75 4287730047
0.36567599 0.17126 0.75099999 4287532152
0.36775801 0.17128301 0.75099999 4287926910
0.36984101 0.171306 0.75099999 4287597947
0.37093601 0.170874 0.74900001 4287597947
0.37251899 0.17067 0.74800003 4287203189
0.37459999 0.17069501 0.74800003 4287071603
0.37718701 0.170949 0.74900001 4287071603
0.37927499 0.170976 0.74900001 4284637260
0.381365 0.171003 0.74900001 4283913792
0.38345701 0.171031 0.74900001 4283191097
0.38606599 0.171288 0.75 4283388476
0.388165 0.171317 0.75 4283257405
0.39026701 0.17134701 0.75 4283651909
0.391848 0.171149 0.74900001 4284309839
0.393426 0.17095201 0.74800003 4284440660
0.39500099 0.170755 0.74699998 4285033048
0.397104 0.170788 0.74699998 4285164118
0.39921001 0.17082199 0.74699998 4286546026
0.40078101 0.170628 0.74599999 4287795838
0.402349 0.170434 0.745 4287664254
0.403914 0.170241 0.74400002 4287533182
0.40711299 0.170735 0.74599999 4287335804
0.40922999 0.170773 0.74599999 4286349171
0.41190001 0.17104 0.74699998 4282204978
0.41347101 0.17084999 0.74599999 4287731590
0.416154 0.171119 0.74699998 4287796354
0.41828501 0.17116 0.74699998 4287664254
0.420982 0.17143101 0.74800003 4287729531
0.42368799 0.171703 0.74900001 4287532407
0.425834 0.171747 0.74900001 4287466614
0.427984 0.171792 0.74900001 4287466614
0.42898899 0.171378 0.74699998 4287597941
0.431716 0.171654 0.74800003 4287466359
0.43387401 0.171701 0.74800003 4287531895
0.43603399 0.17174999 0.74800003 4287729021
0.438198 0.171799 0.74800003 4287860609
0.44095501 0.172079 0.74900001 4287795832
0.443721 0.17236 0.75 4287664246
0.44649699 0.17264199 0.75099999 4287400819
0.44808799 0.17246599 0.75 4287795832
0.450277 0.17252 0.75 4287730037
0.45247 0.172576 0.75 4287730033
0.45527399 0.17286301 0.75099999 4287597940
0.45808801 0.17315 0.75199997 4287400561
0.459075 0.172749 0.75 4287531634
0.4619 0.173039 0.75099999 4287729013
0.46349999 0.172869 0.75 4287269233
0.466961 0.173393 0.75199997 4287663734
0.46981499 0.173687 0.75300002 4287926906
0.47205201 0.173751 0.75300002 4287729784
0.474924 0.17404801 0.75400001 4287729784
0.47654101 0.173884 0.75300002 4287466355
0.478793 0.173953 0.75300002 4287400821
0.48041099 0.17379101 0.75199997 4287532407
0.48331201 0.17409299 0.75300002 4287400821
0.48686901 0.174628 0.755 4287532152
0.49044299 0.175164 0.75700003 4288058751
0.492733 0.175239 0.75700003 4288124285
0.495029 0.17531499 0.75700003 4287861113
0.496016 0.17493001 0.755 4287729526
0.497657 0.174777 0.75400001 4288058238
-0.198311 0.16656999 0.741 4288059275
-0.196316 0.166575 0.741 4288256399
-0.19432101 0.16658001 0.741 4288059281
-0.192586 0.16681001 0.74199998 4287533706
-0.190846 0.167041 0.74299997 4284770662
-0.18884601 0.16704699 0.74299997 4289113000
-0.186845 0.167052 0.74299997 4288915621
-0.185094 0.167283 0.74400002 4289244325
-0.182845 0.167064 0.74299997 4289178532
-0.181088 0.16729499 0.74400002 4289770152
-0.178844 0.16707601 0.74299997 4289309601
-0.176844 0.167082 0.74299997 4289178015
-0.175079 0.16731299 0.74400002 4289572773
-0.17261 0.16687 0.74199998 4289440673
-0.17084201 0.167101 0.74299997 4289111963
-0.168614 0.16688199 0.74199998 4289243033
-0.16684 0.167114 0.74299997 4289177240
-0.164839 0.16711999 0.74299997 4289177240
-0.163057 0.16735099 0.74400002 4289243031
-0.16126899 0.167583 0.745 4289111447
-0.159476 0.167814 0.74599999 4288651926
-0.15704501 0.167371 0.74400002 4289112477
-0.154623 0.16692799 0.74199998 4288980636
-0.15221301 0.166484 0.74000001 4288717464
-0.15062501 0.166941 0.74199998 4288914845
-0.148826 0.167172 0.74299997 4288914845
-0.147219 0.167629 0.745 4288914845
-0.145211 0.16763601 0.745 4289243555
-0.143011 0.167417 0.74400002 4289111710
-0.140626 0.16697399 0.74199998 4288584596
-0.138813 0.167206 0.74299997 4288057991
-0.13680901 0.16721199 0.74299997 4288255370
-0.134988 0.16744401 0.74400002 4288386951
-0.132981 0.16745 0.74400002 4288584589
-0.130799 0.16723201 0.74299997 4288584589
-0.128795 0.167238 0.74299997 4288781968
-0.126791 0.167245 0.74299997 4288781714
-0.12512299 0.16770101 0.745 4288650382
-0.122948 0.167483 0.74400002 4289176726
-0.120941 0.16748901 0.74400002 4289045138
-0.118614 0.167045 0.74199998 4288913807
-0.116769 0.16727699 0.74299997 4288979600
-0.114918 0.16750801 0.74400002 4288848014
-0.112758 0.167289 0.74299997 4289176466
-0.110902 0.16752 0.74400002 4288846987
-0.108601 0.16707601 0.74199998 4287729020
-0.106741 0.167307 0.74299997 4288978573
-0.104735 0.16731299 0.74299997 4288715915
-0.103006 0.16777 0.745 4288189571
-0.100858 0.16755 0.74400002 4288321158
-0.098848999 0.167556 0.74400002 4288189572
-0.096839599 0.16756199 0.74400002 4288321158
-0.094957501 0.16779301 0.745 4288847501
-0.092945002 0.167798 0.745 4287926912
-0.090810202 0.167578 0.74400002 4287795071
-0.088441998 0.166908 0.741 4288387210
-0.086323202 0.166688 0.74000001 4288518796
-0.084437497 0.16691799 0.741 4288453003
-0.082657397 0.167374 0.74299997 4288584587
-0.080540702 0.167154 0.74199998 4288781966
-0.078640997 0.167384 0.74299997 4288847761
-0.076735698 0.167614 0.74400002 4289176472
-0.074724399 0.167619 0.74400002 4289242265
-0.072712898 0.167623 0.74400002 4288913815
-0.070701301 0.16762801 0.74400002 4289110679
-0.068689503 0.167632 0.74400002 4289110679
-0.0666776 0.16763701 0.74400002 4289176987
-0.064665496 0.167641 0.74400002 4289176987
-0.062737502 0.16787 0.745 4289045147
-0.060640901 0.167649 0.74400002 4289176733
-0.058549698 0.167428 0.74299997 4289374365
-0.056463599 0.167206 0.74199998 4289243033
-0.054456301 0.16721 0.74199998 4288980114
-0.0525195 0.167438 0.74299997 4288914321
-0.050577201 0.167667 0.74400002 4289111700
-0.048629399 0.167896 0.745 4289308824
-0.0465509 0.16767401 0.74400002 4289046168
-0.0445376 0.167677 0.74400002 4288914329
-0.042524099 0.16768 0.74400002 4289177501
-0.0405651 0.167908 0.745 4289111963
-0.038548701 0.16790999 0.745 4288914584
-0.036483198 0.167688 0.74400002 4288914584
-0.0344694 0.16768999 0.74400002 4289111193
-0.032411899 0.167467 0.74299997 4288980375
-0.030441601 0.167694 0.74400002 4288914582
-0.028389299 0.16747101 0.74299997 4289309342
-0.0264489 0.167924 0.745 4289046170
-0.024432 0.167925 0.745 4288915098
-0.022384999 0.167702 0.74400002 4288783257
-0.020370699 0.167703 0.74400002 4288717464
-0.0183564 0.167704 0.74400002 4289046429
-0.016341999 0.167706 0.74400002 4288914843
-0.0143083 0.16748101 0.74299997 4288783257
-0.0122965 0.167482 0.74299997 4288980377
-0.0102986 0.16770799 0.74400002 4288848791
-0.00828405 0.16770899 0.74400002 4288980122
-0.0062610898 0.167484 0.74299997 4288782229
-0.0042320802 0.16680799 0.74000001 4288979354
-0.0022313599 0.167034 0.741 4288848022
-0.000224905 0.167034 0.741 4288913815
0.00178635 0.167485 0.74299997 4289045147
0.00378288 0.16680799 0.74000001 4288782229
0.0057631498 0.166132 0.73699999 4288848022
0.0076639899 0.164102 0.72799999 4288716436
0.0092646098 0.15779001 0.69999999 4288979608
0.0104904 0.148322 0.65799999 4288914329
0.0117498 0.14201 0.63 4288848538
0.0131138 0.138402 0.61400002 4288716952
0.0145837 0.13659801 0.60600001 4288782998
0.0159835 0.13456801 0.597 4288782996
0.017305 0.132313 0.58700001 4288717205
0.0184114 0.128931 0.57200003 4288651412
0.019785499 0.127803 0.56699997 4288453778
0.0210196 0.12599801 0.55900002 4288323223
0.021041401 0.117657 0.52200001 4289378244
0.0218092 0.114274 0.50700003 4289510604
0.060846999 0.112846 0.50099999 4286878364
0.0624488 0.113293 0.50300002 4287272608
0.063807599 0.113289 0.50300002 4287338401
0.065295897 0.11351 0.50400001 4287141536
0.066524804 0.113281 0.50300002 4286878110
0.067883298 0.113277 0.50300002 4287272868
0.069241598 0.113273 0.50300002 4287076003
0.070740104 0.113495 0.50400001 4287076003
0.072387002 0.113941 0.50599998 4286812831
0.073753104 0.113937 0.50599998 4286812831
0.075267397 0.114158 0.50700003 4286615452
0.076787099 0.114379 0.50800002 4286417559
0.078158103 0.114375 0.50800002 4286088334
0.079685599 0.114596 0.509 4286680470
0.081696101 0.115492 0.51300001 4286416784
0.085509598 0.118864 0.528 4286416784
0.093849301 0.128315 0.56999999 4286088334
0.112624 0.15149499 0.67299998 4286878624
0.121411 0.16071799 0.71399999 4287076003
0.125064 0.162963 0.72399998 4286878624
0.127718 0.163857 0.72799999 4286747038
0.129682 0.16385099 0.72799999 4286944417
0.131825 0.164069 0.72899997 4286746524
0.133975 0.164288 0.73000002 4286023055
0.136315 0.16473199 0.73199999 4286680470
0.138855 0.1654 0.73500001 4286482577
0.141028 0.165619 0.736 4286284682
0.143206 0.165837 0.73699999 4285625980
0.14538901 0.16605601 0.73799998 4286218370
0.147578 0.166274 0.73900002 4288454555
0.149772 0.166492 0.74000001 4288519832
0.151766 0.166486 0.74000001 4288783259
0.153552 0.166254 0.73900002 4288585880
0.155753 0.166473 0.74000001 4288717466
0.15796 0.16669101 0.741 4288848021
0.16038799 0.167134 0.74299997 4287268475
0.162389 0.167128 0.74299997 4287860606
0.16439 0.16712099 0.74299997 4287992192
0.16661499 0.16734 0.74400002 4287729020
0.16861901 0.16733401 0.74400002 4287729020
0.170623 0.167327 0.74400002 4288519049
0.172626 0.167321 0.74400002 4288453256
0.174629 0.16731501 0.74400002 4287926910
0.176633 0.167308 0.74400002 4287795320
0.178636 0.167302 0.74400002 4288124284
0.18088201 0.167521 0.745 4288453249
0.182888 0.16751499 0.745 4287532148
0.184645 0.167284 0.74400002 4288321157
0.186648 0.16727801 0.74400002 4288123778
0.188904 0.16749699 0.745 4288453256
0.19091 0.167492 0.745 4287860864
0.19291499 0.167486 0.745 4288321415
0.194921 0.16748101 0.745 4288321415
0.197455 0.167925 0.74699998 4287795071
0.199466 0.167919 0.74699998 4288124291
0.200937 0.167465 0.745 4287861119
0.20266999 0.167235 0.74400002 4287794813
0.20467301 0.16723 0.74400002 4287926400
0.207231 0.16767401 0.74599999 4287794816
0.208959 0.167445 0.745 4287334522
0.21096499 0.16744 0.745 4288124038
0.213256 0.167661 0.74599999 4288321415
0.215553 0.167881 0.74699998 4288124291
0.217856 0.168102 0.74800003 4288255622
0.218988 0.16742299 0.745 4288387210
0.220994 0.16742 0.745 4288321415
0.223 0.16741601 0.745 4288518796
0.225308 0.16763701 0.74599999 4288124552
0.22701301 0.167409 0.745 4288256138
0.229019 0.16740599 0.745 4287664001
0.23102599 0.167403 0.745 4287597954
0.233346 0.167625 0.74599999 4287926659
0.235356 0.167622 0.74599999 4287860866
0.238002 0.16806901 0.74800003 4287860613
0.23969699 0.167842 0.74699998 4287531901
0.24138699 0.167615 0.74599999 4287071862
0.242745 0.167164 0.74400002 4287400827
0.24474999 0.167162 0.74400002 4287795585
0.246756 0.167161 0.74400002 4287598206
0.249097 0.167385 0.745 4287926912
0.251443 0.16760799 0.74599999 4287795326
0.253795 0.167832 0.74699998 4287861633
0.25546801 0.16760699 0.74599999 4287664254
0.25713599 0.167382 0.745 4287796354
0.25879899 0.16715799 0.74400002 4287598975
0.26115799 0.167383 0.745 4287532413
0.26387599 0.167833 0.74699998 4287466620
0.26553801 0.16760901 0.74599999 4287466116
0.267553 0.16761 0.74599999 4287597702
0.269568 0.167611 0.74599999 4287400576
0.27158499 0.167613 0.74599999 4287400829
0.273601 0.167615 0.74599999 4287203450
0.27598801 0.167842 0.74699998 4287335034
0.27763599 0.16762 0.74599999 4287532413
0.27928001 0.16739801 0.745 4287598461
0.280918 0.16717701 0.74400002 4287532668
0.28331301 0.16740499 0.745 4287598461
0.28533 0.167409 0.745 4288059012
0.28734899 0.167413 0.745 4287927426
0.289756 0.167642 0.74599999 4288058498
0.291778 0.167647 0.74599999 4288058498
0.29340699 0.167428 0.745 4288058498
0.29542899 0.16743401 0.745 4288189829
0.29705101 0.167215 0.74400002 4288518796
0.29947299 0.167446 0.745 4287992966
0.301092 0.167228 0.74400002 4288124552
0.303929 0.167685 0.74599999 4288124552
0.30595699 0.16769201 0.74599999 4288124552
0.30839801 0.167925 0.74699998 4288058243
0.3096 0.167484 0.745 4286545259
0.31121001 0.16726699 0.74400002 4286281574
0.31239399 0.16682699 0.74199998 4286216035
0.31483999 0.167061 0.74299997 4286413414
0.317292 0.16729601 0.74400002 4286545512
0.32018 0.16775601 0.74599999 4286940017
0.32178399 0.167542 0.745 4287071603
0.32338399 0.167329 0.74400002 4287466875
0.32541701 0.16734099 0.74400002 4287071864
0.32745099 0.167353 0.74400002 4287203703
0.32992899 0.16759101 0.745 4287006324
0.332414 0.16782901 0.74599999 4287005818
0.33400899 0.16761801 0.745 4287203450
0.33514899 0.167182 0.74299997 4287006585
0.336279 0.16674601 0.741 4287072632
0.33877 0.166987 0.74199998 4287137910
0.34126699 0.167227 0.74299997 4287072117
0.34377101 0.16746899 0.74400002 4287137910
0.34535199 0.16726001 0.74299997 4287268982
0.34739801 0.16727801 0.74299997 4287335289
0.349444 0.16729601 0.74299997 4287729541
0.35243899 0.16776399 0.745 4287597947
0.354018 0.167558 0.74400002 4287860864
0.35703 0.168028 0.74599999 4287532152
0.35861 0.167823 0.745 4287598200
0.36163899 0.168295 0.74699998 4287532152
0.36419401 0.168541 0.74800003 4287861372
0.36626601 0.16856299 0.74800003 4287400821
0.36833999 0.168586 0.74800003 4287203187
0.36942601 0.16815799 0.74599999 4287465848
0.371499 0.168182 0.74599999 4287465848
0.37407401 0.168432 0.74699998 4287268723
0.37615401 0.168458 0.74699998 4287400821
0.377729 0.168258 0.74599999 4287137902
0.37930101 0.16805901 0.745 4287466614
0.380869 0.16786 0.74400002 4287072884
0.38346401 0.16811401 0.745 4287007606
0.38554901 0.16814201 0.745 4287467903
0.38763601 0.168171 0.745 4287007866
0.390248 0.16842701 0.74599999 4287336317
0.392869 0.16868301 0.74699998 4286941045
0.39496899 0.168715 0.74699998 4287270008
0.396539 0.168521 0.74599999 4286874991
0.39810699 0.168328 0.745 4286217059
0.40074599 0.168588 0.74599999 4285954403
0.40231401 0.168396 0.745 4285559390
0.404421 0.168431 0.745 4284506702
0.40707701 0.16869301 0.74599999 4283914316
0.40864399 0.168504 0.745 4283914568
0.410759 0.168542 0.745 4281940532
0.41176999 0.168127 0.74299997 4285033823
0.41444299 0.168393 0.74400002 4287402624
0.41656399 0.168433 0.74400002 4287402878
0.41868901 0.168474 0.74400002 4287862148
0.42081699 0.168516 0.74400002 4287335803
0.422948 0.168558 0.74400002 4287665021
0.42508301 0.168602 0.74400002 4287467126
0.42664599 0.168419 0.74299997 4287401082
0.428785 0.168465 0.74299997 4287664001
0.430926 0.168511 0.74299997 4287531899
0.43307099 0.168558 0.74299997 4287729278
0.43580601 0.168833 0.74400002 4287401831
0.43913901 0.16933601 0.74599999 4287664242
0.44189501 0.169613 0.74699998 4287466867
0.44466099 0.169892 0.74800003 4287466612
0.446242 0.169717 0.74699998 4287532405
0.44782099 0.169543 0.74599999 4287663733
0.45000201 0.169597 0.74599999 4287664246
0.452187 0.169652 0.74599999 4287334768
0.45559299 0.170164 0.74800003 4287795319
0.45779201 0.170221 0.74800003 4287466354
0.461225 0.170735 0.75 4287860598
0.46343899 0.17079499 0.75 4287926906
0.465657 0.170856 0.75 4287729786
0.46725601 0.17069 0.74900001 4287400566
0.46948001 0.170754 0.74900001 4287729531
0.47170901 0.170818 0.74900001 4287597945
0.47457501 0.171112 0.75 4287071343
0.47681701 0.171179 0.75 4286940268
0.478425 0.171018 0.74900001 4287203442
0.480674 0.171088 0.74900001 4287532407
0.48421699 0.171615 0.75099999 4287795579
0.487131 0.17191599 0.75199997 4287335028
0.48940399 0.17198899 0.75199997 4287334768
0.49233699 0.17229199 0.75300002 4287466608
0.49331099 0.171911 0.75099999 4287335022
0.494939 0.17175899 0.75 4287532148
0.496566 0.171608 0.74900001 4287860859
0.49952501 0.17191701 0.75 4287531127
-0.19977 0.164124 0.73900002 4288781966
-0.197513 0.16390701 0.73799998 4288650642
-0.195792 0.164134 0.73900002 4288519573
-0.194065 0.164362 0.74000001 4287994258
-0.192592 0.164811 0.74199998 4285297006
-0.190595 0.16481701 0.74199998 4286875533
-0.188343 0.164601 0.741 4289112748
-0.186097 0.16438399 0.74000001 4289244072
-0.18435401 0.164612 0.741 4289244325
-0.18211301 0.164396 0.74000001 4289244578
-0.18060701 0.164846 0.74199998 4289243808
-0.17861 0.16485301 0.74199998 4289309601
-0.176612 0.164859 0.74199998 4289309601
-0.17437901 0.164643 0.741 4289835431
-0.172151 0.164427 0.74000001 4289374366
-0.170158 0.164433 0.74000001 4289111193
-0.16793799 0.164217 0.73900002 4289177238
-0.166173 0.164446 0.74000001 4289308824
-0.16440199 0.164675 0.741 4288914066
-0.162406 0.164681 0.741 4289045652
-0.16041 0.16468801 0.741 4289046170
-0.15841401 0.164694 0.741 4288915098
-0.156207 0.164478 0.74000001 4289638566
-0.15400501 0.164263 0.73900002 4289112222
-0.151602 0.16382501 0.73699999 4289046429
-0.149819 0.16405401 0.73799998 4289177501
-0.148231 0.164505 0.74000001 4289112224
-0.146632 0.164956 0.74199998 4289178017
-0.14482801 0.165185 0.74299997 4289243810
-0.14263301 0.164969 0.74199998 4289242526
-0.14025401 0.16453101 0.74000001 4288189838
-0.138446 0.16475999 0.741 4288255371
-0.136448 0.164767 0.741 4288123784
-0.134268 0.164551 0.74000001 4288387210
-0.132452 0.16478001 0.741 4288387210
-0.13045301 0.164786 0.741 4288650128
-0.128455 0.164793 0.741 4288979093
-0.126286 0.16457701 0.74000001 4288781714
-0.124626 0.16502801 0.74199998 4288781968
-0.122459 0.164812 0.741 4289110931
-0.120459 0.164819 0.741 4289176979
-0.11814 0.16438 0.73900002 4288913807
-0.116303 0.164609 0.74000001 4288979600
-0.114461 0.164838 0.741 4288650635
-0.112613 0.165066 0.74199998 4288979087
-0.110759 0.165295 0.74299997 4288650122
-0.10846 0.164856 0.741 4287926399
-0.106604 0.165084 0.74199998 4288584329
-0.104459 0.164868 0.741 4288584329
-0.102597 0.165096 0.74199998 4288453001
-0.100322 0.164657 0.74000001 4288518539
-0.098456196 0.164885 0.741 4288123779
-0.0963246 0.16466799 0.74000001 4288058245
-0.094453201 0.16489699 0.741 4288124036
-0.092701003 0.16534699 0.74299997 4288189829
-0.0905715 0.16513 0.74199998 4288387208
-0.088327996 0.16469 0.74000001 4287861119
-0.086328402 0.16469599 0.74000001 4287531642
-0.084442601 0.164923 0.741 4287795071
-0.0826625 0.165374 0.74299997 4287992705
-0.080545701 0.16515601 0.74199998 4288255877
-0.078434199 0.164938 0.741 4288453001
-0.076534197 0.16516601 0.74199998 4288387210
-0.074528202 0.16517 0.74199998 4288057991
-0.072521999 0.16517501 0.74199998 4288189577
-0.0705157 0.16518 0.74199998 4288123784
-0.068416901 0.164961 0.741 4288255370
-0.066502601 0.165188 0.74199998 4288189578
-0.064408898 0.16497 0.741 4288386957
-0.062488899 0.165197 0.74199998 4288386957
-0.0604003 0.164978 0.741 4288781715
-0.058474701 0.165204 0.74199998 4288979347
-0.056467298 0.165208 0.74199998 4288913552
-0.0543865 0.16498899 0.741 4288716428
-0.0524523 0.165215 0.74199998 4289111186
-0.050444599 0.16521899 0.74199998 4288914066
-0.048502099 0.165445 0.74299997 4289243031
-0.046491399 0.165448 0.74299997 4289243033
-0.044420801 0.16522799 0.74199998 4289045400
-0.0423555 0.16500799 0.741 4289242779
-0.040404402 0.165234 0.74199998 4289243547
-0.038396101 0.165236 0.74199998 4289046168
-0.036436699 0.165462 0.74299997 4289046168
-0.034379099 0.165241 0.74199998 4289111963
-0.0323705 0.165244 0.74199998 4289309340
-0.03028 0.1648 0.74000001 4288980377
-0.028314799 0.165025 0.741 4289111963
-0.026344201 0.16525 0.74199998 4289111963
-0.024335301 0.165251 0.74199998 4289046684
-0.0223263 0.165253 0.74199998 4288914843
-0.020317299 0.165254 0.74199998 4289375394
-0.018308301 0.16525599 0.74199998 4289046429
-0.0162772 0.165034 0.741 4288914582
-0.0142515 0.164813 0.74000001 4289111961
-0.0122312 0.164591 0.73900002 4289046168
-0.0102439 0.164814 0.74000001 4289111961
-0.00825122 0.165038 0.741 4288980377
-0.0062530902 0.165261 0.74199998 4288782743
-0.0042266501 0.164593 0.73900002 4288914331
-0.00222247 0.164371 0.73799998 4288980124
-0.000223707 0.164148 0.73699999 4288914331
0.00177926 0.16481601 0.74000001 4288782745
0.0037678001 0.164148 0.73699999 4288914331
0.0057400898 0.163479 0.73400003 4288782743
0.0075802999 0.16036101 0.72000003 4288913815
0.0090269996 0.151897 0.68199998 4288979608
0.0102838 0.143655 0.64499998 4288782490
0.0115641 0.13808601 0.62 4288585111
0.0128798 0.134299 0.60299999 4288782745
0.014344 0.13273899 0.59600002 4288585619
0.0159043 0.132293 0.59399998 4288585619
0.017188299 0.129842 0.583 4288651926
0.018316099 0.12672301 0.56900001 4288783259
0.0198217 0.126499 0.56800002 4288585880
0.020494601 0.121375 0.54500002 4288521125
0.0207607 0.114692 0.51499999 4289444298
0.021595599 0.111796 0.50199997 4289115846
0.060850602 0.111497 0.50099999 4286483606
0.062452499 0.111938 0.50300002 4286944157
0.063811399 0.111935 0.50300002 4287010464
0.065170102 0.111931 0.50300002 4287010210
0.066264197 0.111482 0.50099999 4286878624
0.067617297 0.111478 0.50099999 4287141536
0.068970203 0.111474 0.50099999 4286944157
0.070603803 0.111915 0.50300002 4286746778
0.071961902 0.111911 0.50300002 4286878364
0.073611401 0.112352 0.505 4286680985
0.075123101 0.11257 0.50599998 4286746778
0.076791301 0.113011 0.50800002 4286417813
0.078008503 0.112785 0.50700003 4286417299
0.079533301 0.113003 0.50800002 4286482577
0.081381999 0.113666 0.51099998 4286482063
0.085837997 0.117888 0.52999997 4286482063
0.095665403 0.129226 0.58099997 4286154641
0.113634 0.15101799 0.67900002 4286746778
0.121247 0.158574 0.713 4286944157
0.124552 0.160346 0.72100002 4286615706
0.127198 0.16123 0.72500002 4286746778
0.12933201 0.16144601 0.72600001 4286878364
0.131651 0.16188399 0.72799999 4286549399
0.134165 0.162545 0.73100001 4286220434
0.136508 0.162983 0.73299998 4286614163
0.138484 0.162976 0.73299998 4286482063
0.14046 0.16297001 0.73299998 4285824131
0.14263 0.163186 0.73400003 4285231476
0.144805 0.16340099 0.73500001 4286020477
0.147185 0.163839 0.73699999 4288585627
0.14917099 0.16383301 0.73699999 4288322453
0.151567 0.164271 0.73900002 4288585625
0.15335099 0.164042 0.73799998 4288651673
0.155128 0.16381299 0.73699999 4288980122
0.157327 0.164029 0.73799998 4288848275
0.159531 0.16424499 0.73900002 4287729278
0.16174001 0.16446 0.74000001 4287794813
0.16351201 0.164232 0.73900002 4287926653
0.16572601 0.16444699 0.74000001 4287597434
0.16771901 0.164441 0.74000001 4287926912
0.16994099 0.164657 0.741 4288321415
0.17193601 0.16464999 0.741 4288124036
0.17369699 0.16442201 0.74000001 4287400568
0.175689 0.164416 0.74000001 4288124291
0.17816199 0.164854 0.74199998 4288255875
0.180402 0.16507 0.74299997 4288255875
0.182403 0.16506401 0.74299997 4287729533
0.183906 0.16461401 0.741 4287861119
0.18565001 0.164386 0.74000001 4288190084
0.18814901 0.16482399 0.74199998 4288453001
0.190403 0.16504 0.74299997 4288453517
0.192403 0.16503499 0.74299997 4288058505
0.19440299 0.165029 0.74299997 4288124038
0.196403 0.165024 0.74299997 4288124038
0.19867 0.16524 0.74400002 4287926657
0.199863 0.16456901 0.741 4287729533
0.201858 0.164564 0.741 4287992705
0.203853 0.16455901 0.741 4287729533
0.206403 0.16499799 0.74299997 4288124291
0.208122 0.16477101 0.74199998 4285887074
0.21012001 0.164766 0.74199998 4288058245
0.212117 0.16476201 0.74199998 4287926659
0.214692 0.16520201 0.74400002 4287926912
0.216695 0.165197 0.74400002 4287926657
0.218404 0.16497099 0.74299997 4287926657
0.220404 0.164967 0.74299997 4287795071
0.22210599 0.16474099 0.74199998 4287729794
0.224406 0.16496 0.74299997 4287664001
0.22640701 0.164956 0.74299997 4287926657
0.22840799 0.16495299 0.74299997 4287860864
0.230719 0.165172 0.74400002 4287860864
0.232723 0.165169 0.74400002 4287926657
0.234727 0.16516601 0.74400002 4287926657
0.23673201 0.16516399 0.74400002 4287992452
0.238416 0.164939 0.74299997 4287795073
0.240418 0.164937 0.74299997 4288058243
0.242094 0.164713 0.74199998 4287860864
0.244094 0.164712 0.74199998 4287926912
0.246094 0.16471 0.74199998 4287861119
0.248429 0.164931 0.74299997 4287663740
0.25009599 0.164708 0.74199998 4287861117
0.252437 0.164929 0.74299997 4287926912
0.25444099 0.164928 0.74299997 4288059012
0.25713599 0.165372 0.745 4287861886
0.25879899 0.16515 0.74400002 4287664252
0.26115799 0.165372 0.745 4287598461
0.26281601 0.16515 0.74400002 4287598461
0.26518101 0.165373 0.745 4287795585
0.26683399 0.165152 0.74400002 4287137657
0.26884401 0.165153 0.74400002 4287137141
0.27085501 0.16515499 0.74400002 4286874483
0.27286601 0.16515601 0.74400002 4286677104
0.27487701 0.165159 0.74400002 4286413934
0.276889 0.165161 0.74400002 4286084967
0.27890199 0.16516399 0.74400002 4286940792
0.28053799 0.16494501 0.74299997 4286941046
0.28254899 0.164948 0.74299997 4286809459
0.28494301 0.16517401 0.74400002 4286875252
0.28695899 0.165178 0.74400002 4287335289
0.28897399 0.16518199 0.74400002 4287466875
0.29099101 0.165187 0.74400002 4287598461
0.29261401 0.16497 0.74299997 4287532154
0.29462999 0.164975 0.74299997 4287663740
0.29624701 0.164759 0.74199998 4287532154
0.29826099 0.164765 0.74199998 4287663999
0.30027601 0.16477101 0.74199998 4287598206
0.30229199 0.16477799 0.74199998 4287796355
0.30512899 0.16522899 0.74400002 4287598976
0.306739 0.165015 0.74299997 4287598461
0.30834499 0.164801 0.74199998 4287795326
0.30952799 0.16436499 0.74000001 4287992705
0.31154299 0.16437399 0.74000001 4287663738
0.31440601 0.164827 0.74199998 4287400821
0.31642899 0.164837 0.74199998 4286742891
0.31888199 0.165069 0.74299997 4287202936
0.32047701 0.164858 0.74199998 4287532154
0.32206899 0.164646 0.741 4287532668
0.32409301 0.164658 0.741 4287795840
0.32611799 0.16467001 0.741 4287795840
0.328145 0.164682 0.741 4287795840
0.33061901 0.16491701 0.74199998 4287861633
0.33265001 0.16493 0.74199998 4287993219
0.33378199 0.1645 0.74000001 4287796101
0.33535701 0.16429199 0.73900002 4287401597
0.33829799 0.16475099 0.741 4287795840
0.340332 0.164766 0.741 4287730047
0.34283099 0.165004 0.74199998 4287664254
0.34440601 0.16479801 0.741 4287729792
0.34644499 0.16481499 0.741 4287072632
0.347545 0.164388 0.73900002 4286743162
0.34958199 0.164406 0.73900002 4287071864
0.35161999 0.164424 0.73900002 4287071864
0.354139 0.164666 0.74000001 4287269496
0.35618299 0.164685 0.74000001 4287401080
0.35822901 0.16470499 0.74000001 4287072115
0.360764 0.164949 0.741 4287137394
0.36281699 0.16497 0.741 4287927165
0.365363 0.165215 0.74199998 4287926910
0.36643201 0.164792 0.74000001 4287663227
0.368985 0.165038 0.741 4287860860
0.37104499 0.165062 0.741 4287531894
0.373611 0.165309 0.74199998 4287203442
0.375678 0.165334 0.74199998 4287203442
0.377747 0.16536 0.74199998 4287466614
0.37981799 0.16538601 0.74199998 4287663993
0.38240701 0.165636 0.74299997 4287598461
0.385003 0.165887 0.74400002 4287664254
0.387086 0.165916 0.74400002 4287533182
0.38917199 0.16594499 0.74400002 4287467389
0.39126 0.165975 0.74400002 4287730045
0.39335099 0.166006 0.74400002 4287467128
0.39491299 0.165814 0.74299997 4287466612
0.39700601 0.16584601 0.74299997 4287466867
0.399638 0.16610201 0.74400002 4287269747
0.40119901 0.165913 0.74299997 4286809196
0.40384299 0.16617 0.74400002 4287401333
0.405404 0.16598199 0.74299997 4287467118
0.40696201 0.165795 0.74199998 4287269990
0.40906799 0.165831 0.74199998 4286744423
0.41062301 0.165645 0.741 4283454026
0.41273201 0.165684 0.741 4282862908
0.41540399 0.16594601 0.74199998 4283192126
0.417523 0.165986 0.74199998 4282927933
0.42021 0.166251 0.74299997 4282992202
0.422337 0.166293 0.74299997 4282794822
0.42446801 0.166335 0.74299997 4282927672
0.42602801 0.166155 0.74199998 4283190844
0.42816201 0.166199 0.74199998 4283256384
0.4303 0.166245 0.74199998 4283847501
0.43244201 0.166291 0.74199998 4285097054
0.434001 0.166114 0.741 4286020692
0.436735 0.16638599 0.74199998 4286743909
0.438887 0.166435 0.74199998 4287204215
0.44163799 0.16671 0.74299997 4287138422
0.443203 0.166536 0.74199998 4287270008
0.44536701 0.16658799 0.74199998 4287466873
0.446329 0.166192 0.74000001 4287269496
0.448495 0.166246 0.74000001 4287597947
0.450665 0.166301 0.74000001 4287203703
0.454063 0.166806 0.74199998 4287466875
0.457477 0.16731299 0.74400002 4287598461
0.460908 0.167822 0.74599999 4287664760
0.46311301 0.167881 0.74599999 4287795838
0.464699 0.16771699 0.745 4287861372
0.46691 0.167779 0.745 4287729786
0.46912599 0.167842 0.745 4287992958
0.47197899 0.16813099 0.74599999 4287729273
0.47547901 0.168648 0.74800003 4287598198
0.477718 0.168715 0.74800003 4287598198
0.479321 0.168557 0.74699998 4287992956
0.480923 0.1684 0.74599999 4287861372
0.48381999 0.168696 0.74699998 4287532660
0.48607701 0.168768 0.74699998 4287729780
0.488994 0.169067 0.74800003 4287532399
0.49060801 0.168915 0.74699998 4287531887
0.49354199 0.16921701 0.74800003 4287466354
0.494499 0.168841 0.74599999 4287203183
0.49744701 0.169145 0.74699998 4287071596
0.49973899 0.16922501 0.74699998 4287071596
-0.19923399 0.16169401 0.73699999 4288124805
-0.19698299 0.161479 0.736 4288256654
-0.19526701 0.161704 0.73699999 4288125329
-0.193808 0.162149 0.73900002 4287336581
-0.19207799 0.16237301 0.74000001 4284704869
-0.189573 0.16193999 0.73799998 4289178288
-0.187332 0.161727 0.73699999 4289046955
-0.18509699 0.161513 0.736 4289112485
-0.183364 0.16173799 0.73699999 4289309348
-0.18138 0.161744 0.73699999 4289310371
-0.17964 0.16197 0.73799998 4289178015
-0.177653 0.16197599 0.73799998 4289375396
-0.175666 0.161982 0.73799998 4289309601
-0.17367899 0.16198801 0.73799998 4289309087
-0.171692 0.16199499 0.73799998 4288848536
-0.169705 0.162001 0.73799998 4288848791
-0.167263 0.161568 0.736 4289769116
-0.165281 0.161575 0.736 4289440151
-0.16329899 0.16158099 0.736 4289045652
-0.16153599 0.161807 0.73699999 4289111445
-0.159334 0.161594 0.736 4289243549
-0.157565 0.16181999 0.73699999 4289374880
-0.155791 0.162046 0.73799998 4289638054
-0.153594 0.161833 0.73699999 4289111455
-0.151197 0.161401 0.73500001 4289374882
-0.149014 0.16118801 0.73400003 4289308834
-0.147236 0.161414 0.73500001 4289572261
-0.14545301 0.16164 0.736 4289177503
-0.143665 0.16186599 0.73699999 4289308319
-0.14167801 0.161873 0.73699999 4288387217
-0.13969199 0.16188 0.73699999 4288057992
-0.138078 0.16232499 0.73900002 4288189578
-0.135902 0.162112 0.73799998 4288123784
-0.13373099 0.161899 0.73699999 4288650382
-0.131565 0.161686 0.736 4288650128
-0.129932 0.16213199 0.73799998 4288584336
-0.127941 0.162139 0.73799998 4288715922
-0.126122 0.162365 0.73900002 4288518543
-0.124128 0.16237099 0.73900002 4288847250
-0.121969 0.162158 0.73799998 4288848014
-0.119978 0.162164 0.73799998 4289176979
-0.117667 0.161731 0.736 4289242259
-0.115838 0.161957 0.73699999 4288848014
-0.113849 0.161963 0.73699999 4288847501
-0.112163 0.16240899 0.73900002 4288781708
-0.110318 0.162635 0.74000001 4288452743
-0.108174 0.162421 0.73900002 4288123778
-0.106322 0.16264699 0.74000001 4288650122
-0.104324 0.162653 0.74000001 4288189571
-0.102326 0.162659 0.74000001 4288452743
-0.099920899 0.16200501 0.73699999 4288584330
-0.098063201 0.162231 0.73799998 4288452744
-0.096069902 0.16223601 0.73799998 4288321160
-0.094076298 0.162242 0.73799998 4287992193
-0.092207402 0.162467 0.73900002 4288978573
-0.090210699 0.16247299 0.73900002 4288518022
-0.088213898 0.162478 0.73900002 4288518022
-0.086100303 0.16226301 0.73799998 4288649608
-0.0843338 0.162708 0.74000001 4288781966
-0.082333699 0.16271301 0.74000001 4288847759
-0.080224998 0.162498 0.73900002 4288387463
-0.078227296 0.162503 0.73900002 4287531899
-0.076332599 0.162728 0.74000001 4287268727
-0.074432403 0.162953 0.741 4287860864
-0.072233297 0.162517 0.73900002 4288255622
-0.070139997 0.162302 0.73799998 4288124036
-0.067959599 0.16186699 0.736 4288123781
-0.066058703 0.162091 0.73699999 4288321160
-0.063978396 0.16187499 0.736 4287926400
-0.062155999 0.162319 0.73799998 4288123779
-0.060159702 0.162323 0.73799998 4288057986
-0.058320802 0.16276699 0.74000001 4288058498
-0.0561666 0.16233 0.73799998 4288124291
-0.0542433 0.162554 0.73900002 4288058498
-0.052173 0.16233701 0.73799998 4288190084
-0.050244 0.162561 0.73900002 4288255877
-0.0481789 0.16234399 0.73799998 4288321670
-0.0462442 0.162567 0.73900002 4288716173
-0.0442442 0.16257 0.73900002 4288782480
-0.0421868 0.16235299 0.73799998 4288979859
-0.0401893 0.162356 0.73799998 4289111445
-0.038191602 0.162358 0.73799998 4288914068
-0.036341 0.163021 0.741 4289111961
-0.034335099 0.16302299 0.741 4289177754
-0.032241799 0.162586 0.73900002 4289177754
-0.0301593 0.162148 0.73699999 4289111963
-0.028163901 0.16215 0.73699999 4289177756
-0.026275 0.16281199 0.74000001 4289177756
-0.024271401 0.16281299 0.74000001 4288717719
-0.022267699 0.162815 0.74000001 4288849050
-0.0202366 0.162596 0.73900002 4288980122
-0.0182602 0.162818 0.74000001 4289177756
-0.0162124 0.162379 0.73799998 4289046422
-0.0141754 0.16193999 0.736 4288980629
-0.0121658 0.16172101 0.73500001 4288914066
-0.0101892 0.16194101 0.736 4289177238
-0.0081961099 0.16194201 0.736 4288980375
-0.0062029501 0.161943 0.736 4288980122
-0.0041983398 0.161503 0.73400003 4288914331
-0.0022166001 0.161943 0.736 4288980124
-0.000223418 0.161943 0.736 4288980124
0.00177217 0.162163 0.73699999 4288914331
0.0037476099 0.161283 0.73299998 4288980124
0.0056857299 0.159962 0.727 4289242526
0.0074860598 0.156441 0.71100003 4288848022
0.0087761199 0.145879 0.66299999 4288913815
0.010141 0.139938 0.63599998 4288979354
0.0115276 0.135977 0.61799997 4288782490
0.0129447 0.13333599 0.60600001 4288782743
0.0142728 0.130474 0.59299999 4288717205
0.015717899 0.129153 0.58700001 4288782998
0.0169241 0.12629201 0.574 4288651671
0.018092001 0.12365 0.56199998 4288849052
0.0197533 0.124529 0.56599998 4288783004
0.019931899 0.116607 0.52999997 4289377208
0.020439601 0.111546 0.50700003 4289971155
0.0622079 0.110144 0.50099999 4286747038
0.067621201 0.110129 0.50099999 4286812831
0.073178202 0.110333 0.50199997 4286549399
0.074978799 0.110988 0.505 4286615192
0.076493204 0.111204 0.50599998 4286746264
0.078166597 0.111639 0.50800002 4286219920
0.0795376 0.111635 0.50800002 4286022026
0.081386298 0.11229 0.51099998 4286218891
0.086004503 0.11668 0.53100002 4286153098
0.097481698 0.130079 0.59200001 4286615192
0.113974 0.149629 0.68099999 4286220948
0.121423 0.156873 0.71399999 4286352534
0.124213 0.157966 0.71899998 4285891983
0.126854 0.158838 0.72299999 4286483606
0.12898199 0.159051 0.72399998 4286680985
0.13129599 0.159484 0.72600001 4286615192
0.13361999 0.159917 0.72799999 4286351506
0.135956 0.16034999 0.73000002 4286285198
0.137924 0.16034301 0.73000002 4286218891
0.1397 0.160117 0.72899997 4286349703
0.14185899 0.16033 0.73000002 4284902511
0.144023 0.16054299 0.73100001 4287994004
0.146393 0.16097599 0.73299998 4288389016
0.148571 0.161189 0.73400003 4288519832
0.15075301 0.161402 0.73500001 4288651418
0.15252601 0.161176 0.73400003 4288585880
0.154293 0.16095001 0.73299998 4288848536
0.156481 0.161163 0.73400003 4287993480
0.15845799 0.161156 0.73400003 4287532154
0.16043501 0.16114999 0.73400003 4287532152
0.162191 0.160924 0.73299998 4287992446
0.16461299 0.161357 0.73500001 4287729274
0.16681901 0.16157 0.736 4287926399
0.169259 0.162002 0.73799998 4288387208
0.171014 0.161777 0.73699999 4288453003
0.172764 0.161551 0.736 4287531899
0.17498299 0.161764 0.73699999 4288584842
0.17720699 0.16197699 0.73799998 4288321670
0.17968 0.16241001 0.74000001 4288387461
0.181427 0.162185 0.73900002 4287861119
0.18316799 0.16195901 0.73799998 4287729533
0.184903 0.161734 0.73699999 4288255622
0.18739399 0.162167 0.73900002 4288190343
0.190152 0.162819 0.74199998 4288321931
0.191891 0.16259401 0.741 4288255884
0.193885 0.162589 0.741 4288123784
0.19561499 0.16236401 0.74000001 4288189831
0.197607 0.162358 0.74000001 4288124036
0.19905999 0.16191401 0.73799998 4287795326
0.201046 0.161909 0.73799998 4287926912
0.203032 0.16190401 0.73799998 4287466106
0.20557401 0.162338 0.74000001 4287466108
0.20756599 0.162333 0.74000001 4286610799
0.209558 0.162328 0.74000001 4287597440
0.21155 0.162323 0.74000001 4287795071
0.214119 0.16275799 0.74199998 4287663740
0.21611699 0.162753 0.74199998 4287466620
0.21782 0.16253 0.741 4287466620
0.21951801 0.162306 0.74000001 4287729278
0.221211 0.162083 0.73900002 4287532415
0.22350299 0.16229901 0.74000001 4287400829
0.225191 0.162076 0.73900002 4287597692
0.227796 0.16251101 0.741 4287860864
0.229792 0.162508 0.741 4287663485
0.23178799 0.162505 0.741 4287597692
0.233468 0.162283 0.74000001 4287992452
0.235461 0.16227999 0.74000001 4287795073
0.237455 0.162278 0.74000001 4287531901
0.23944899 0.162275 0.74000001 4287597694
0.24144299 0.162273 0.74000001 4287795071
0.24343801 0.16227099 0.74000001 4287729278
0.245433 0.16226999 0.74000001 4287532154
0.247428 0.162268 0.74000001 4287532154
0.24908599 0.162048 0.73900002 4286413673
0.25107899 0.162047 0.73900002 4287137910
0.25307199 0.162046 0.73900002 4287203703
0.255411 0.162265 0.74000001 4287203187
0.25705999 0.162045 0.73900002 4287466359
0.25870401 0.161826 0.73799998 4287598461
0.26069599 0.161826 0.73799998 4287795326
0.263044 0.162046 0.73900002 4287926912
0.26539901 0.162266 0.74000001 4287860864
0.267398 0.162267 0.74000001 4287795326
0.26939699 0.162269 0.74000001 4287795840
0.27139699 0.16226999 0.74000001 4287664254
0.27376699 0.16249099 0.741 4287269241
0.27577001 0.162494 0.741 4287204218
0.27814901 0.162715 0.74199998 4287270011
0.27977899 0.162499 0.741 4287137655
0.28178501 0.16250201 0.741 4287203448
0.284174 0.162725 0.74199998 4287138424
0.286183 0.162728 0.74199998 4287006839
0.28780499 0.162513 0.741 4287006069
0.28981301 0.16251799 0.741 4287137910
0.292216 0.162742 0.74199998 4287071603
0.29422799 0.162747 0.74199998 4287005810
0.29584199 0.162533 0.741 4287071603
0.29745099 0.162319 0.74000001 4287532668
0.29945999 0.16232599 0.74000001 4286874738
0.30147001 0.162332 0.74000001 4287072631
0.303891 0.162558 0.741 4286941045
0.305493 0.16234601 0.74000001 4287466875
0.30667499 0.161915 0.73799998 4287663740
0.30868301 0.16192301 0.73799998 4287466361
0.31027099 0.16171201 0.73699999 4287729786
0.312702 0.16194101 0.73799998 4287992956
0.314713 0.16195001 0.73799998 4287663993
0.317155 0.16217899 0.73900002 4287926910
0.31917101 0.16218901 0.73900002 4287926912
0.32075399 0.161981 0.73799998 4287795071
0.32233199 0.161772 0.73699999 4287268982
0.32434601 0.16178399 0.73699999 4287532668
0.32680401 0.16201501 0.73799998 4287466875
0.32926899 0.162247 0.73900002 4287269496
0.330396 0.16182099 0.73699999 4287269496
0.33196399 0.161615 0.736 4287335034
0.33398101 0.16162799 0.736 4287203703
0.33691299 0.162082 0.73799998 4287203448
0.33893901 0.16209701 0.73799998 4287729792
0.340967 0.162112 0.73799998 4287269496
0.342531 0.161908 0.73699999 4287663999
0.34502599 0.16214401 0.73799998 4287992964
0.347058 0.16216099 0.73799998 4287992712
0.348618 0.16195901 0.73699999 4288124299
0.34969899 0.16153701 0.73500001 4287796355
0.35220501 0.16177601 0.736 4288256391
0.354238 0.16179501 0.736 4288255875
0.356273 0.161814 0.736 4287926912
0.359283 0.162274 0.73799998 4288124291
0.36132601 0.162295 0.73799998 4288123785
0.363864 0.162536 0.73900002 4288321670
0.365419 0.162338 0.73799998 4288255877
0.367468 0.162361 0.73799998 4288058751
0.369019 0.162164 0.73699999 4287400821
0.371573 0.16240799 0.73799998 4288058751
0.37312201 0.162212 0.73699999 4287992703
0.37517601 0.162237 0.73699999 4287597945
0.377233 0.16226301 0.73699999 4286940015
0.379291 0.16229001 0.73699999 4286677359
0.38187 0.16253699 0.73799998 4286677359
0.38393599 0.16256499 0.73799998 4286612080
0.386004 0.16259301 0.73799998 4287006324
0.38860101 0.162843 0.73900002 4287006324
0.39067701 0.162872 0.73900002 4287006322
0.393287 0.163124 0.74000001 4287269235
0.39537099 0.163155 0.74000001 4287335028
