# .PCD v0.7 - Point Cloud Data file format
VERSION 0.7
FIELDS x y z rgb
SIZE 4 4 4 4
TYPE F F F U
COUNT 1 1 1 1
WIDTH 1094
HEIGHT 1
VIEWPOINT 0 0 0 1 0 0 0
POINTS 1094
DATA ascii
0.163467 0.0607237 0.63700002 4283583025
0.165179 0.06072 0.63700002 4283319853
0.16663 0.0606209 0.63599998 4283451439
0.168075 0.060521901 0.63499999 4283517232
0.169514 0.060423002 0.634 4283056426
0.17121799 0.060419399 0.634 4283188528
0.173467 0.060606401 0.63599998 4283714872
0.17545199 0.060698099 0.63700002 4283320628
0.177164 0.060694601 0.63700002 4283452214
0.17859399 0.060595799 0.63599998 4283123503
0.18002 0.060497001 0.63499999 4283385905
0.18201201 0.0605889 0.63599998 4283517491
0.183432 0.060490198 0.63499999 4283714609
0.185138 0.060486902 0.63499999 4283714863
0.18684299 0.060483601 0.63499999 4283583537
0.188549 0.0604803 0.63499999 4283517744
0.19055399 0.0605723 0.63599998 4283451951
0.19165801 0.0603787 0.634 4283320112
0.193666 0.060470801 0.63499999 4283385907
0.195372 0.060467701 0.63499999 4283320882
0.197698 0.060655098 0.63700002 4283781433
0.19972201 0.0607474 0.63800001 4283255603
0.20112 0.060649201 0.63700002 4283518775
0.20219401 0.060456 0.63499999 4283123503
0.20357899 0.060357999 0.634 4283518261
0.205606 0.060450401 0.63499999 4283518261
0.207312 0.060447801 0.63499999 4283781433
0.20901801 0.060445201 0.63499999 4283781432
0.210724 0.060442701 0.63499999 4283846711
0.21243 0.060440201 0.63499999 4284109883
0.213799 0.060342599 0.634 4284044090
0.21550199 0.0603403 0.634 4283847226
0.21789099 0.060528401 0.63599998 4284176451
0.219946 0.060621399 0.63700002 4284044865
0.22131 0.060524199 0.63599998 4284307523
0.22266901 0.060426999 0.63499999 4284044865
0.22473 0.060520299 0.63599998 4284307523
0.22608399 0.0604233 0.63499999 4284373316
0.22779199 0.060421601 0.63499999 4284373316
0.22986101 0.060515098 0.63599998 4284044865
0.23193599 0.060608599 0.63700002 4284636488
0.232916 0.0604169 0.63499999 4284504903
0.234625 0.060415499 0.63499999 4284373316
0.236334 0.060414299 0.63499999 4284307523
0.238043 0.0604131 0.63499999 4284373570
0.23937599 0.060316902 0.634 4284899913
0.24146301 0.060411099 0.63499999 4284374083
0.243174 0.060410202 0.63499999 4284769352
0.24527 0.0605046 0.63599998 4284506182
0.24659599 0.060408901 0.63499999 4284703559
0.247916 0.060313199 0.634 4284374594
0.249626 0.0603128 0.634 4284571973
0.25133601 0.060312498 0.634 4284703557
0.25264701 0.060217202 0.63300002 4284901185
0.25515899 0.060407501 0.63499999 4284704059
0.256468 0.060312402 0.634 4284900681
0.25858799 0.060407799 0.63499999 4284965967
0.25948301 0.060217801 0.63300002 4284768848
0.26078099 0.060123201 0.63200003 4284571469
0.26290399 0.0602189 0.63300002 4284769101
0.26503399 0.060314801 0.634 4285032013
0.26674899 0.060315698 0.634 4284966472
0.26846501 0.0603167 0.634 4285097799
0.270181 0.0603179 0.634 4285163590
0.27189901 0.0603192 0.634 4284834625
0.27361599 0.060320601 0.634 4284900679
0.275769 0.060417399 0.63499999 4284703300
0.277491 0.060419202 0.63499999 4285098060
0.27921399 0.060421102 0.63499999 4285360979
0.280938 0.060423199 0.63499999 4285032014
0.28266299 0.060425401 0.63499999 4285229140
0.28349301 0.060237501 0.63300002 4285031760
0.28521401 0.06024 0.63300002 4285163346
0.28648299 0.060147598 0.63200003 4285558358
0.28865901 0.0602456 0.63300002 4285623636
0.289924 0.060153499 0.63200003 4285557581
0.29256901 0.060347099 0.634 4284899136
0.29429799 0.060350601 0.634 4285096516
0.29649499 0.060449399 0.63499999 4286083411
0.29822901 0.060453199 0.63499999 4285688913
0.29901901 0.0602667 0.63300002 4285492818
0.300749 0.060270902 0.63300002 4285690197
0.302481 0.060275301 0.63300002 4285492818
0.304694 0.060375001 0.634 4285624655
0.30546501 0.060189299 0.63200003 4285821267
0.30671099 0.060098998 0.63099998 4285688913
0.30893099 0.060199399 0.63200003 4285491534
0.311158 0.0603 0.63300002 4285623890
0.31339201 0.060400799 0.634 4285821015
0.314639 0.060311299 0.63300002 4285952853
0.31638101 0.0603173 0.63300002 4286019160
0.31812501 0.060323499 0.63300002 4286084953
0.31936499 0.060234599 0.63200003 4285755988
0.32111001 0.0602412 0.63200003 4285690197
0.32336599 0.0603434 0.63300002 4285887322
0.32511601 0.0603505 0.63300002 4285821276
0.326352 0.060262501 0.63200003 4286084448
0.32810301 0.06027 0.63200003 4286084702
0.32933301 0.0601824 0.63099998 4286150754
0.33160901 0.060285799 0.63200003 4285953373
0.33336499 0.060294099 0.63200003 4286084959
0.336184 0.060493499 0.634 4285755996
0.33848199 0.060597699 0.63499999 4285887582
0.33971599 0.060511298 0.634 4285754717
0.340408 0.060329702 0.63200003 4285951582
0.34163299 0.0602438 0.63099998 4286017618
0.34394199 0.060349099 0.63200003 4286017618
0.346259 0.0604546 0.63300002 4285886031
0.34803301 0.060465001 0.63300002 4285820752
0.34925801 0.060380101 0.63200003 4285558095
0.35047901 0.0602955 0.63099998 4285755474
0.352254 0.060306601 0.63099998 4285558097
0.35403201 0.060318101 0.63099998 4285623374
0.355813 0.060329799 0.63099998 4285820499
0.35816199 0.0604375 0.63200003 4286149718
0.35995099 0.060449801 0.63200003 4285491788
0.36174101 0.0604624 0.63200003 4286610522
0.36410999 0.060571101 0.63300002 4285755212
0.36648601 0.060680099 0.634 4286084431
0.36770901 0.060598001 0.63300002 4285887052
0.36951301 0.0606119 0.63300002 4285623880
0.37132001 0.060626101 0.63300002 4286084178
0.37312999 0.0606407 0.63300002 4286149971
0.37435001 0.060559701 0.63200003 4286018901
0.376757 0.060670801 0.63300002 4286281818
0.37857601 0.060686301 0.63300002 4285821267
0.38159901 0.060894001 0.63499999 4285821267
0.38282499 0.060814399 0.634 4286216025
0.38465601 0.060830999 0.634 4284900940
0.38527 0.060656 0.63200003 4285427029
0.387714 0.060769301 0.63300002 4283849027
0.390167 0.060883 0.634 4282138154
0.39262801 0.060997199 0.63499999 4286612594
0.39447799 0.061015699 0.63499999 4287138422
0.396332 0.061034501 0.63499999 4287203701
0.39818901 0.061053801 0.63499999 4287137910
0.40131 0.0612658 0.63700002 4287401082
0.402547 0.0611897 0.63599998 4287400827
0.405054 0.061306398 0.63700002 4287268989
0.40629399 0.061230998 0.63599998 4287729288
0.40753099 0.061156001 0.63499999 4287531647
0.40941101 0.061177701 0.63499999 4287532154
0.41194299 0.061296199 0.63599998 4287532152
0.41448501 0.061415099 0.63700002 4287466359
0.416383 0.061438199 0.63700002 4287531901
0.418286 0.061461698 0.63700002 4287532413
0.42085299 0.0615821 0.63800001 4287598206
0.42210501 0.06151 0.63700002 4287598206
0.42402101 0.0615348 0.63700002 4287203964
0.425942 0.061560102 0.63700002 4286941045
0.427867 0.061585899 0.63700002 4286677873
0.43047199 0.0617088 0.63800001 4286546288
0.43241099 0.0617356 0.63800001 4286678387
0.43435401 0.061762899 0.63800001 4286874746
0.43630201 0.061790701 0.63800001 4287137910
0.438943 0.0619158 0.639 4287663738
0.44090399 0.061944701 0.639 4287400308
0.44287199 0.061974 0.639 4287071597
-0.199609 0.058373701 0.63099998 4289769899
-0.19728599 0.058191501 0.62900001 4289967278
-0.19528601 0.0581019 0.62800002 4289769899
-0.194216 0.0582898 0.63 4290427570
-0.192524 0.058292799 0.63 4290230191
-0.19113401 0.058388401 0.63099998 4289967533
-0.18913899 0.058298901 0.63 4290098603
-0.187149 0.058209501 0.62900001 4290098603
-0.18546 0.058212601 0.62900001 4290164396
-0.18377 0.058215801 0.62900001 4289835433
-0.18237001 0.0583116 0.63 4290098603
-0.18096399 0.0584075 0.63099998 4289901224
-0.179269 0.058410801 0.63099998 4289835686
-0.177292 0.058321599 0.63 4290033065
-0.17560001 0.058325 0.63 4289769893
-0.173907 0.058328401 0.63 4290164651
-0.17248701 0.058424398 0.63099998 4290164396
-0.17106199 0.0585205 0.63200003 4289769638
-0.16936401 0.058524001 0.63200003 4289835686
-0.167665 0.0585276 0.63200003 4290164135
-0.165966 0.058531102 0.63200003 4289900963
-0.164527 0.0586273 0.63300002 4289769893
-0.162826 0.058630999 0.63300002 4289901479
-0.160614 0.058449298 0.63099998 4289901479
-0.158666 0.058360301 0.63 4289572514
-0.15672199 0.0582713 0.62900001 4289571744
-0.155277 0.058367599 0.63 4289703330
-0.153826 0.058463998 0.63099998 4289966502
-0.151647 0.058282301 0.62900001 4290032295
-0.149716 0.0581933 0.62800002 4289900709
-0.147791 0.0581044 0.62699997 4289769123
-0.146336 0.058200698 0.62800002 4289966503
-0.144877 0.058297101 0.62900001 4289900710
-0.14318299 0.058300801 0.62900001 4289835431
-0.14171501 0.0583972 0.63 4289835686
-0.140241 0.058493599 0.63099998 4290098342
-0.138542 0.058497299 0.63099998 4289703582
-0.13706 0.058593798 0.63200003 4289966754
-0.13535701 0.058597501 0.63200003 4289703584
-0.133443 0.0585085 0.63099998 4289571998
-0.131534 0.058419399 0.63 4290163367
-0.12983701 0.058423098 0.63 4289768609
-0.128546 0.058612298 0.63200003 4289703070
-0.126642 0.0585232 0.63099998 4289703070
-0.124743 0.058434099 0.63 4289965988
-0.122849 0.058345001 0.62900001 4289834916
-0.121345 0.0584413 0.63 4289703330
-0.119456 0.058352198 0.62900001 4289637791
-0.11776 0.0583557 0.62900001 4289637275
-0.116248 0.0584521 0.63 4289703068
-0.114911 0.058641199 0.63200003 4289900702
-0.113385 0.058737502 0.63300002 4289966240
-0.111677 0.058741 0.63300002 4289834654
-0.109794 0.058651701 0.63200003 4289768863
-0.108259 0.058747999 0.63300002 4289834402
-0.106382 0.0586586 0.63200003 4289834403
-0.104675 0.058662001 0.63200003 4290097575
-0.102642 0.0584797 0.63 4289703077
-0.100941 0.058483001 0.63 4289900456
-0.099396102 0.058579199 0.63099998 4289900710
-0.097845897 0.0586753 0.63200003 4289440159
-0.095985897 0.0585857 0.63099998 4289242780
-0.094280504 0.0585889 0.63099998 4289900196
-0.092868201 0.058777701 0.63300002 4289900196
-0.091156803 0.058780901 0.63300002 4289571231
-0.089586496 0.058876801 0.634 4289703331
-0.087733299 0.058786999 0.63300002 4289769124
-0.086021297 0.058789998 0.63300002 4289834917
-0.084442101 0.058885898 0.634 4289572514
-0.082596399 0.058795899 0.63300002 4289572259
-0.0807558 0.0587059 0.63200003 4289769123
-0.078795403 0.058522899 0.63 4289965988
-0.077212602 0.058618601 0.63099998 4290229414
-0.075624198 0.0587143 0.63200003 4290163621
-0.073913299 0.058716901 0.63200003 4290426791
-0.072202101 0.058719601 0.63200003 4290426791
-0.070267603 0.058536399 0.63 4290229667
-0.068561397 0.058538899 0.63 4290361253
-0.066748902 0.058448501 0.62900001 4290360998
-0.064941503 0.058357999 0.62800002 4290295460
-0.063139401 0.0582674 0.62699997 4289769377
-0.061538599 0.058362599 0.62800002 4290098088
-0.059836801 0.058364902 0.62800002 4290427053
-0.058227401 0.058460001 0.62900001 4290361775
-0.0565225 0.058462199 0.62900001 4290229936
-0.054904599 0.058557302 0.63 4289967019
-0.053281199 0.0586523 0.63099998 4289769640
-0.0516521 0.058747198 0.63200003 4289835433
-0.050017402 0.0588421 0.63300002 4290032042
-0.048453499 0.0590299 0.63499999 4290097835
-0.046952099 0.0593106 0.63800001 4290032042
-0.045009099 0.059033498 0.63499999 4290163114
-0.042332299 0.057733599 0.62099999 4289965989
-0.039927699 0.056712501 0.61000001 4289768609
-0.037582599 0.055691399 0.59899998 4289834403
-0.0328959 0.050951 0.54799998 4289637285
-0.0308359 0.050022501 0.53799999 4288257704
0.090663701 0.049374901 0.53200001 4285362559
0.095043004 0.0509497 0.54900002 4285362559
0.102327 0.054009099 0.58200002 4285297282
0.108718 0.056511302 0.60900003 4285297283
0.11163 0.057157401 0.616 4285231489
0.11366 0.057339501 0.61799997 4285362559
0.115887 0.0576143 0.62099999 4285099384
0.11813 0.0578891 0.62400001 4284638569
0.120197 0.058071099 0.62599999 4282532671
0.121885 0.058067501 0.62599999 4282662966
0.123967 0.058249399 0.62800002 4282597426
0.12605999 0.058431301 0.63 4282729265
0.127556 0.058334898 0.62900001 4282860338
0.12904499 0.058238499 0.62800002 4282597677
0.130946 0.0583275 0.62900001 4282663470
0.13306201 0.058509301 0.63099998 4282400300
0.134335 0.058320101 0.62900001 4282466093
0.13602901 0.058316499 0.62900001 4282597679
0.137942 0.0584055 0.63 4282860338
0.13986 0.058494501 0.63099998 4283254582
0.141559 0.058490701 0.63099998 4283450931
0.14325801 0.058487002 0.63099998 4283319600
0.14518601 0.058575999 0.63200003 4282990633
0.146887 0.0585723 0.63200003 4283122474
0.148588 0.0585685 0.63200003 4283451439
0.150051 0.058472201 0.63099998 4283319853
0.151989 0.058561102 0.63200003 4283385905
0.15393201 0.058650099 0.63300002 4283385907
0.155881 0.058738999 0.634 4283517493
0.15758599 0.0587354 0.634 4283320114
0.15904 0.058639001 0.63300002 4283319600
0.160996 0.058727998 0.634 4283319598
0.162701 0.0587244 0.634 4283320367
0.164405 0.058720801 0.634 4283517746
0.165847 0.058624599 0.63300002 4283451437
0.167549 0.058621 0.63300002 4283583023
0.168983 0.058524799 0.63200003 4283188267
0.17095201 0.0586139 0.63300002 4283254319
0.17292599 0.058703002 0.634 4283451700
0.174905 0.058792099 0.63499999 4283583800
0.176333 0.058696099 0.634 4283255089
0.177755 0.058600102 0.63300002 4283583284
0.17917299 0.058504101 0.63200003 4283320112
0.18115699 0.058593299 0.63300002 4283517491
0.182568 0.0584975 0.63200003 4283648816
0.184266 0.058494199 0.63200003 4283649070
0.185964 0.058490999 0.63200003 4283451691
0.188255 0.058672901 0.634 4283583023
0.18995801 0.058669802 0.634 4283648816
0.191359 0.058574099 0.63300002 4283845944
0.193059 0.0585711 0.63300002 4283649079
0.195375 0.058753099 0.63499999 4283386421
0.197391 0.0588427 0.63599998 4283847226
0.199412 0.058932301 0.63700002 4283320881
0.20080701 0.0588369 0.63599998 4283320881
0.20187899 0.0586491 0.634 4283780916
0.203261 0.058553901 0.63300002 4283583539
0.205285 0.058643699 0.634 4283714870
0.20698801 0.058641098 0.634 4284175676
0.20902 0.058731101 0.63499999 4283780918
0.210062 0.0585436 0.63300002 4283516977
0.212432 0.058726199 0.63499999 4283780149
0.213801 0.058631301 0.634 4283649077
0.216185 0.058814 0.63599998 4283715387
0.217894 0.058811799 0.63599998 4283846973
0.21994799 0.0589022 0.63700002 4283781179
0.221312 0.058807701 0.63599998 4283452215
0.223022 0.0588057 0.63599998 4283452214
0.224732 0.0588038 0.63599998 4283057710
0.22644199 0.058802001 0.63599998 4283715386
0.22815201 0.058800299 0.63599998 4283978044
0.229863 0.0587986 0.63599998 4283583800
0.231573 0.058797099 0.63599998 4284241216
0.23291799 0.058703199 0.63499999 4284438595
0.234257 0.0586094 0.634 4284110144
0.235963 0.0586082 0.634 4284242244
0.237295 0.058514599 0.63300002 4284045119
0.23899899 0.0585135 0.63300002 4284110912
0.24108399 0.058605 0.634 4284571462
0.242791 0.058604099 0.634 4284637509
0.244499 0.058603399 0.634 4284505923
0.24543101 0.058417901 0.63200003 4284440385
0.24674401 0.0583249 0.63099998 4284769350
0.24883901 0.058416899 0.63200003 4284637507
0.250543 0.058416601 0.63200003 4284769348
0.25264701 0.058508899 0.63300002 4284703041
0.25475699 0.058601201 0.634 4284834372
0.256468 0.058601301 0.634 4284965960
0.25777301 0.0585091 0.63300002 4284768328
0.25907299 0.058416899 0.63200003 4284965968
0.26036799 0.0583249 0.63099998 4284965714
0.26290399 0.0585103 0.63300002 4284637002
0.264615 0.058511 0.63300002 4285032014
0.26590699 0.058419399 0.63200003 4285032267
0.267194 0.058327999 0.63099998 4284900679
0.269328 0.0584215 0.63200003 4284834372
0.27103901 0.0584227 0.63200003 4284769093
0.27318299 0.058516599 0.63300002 4284769093
0.27489901 0.058518101 0.63300002 4285032265
0.277053 0.058612201 0.634 4285163599
0.27877301 0.058614001 0.634 4284834635
0.28005099 0.058523599 0.63300002 4285360725
0.28088 0.058340799 0.63099998 4285426519
0.28214699 0.058250599 0.63 4285031760
0.28386 0.058253098 0.63 4284900428
0.28602701 0.058348201 0.63099998 4285097806
0.28819999 0.058443401 0.63200003 4284900167
0.289462 0.058353901 0.63099998 4285359687
0.29118201 0.058357 0.63099998 4285162308
0.29290199 0.058360301 0.63099998 4285162309
0.294157 0.058271199 0.63 4285689167
0.295876 0.058274899 0.63 4285623636
0.29807001 0.058371201 0.63099998 4285689944
0.30026999 0.058467701 0.63200003 4285558611
0.301521 0.058379401 0.63099998 4285427025
0.30324799 0.0583837 0.63099998 4285558095
0.30401 0.058203202 0.62900001 4285492302
0.30573401 0.058208 0.62900001 4286083671
0.308438 0.058398001 0.63099998 4285886292
0.310662 0.0584957 0.63200003 4285689430
0.31239799 0.058501001 0.63200003 4285623637
0.31363899 0.058414001 0.63099998 4286150748
0.31537601 0.058419801 0.63099998 4285755988
0.317114 0.058425799 0.63099998 4285755988
0.31834799 0.058339301 0.63 4285887574
0.320595 0.058438301 0.63099998 4285755988
0.32233801 0.058444999 0.63099998 4285953369
0.32459599 0.058544401 0.63200003 4286084702
0.32582799 0.058458898 0.63099998 4286084702
0.32809499 0.058558799 0.63200003 4285887576
0.32932499 0.058473699 0.63099998 4285755736
0.33107701 0.058481399 0.63099998 4285953624
0.332302 0.058396701 0.63 4286151003
0.33511499 0.058590401 0.63200003 4286150752
0.33740699 0.058691598 0.63300002 4286216034
0.34024301 0.058885802 0.63499999 4285952602
0.340938 0.058709301 0.63300002 4285360464
0.34162301 0.058533002 0.63099998 4285821006
0.34284401 0.0584497 0.63 4285886285
0.34570199 0.058644999 0.63200003 4285755212
0.347473 0.058655102 0.63200003 4285755213
0.34869501 0.058572501 0.63099998 4285689166
0.34991199 0.058490202 0.63 4285754960
0.351127 0.0584081 0.62900001 4285491788
0.35346001 0.058512099 0.63 4285951825
0.35580099 0.058616299 0.63099998 4286017618
0.35815001 0.058720902 0.63200003 4285820752
0.35936901 0.058639899 0.63099998 4285492041
0.36058399 0.058559202 0.63 4286413143
0.362371 0.0585717 0.63 4285754952
0.36416101 0.0585845 0.63 4285689159
0.36653399 0.0586906 0.63099998 4286477905
0.368916 0.058797099 0.63200003 4285622596
0.371306 0.058903899 0.63300002 4286346066
0.37252599 0.058824901 0.63200003 4286609238
0.37433499 0.058839299 0.63200003 4286609754
0.37674201 0.058947202 0.63300002 4286412375
0.37856001 0.0589622 0.63300002 4286281303
0.38098201 0.059070799 0.634 4286018132
0.38280901 0.059086598 0.634 4285952853
0.38524601 0.059195898 0.63499999 4285690197
0.38586301 0.059025899 0.63300002 4285689943
0.38769701 0.0590427 0.63300002 4284901201
0.390149 0.059153099 0.634 4282204202
0.39261001 0.059264001 0.63499999 4284835669
0.393839 0.0591885 0.634 4287006836
0.39568901 0.059206799 0.634 4287138424
0.396916 0.059131999 0.63300002 4287335289
0.40002999 0.059337899 0.63499999 4287137910
0.401894 0.0593573 0.63499999 4287203703
0.40439799 0.059470601 0.63599998 4287137910
0.40563399 0.059397299 0.63499999 4287334530
0.40751001 0.0594179 0.63499999 4287269241
0.40938899 0.059438899 0.63499999 4287203703
0.41192099 0.059553999 0.63599998 4287532154
0.414462 0.059669599 0.63700002 4287401082
0.41635999 0.059691899 0.63700002 4287664254
0.417606 0.059620898 0.63599998 4287466620
0.420169 0.059737802 0.63700002 4287466620
0.420755 0.059573799 0.63499999 4287926666
0.422665 0.059597801 0.63499999 4287598724
0.42391101 0.059528399 0.634 4287598976
0.425827 0.059553299 0.634 4287270525
0.428422 0.059672602 0.63499999 4287467650
0.43035099 0.059698399 0.63499999 4287270271
0.43296501 0.059818801 0.63599998 4287532929
0.43559101 0.059939802 0.63700002 4287861378
0.438227 0.060061298 0.63800001 4287663485
0.44018599 0.060089201 0.63800001 4287400568
0.44145599 0.060023401 0.63700002 4287400568
-0.19897901 0.0564905 0.62900001 4289770415
-0.19697601 0.056403399 0.62800002 4289770415
-0.195289 0.0564062 0.62800002 4290033587
-0.193602 0.056409098 0.62800002 4290098864
-0.192221 0.056501798 0.62900001 4289901485
-0.190531 0.056504801 0.62900001 4290033071
-0.18854199 0.056417901 0.62800002 4290164912
-0.18655699 0.056331102 0.62699997 4289901740
-0.184873 0.056334201 0.62699997 4290033326
-0.18348099 0.056427199 0.62800002 4289967533
-0.181794 0.056430299 0.62800002 4289835947
-0.18039399 0.056523401 0.62900001 4290033324
-0.17813601 0.056346901 0.62699997 4289835945
-0.176452 0.056350101 0.62699997 4289967531
-0.17448799 0.0562636 0.62599999 4289836200
-0.17308199 0.056356799 0.62699997 4289967531
-0.171671 0.056449998 0.62800002 4289967531
-0.170524 0.0566332 0.63 4289638566
-0.16856299 0.056546699 0.62900001 4289967272
-0.16687299 0.0565501 0.62900001 4290033065
-0.16518199 0.056553598 0.62900001 4289769893
-0.163491 0.0565571 0.62900001 4289769893
-0.162057 0.056650501 0.63 4290098858
-0.160109 0.0565641 0.62900001 4289967272
-0.15816601 0.056477699 0.62800002 4289835686
-0.15597899 0.0563014 0.62599999 4289703845
-0.154541 0.056394901 0.62699997 4289769638
-0.15334301 0.056578301 0.62900001 4289703845
-0.15165 0.0565819 0.62900001 4290098603
-0.14972 0.056495599 0.62800002 4289769638
-0.147559 0.0563192 0.62599999 4289572259
-0.146107 0.056412801 0.62699997 4289572259
-0.14465 0.056506399 0.62800002 4289769638
-0.143415 0.05669 0.63 4290032810
-0.141719 0.056693599 0.63 4289769893
-0.1398 0.056607202 0.62900001 4289703584
-0.138107 0.0566108 0.62900001 4289506203
-0.136629 0.056704398 0.63 4289506203
-0.135361 0.0568881 0.63200003 4289506719
-0.13323499 0.056711599 0.63 4289374619
-0.131538 0.056715298 0.63 4289702816
-0.12963399 0.056628801 0.62900001 4289834402
-0.128143 0.056722399 0.63 4289702816
-0.12624399 0.056635901 0.62900001 4289637023
-0.124746 0.056729499 0.63 4289769124
-0.123048 0.056733102 0.63 4289966503
-0.121349 0.0567366 0.63 4289769123
-0.11946 0.056650098 0.62900001 4289900709
-0.117763 0.0566535 0.62900001 4289900449
-0.116067 0.056657001 0.62900001 4289768861
-0.114551 0.056750499 0.63 4289900447
-0.112851 0.056754 0.63 4289966240
-0.111151 0.056757402 0.63 4289900449
-0.10945 0.056760799 0.63 4289900195
-0.10775 0.0567641 0.63 4289768609
-0.106049 0.0567674 0.63 4289900196
-0.104347 0.056770701 0.63 4289965989
-0.10232 0.056593802 0.62800002 4289834663
-0.100623 0.056597002 0.62800002 4289900456
-0.099084303 0.056690302 0.62900001 4290032296
-0.097539499 0.056783602 0.63 4289900710
-0.095684797 0.056696601 0.62900001 4289900710
-0.093984701 0.056699701 0.62900001 4289966503
-0.0925778 0.0568831 0.63099998 4289900196
-0.091159903 0.0570665 0.63300002 4289900709
-0.089589499 0.057159599 0.634 4289505952
-0.087736301 0.057072502 0.63300002 4289572514
-0.085888296 0.056985199 0.63200003 4289704100
-0.084311903 0.057078298 0.63300002 4289704100
-0.082338303 0.056900799 0.63099998 4289572259
-0.080630898 0.056903601 0.63099998 4289966502
-0.078673102 0.056726001 0.62900001 4290163881
-0.077092998 0.056818899 0.63 4290097828
-0.075507298 0.056911699 0.63099998 4290295207
-0.073798902 0.0569143 0.63099998 4290032033
-0.0718619 0.056736499 0.62900001 4290163619
-0.070158601 0.056738999 0.62900001 4290098081
-0.068455003 0.056741498 0.62900001 4289966240
-0.066751301 0.056743901 0.62900001 4290032033
-0.064943902 0.0566561 0.62800002 4290097826
-0.063242503 0.056658398 0.62800002 4289505951
-0.0614428 0.0565704 0.62699997 4289835431
-0.059743699 0.056572601 0.62699997 4290033065
-0.058229499 0.0567552 0.62900001 4290230189
-0.056524601 0.056757301 0.62900001 4289967019
-0.054819498 0.056759398 0.62900001 4290098605
-0.053029802 0.056671102 0.62800002 4290098605
-0.051408801 0.056763299 0.62900001 4290427570
-0.049861301 0.0569457 0.63099998 4290493363
-0.048302699 0.057128001 0.63300002 4290295984
-0.0467331 0.057310302 0.63499999 4290229675
-0.044798099 0.057041202 0.63200003 4290163882
-0.042401999 0.0561403 0.62199998 4290229161
-0.039994601 0.055149 0.611 4290294954
-0.037772302 0.054338101 0.602 4290163114
-0.033137299 0.049826302 0.55199999 4289966766
-0.030951699 0.048744299 0.54000002 4289508277
0.0915187 0.0483853 0.537 4285296766
0.096084699 0.050004199 0.55500001 4285428352
0.103561 0.053064302 0.58899999 4285495176
0.109078 0.055043101 0.611 4285495176
0.111633 0.055490199 0.616 4285297283
0.113295 0.055486798 0.616 4285296762
0.115703 0.0558437 0.62 4285099122
0.117754 0.056020401 0.62199998 4281875004
0.119816 0.056196999 0.62400001 4282401085
0.121499 0.056193601 0.62400001 4282991931
0.123379 0.056280099 0.625 4283123770
0.125063 0.056276601 0.625 4282991925
0.126748 0.056272998 0.625 4282794545
0.128227 0.056179501 0.62400001 4282465834
0.130117 0.056265902 0.625 4282860591
0.132011 0.056352399 0.62599999 4282794799
0.133911 0.0564388 0.62699997 4282794798
0.1356 0.056435201 0.62699997 4282531626
0.137508 0.056521598 0.62800002 4282597677
0.139642 0.056697998 0.63 4282795305
0.141114 0.0566044 0.62900001 4283056940
0.14303499 0.056690801 0.63 4283056940
0.14473 0.056687102 0.63 4282925095
0.14642601 0.056683499 0.63 4283188265
0.148121 0.056679901 0.63 4283253798
0.149341 0.0564964 0.62800002 4283254312
0.151271 0.0565827 0.62900001 4283517491
0.15320601 0.056669101 0.63 4283254319
0.155393 0.0568454 0.63200003 4283254319
0.157093 0.056841802 0.63200003 4283254322
0.158792 0.056838199 0.63200003 4283122736
0.160238 0.056744799 0.63099998 4283188528
0.161421 0.056561399 0.62900001 4283056940
0.163371 0.0566478 0.63 4283715125
0.16506501 0.056644302 0.63 4283386158
0.166758 0.0566408 0.63 4283649330
0.16871899 0.056727301 0.63099998 4283451951
0.170415 0.0567238 0.63099998 4283451698
0.172111 0.056720398 0.63099998 4283451698
0.173806 0.056717001 0.63099998 4283452468
0.17578 0.056803599 0.63200003 4283255089
0.17719699 0.0567104 0.63099998 4283386675
0.178609 0.0566172 0.63 4283320882
0.180301 0.056614 0.63 4283452468
0.181705 0.056520902 0.62900001 4283780918
0.183395 0.056517702 0.62900001 4283583539
0.185084 0.056514598 0.62900001 4283649323
0.187071 0.056601301 0.63 4283385898
0.18876299 0.056598298 0.63 4283648818
0.190153 0.056505401 0.62900001 4283978042
0.192147 0.056592301 0.63 4283649847
0.194455 0.056768999 0.63200003 4283584054
0.19646201 0.056855999 0.63300002 4283386160
0.19785 0.056763299 0.63200003 4283583023
0.199231 0.056670699 0.63099998 4283583023
0.200289 0.056488398 0.62900001 4283714609
0.201979 0.056485701 0.62900001 4283649077
0.20399199 0.056572899 0.63 4283714870
0.206011 0.056660201 0.63099998 4283714870
0.207706 0.056657702 0.63099998 4283780151
0.209401 0.056655299 0.63099998 4283714358
0.211096 0.056653 0.63099998 4284109116
0.21279199 0.056650698 0.63099998 4283649080
0.214827 0.056738202 0.63200003 4283583287
0.216868 0.056825899 0.63300002 4284043837
0.218224 0.056733999 0.63200003 4283714870
0.219575 0.056642201 0.63099998 4283780918
0.22127099 0.056640301 0.63099998 4284043828
0.22332001 0.056728199 0.63200003 4283912242
0.22501899 0.0567265 0.63200003 4283977781
0.22671901 0.056724802 0.63200003 4283977783
0.228057 0.056633402 0.63099998 4283977528
0.23011801 0.056721698 0.63200003 4283780151
0.231085 0.056540798 0.63 4284043321
0.23277999 0.056539401 0.63 4283583800
0.23410299 0.056448501 0.62900001 4283979072
0.23617101 0.056537099 0.63 4284044604
0.238245 0.056625798 0.63099998 4284109891
0.24032401 0.056714501 0.63200003 4283781432
0.242026 0.0567137 0.63200003 4284044090
0.24295799 0.056533501 0.63 4284175928
0.244267 0.056443099 0.62900001 4284044856
0.245571 0.056352802 0.62800002 4283913270
0.247264 0.056352399 0.62800002 4284110904
0.24975 0.056531601 0.63 4284636478
0.25105101 0.056441601 0.62900001 4284570172
0.25314999 0.056531299 0.63 4284899137
0.25485 0.056531299 0.63 4284767813
0.256551 0.056531399 0.63 4284899144
0.25784299 0.056442 0.62900001 4284899660
0.25954199 0.056442399 0.62900001 4284900175
0.261657 0.056532599 0.63 4284702796
0.26377901 0.056623001 0.63099998 4284900687
0.26506501 0.056534 0.63 4285295698
0.26634601 0.0564452 0.62900001 4284966731
0.26804799 0.056446198 0.62900001 4285163851
0.269752 0.056447402 0.62900001 4285229644
0.271887 0.056538399 0.63 4284900679
0.27402899 0.056629598 0.63099998 4285163851
0.27617699 0.056720998 0.63200003 4285229132
0.27745199 0.056632999 0.63099998 4285425741
0.27872199 0.056545101 0.63 4285096523
0.27998799 0.0564574 0.62900001 4285096525
0.28124899 0.0563698 0.62800002 4285492050
0.282956 0.056372199 0.62800002 4285558097
0.28466401 0.056374598 0.62800002 4285031751
0.28682899 0.056467101 0.62900001 4285360202
0.28900099 0.056559701 0.63 4285754699
0.29071701 0.056562699 0.63 4285294148
0.29243499 0.056565799 0.63 4285228355
0.293219 0.0563896 0.62800002 4285491273
0.29493299 0.056393001 0.62800002 4285755474
0.29712099 0.056486499 0.62900001 4285952853
0.29979101 0.056669999 0.63099998 4285623644
0.30151701 0.056674 0.63099998 4285689944
0.30276299 0.0565884 0.63 4285427784
0.30352199 0.056413099 0.62800002 4285361989
0.305729 0.056507502 0.62900001 4285558097
0.307944 0.056602102 0.63 4285952087
0.30967301 0.056607101 0.63 4285689944
0.31140399 0.056612201 0.63 4285163600
0.312639 0.0565277 0.62900001 4285953369
0.31437001 0.056533199 0.62900001 4285624402
0.31610301 0.056538999 0.62900001 4285953624
0.317837 0.0565449 0.62900001 4285690195
0.32008001 0.056641001 0.63 4285493075
0.321309 0.056557499 0.62900001 4285624663
0.323562 0.056653999 0.63 4286084961
0.32530501 0.056660801 0.63 4285755994
0.32704899 0.056667801 0.63 4285821783
0.32827401 0.0565851 0.62900001 4285953875
0.32949501 0.056502599 0.62800002 4286216794
0.33071199 0.0564203 0.62699997 4286216539
0.333516 0.0566082 0.62900001 4286018908
0.33579999 0.056706399 0.63 4286084187
0.33862701 0.056894898 0.63200003 4286346339
0.339313 0.056723502 0.63 4285294155
0.33998999 0.056552298 0.62800002 4286149204
0.341746 0.056561399 0.62800002 4285491787
0.34350401 0.056570798 0.62800002 4285228869
0.34581399 0.056670502 0.62900001 4285689420
0.34702599 0.0565903 0.62800002 4285623373
0.348791 0.056600399 0.62800002 4285491787
0.35055801 0.0566108 0.62800002 4285360201
0.35176599 0.056531299 0.62699997 4285754446
0.353535 0.0565423 0.62699997 4285688652
0.35587201 0.056643698 0.62800002 4286083924
0.357079 0.056565002 0.62699997 4285689420
0.35885501 0.056576699 0.62699997 4286281556
0.36063299 0.056588799 0.62699997 4285820745
0.36299199 0.056691401 0.62800002 4285293631
0.364779 0.056704 0.62800002 4286411598
0.36715099 0.056807298 0.62900001 4286411600
0.36836001 0.0567302 0.62800002 4286477138
0.37015399 0.0567437 0.62800002 4286740827
0.37254399 0.056848001 0.62900001 4286346069
0.374942 0.056952599 0.63 4286280789
0.37675101 0.056967098 0.63 4286478168
0.37856299 0.056981899 0.63 4286083925
0.38037801 0.056997102 0.63 4286216025
0.38280299 0.057103101 0.63099998 4286149718
0.38462701 0.057119001 0.63099998 4286017880
0.386455 0.057135198 0.63099998 4285293641
0.38828599 0.057151701 0.63099998 4282992688
0.39135599 0.057349801 0.63300002 4283455298
0.391958 0.057185799 0.63099998 4287335289
0.39379901 0.057203401 0.63099998 4286677873
0.39501601 0.057130702 0.63 4287729533
0.39749199 0.0572397 0.63099998 4287730047
0.39997599 0.057349201 0.63200003 4287269496
0.40247101 0.057459 0.63300002 4287137910
0.40433601 0.057478499 0.63300002 4287532668
0.40620601 0.057498399 0.63300002 4287401082
0.408079 0.057518698 0.63300002 4287467390
0.40995601 0.0575394 0.63300002 4287138424
0.412489 0.057651401 0.634 4287270010
0.41372401 0.057581998 0.63300002 4287467390
0.41561401 0.057603899 0.63300002 4287598206
0.41750801 0.0576263 0.63300002 4287466620
0.418744 0.0575579 0.63200003 4287072378
0.42064399 0.057581101 0.63200003 4287138171
0.42188099 0.057513501 0.63099998 4287467138
0.42513001 0.057719901 0.63300002 4287336064
0.427048 0.057744399 0.63300002 4287599236
0.42897001 0.057769399 0.63300002 4287467650
0.43157801 0.057886101 0.634 4287467650
0.43487999 0.058094699 0.63599998 4287532929
0.43751299 0.058212601 0.63700002 4287729794
0.439468 0.058239602 0.63700002 4287532413
0.44142801 0.058267102 0.63700002 4287072117
-0.199076 0.054354001 0.62400001 4290362036
-0.197716 0.054443698 0.625 4290099634
-0.195724 0.054359298 0.62400001 4290033841
-0.19467001 0.054536302 0.62599999 4290099634
-0.193297 0.0546262 0.62699997 4290230450
-0.191918 0.054716099 0.62800002 4290164657
-0.19023199 0.054719001 0.62800002 4290099119
-0.18794399 0.054547701 0.62599999 4290033326
-0.18656 0.0546377 0.62699997 4290099119
-0.184582 0.054553598 0.62599999 4289967533
-0.1829 0.054556601 0.62599999 4290033326
-0.181218 0.0545597 0.62599999 4289901738
-0.17982399 0.054650001 0.62699997 4289835945
-0.178139 0.054653101 0.62699997 4289901740
-0.17645501 0.054656301 0.62699997 4290033071
-0.17421301 0.054485202 0.625 4289769899
-0.17253301 0.054488402 0.625 4290033071
-0.170854 0.054491699 0.625 4289704106
-0.16944499 0.054582201 0.62599999 4289704106
-0.167495 0.0544983 0.625 4289967533
-0.166346 0.054676 0.62699997 4289770154
-0.164398 0.0545922 0.62599999 4289770152
-0.162715 0.054595601 0.62599999 4290032810
-0.16077501 0.0545117 0.625 4289835686
-0.159603 0.054689601 0.62699997 4289638307
-0.157414 0.054518599 0.625 4289835686
-0.15548401 0.054434799 0.62400001 4289375394
-0.153805 0.0544382 0.62400001 4289572775
-0.152615 0.054616202 0.62599999 4289704361
-0.151172 0.054706901 0.62699997 4289638568
-0.14948501 0.054710399 0.62699997 4289506980
-0.14732599 0.054539401 0.625 4289835431
-0.145878 0.054630201 0.62599999 4289769638
-0.14419299 0.054633699 0.62599999 4289704100
-0.14296301 0.054811701 0.62800002 4289901477
-0.14127199 0.054815199 0.62800002 4289835170
-0.13958199 0.054818802 0.62800002 4289571996
-0.13789099 0.0548223 0.62800002 4289703582
-0.13598201 0.054738499 0.62699997 4289769377
-0.134508 0.054829299 0.62800002 4289835170
-0.132605 0.054745499 0.62699997 4289900963
-0.130706 0.054661699 0.62599999 4289834916
-0.12902001 0.0546651 0.62599999 4289440158
-0.127739 0.054843299 0.62800002 4289505437
-0.125846 0.054759402 0.62699997 4289768609
-0.124354 0.054850198 0.62800002 4289308059
-0.122465 0.054766301 0.62699997 4289703331
-0.120775 0.054769699 0.62699997 4289769377
-0.118894 0.054685701 0.62599999 4289769377
-0.117205 0.054689098 0.62599999 4289834656
-0.115701 0.054779802 0.62699997 4289571484
-0.114009 0.054783199 0.62699997 4289768863
-0.112317 0.0547865 0.62699997 4289703070
-0.110625 0.0547898 0.62699997 4289900449
-0.108933 0.054793101 0.62699997 4289768863
-0.107411 0.0548837 0.62800002 4289966242
-0.105715 0.054887 0.62800002 4289834402
-0.103854 0.054802801 0.62699997 4289965988
-0.101997 0.054718498 0.62599999 4289965989
-0.100306 0.054721698 0.62599999 4289900195
-0.098929897 0.054899599 0.62800002 4289769123
-0.097387798 0.054990102 0.62900001 4290032035
-0.0955358 0.054905701 0.62800002 4289900449
-0.093688898 0.054821301 0.62699997 4289835170
-0.092434101 0.055086602 0.63 4289703330
-0.090874799 0.055176999 0.63099998 4289769123
-0.089309901 0.055267401 0.63200003 4289638052
-0.087462001 0.0551828 0.63099998 4289638566
-0.085755304 0.055185702 0.63099998 4289704359
-0.0839151 0.055101 0.63 4289375394
-0.082080103 0.055016302 0.62900001 4289638568
-0.080250204 0.0549316 0.62800002 4290098603
-0.078550696 0.0549343 0.62800002 4289900710
-0.077095598 0.055111799 0.63 4290163368
-0.075390197 0.0551144 0.63 4290097574
-0.073567599 0.0550295 0.62900001 4290163621
-0.071635902 0.054857001 0.62699997 4290163621
-0.0699379 0.0548594 0.62699997 4290361514
-0.068348601 0.054949299 0.62800002 4290164135
-0.066859797 0.055126701 0.63 4289966756
-0.065153003 0.055128999 0.63 4289703584
-0.0632447 0.054956201 0.62800002 4289440673
-0.061445002 0.0548709 0.62699997 4289967017
-0.0596506 0.054785501 0.62599999 4289967017
-0.058046501 0.054875199 0.62699997 4289967017
-0.056436799 0.054964699 0.62800002 4289967019
-0.054734401 0.054966699 0.62800002 4290098605
-0.052862901 0.0547936 0.62599999 4290230191
-0.051165499 0.0547955 0.62599999 4290427570
-0.049547002 0.054884799 0.62699997 4290230191
-0.047999199 0.055061702 0.62900001 4289901226
-0.046514001 0.055326 0.63200003 4290098603
-0.044728901 0.055240098 0.63099998 4290295468
-0.0424718 0.054541301 0.62300003 4290164396
-0.0401925 0.0537549 0.61400002 4290427315
-0.038024701 0.053056002 0.60600001 4290229936
-0.0336188 0.049029902 0.56 4289440420
-0.031010199 0.047367599 0.54100001 4289245369
-0.029269001 0.046930902 0.53600001 4288982478
0.089065097 0.046409801 0.53100002 4285231489
0.091862299 0.047106199 0.53899997 4285428352
0.097126402 0.049026001 0.56099999 4285231489
0.103916 0.051644702 0.59100002 4285232004
0.109081 0.053389199 0.611 4285232004
0.111455 0.053735401 0.61500001 4285231489
0.113482 0.053906899 0.61699998 4285362809
0.115707 0.054165699 0.62 4284506985
0.117758 0.054337099 0.62199998 4282203967
0.119435 0.054333702 0.62199998 4282794813
0.121307 0.054417599 0.62300003 4282926138
0.122987 0.054414202 0.62300003 4282926391
0.124667 0.0544108 0.62300003 4282794803
0.12654901 0.054494701 0.62400001 4282597679
0.12823001 0.0544913 0.62400001 4282729006
0.129912 0.054487798 0.62400001 4282992178
0.131593 0.0544843 0.62400001 4282663213
0.133488 0.054568101 0.625 4282794798
0.13560399 0.0547393 0.62699997 4282992431
0.137292 0.054735798 0.62699997 4282729263
0.139424 0.0549068 0.62900001 4282663213
0.140893 0.054816 0.62800002 4282728491
0.142811 0.054899801 0.62900001 4282991149
0.144274 0.054809 0.62800002 4283122733
0.14619701 0.0548927 0.62900001 4283056426
0.14789 0.054889198 0.62900001 4283122472
0.149582 0.0548857 0.62900001 4283122472
0.15127499 0.054882199 0.62900001 4283056933
0.152724 0.054791499 0.62800002 4283122988
0.15490501 0.054962501 0.63 4283254319
0.156848 0.055046201 0.63099998 4283320629
0.158544 0.055042699 0.63099998 4283254836
0.159987 0.054951999 0.63 4283057456
0.161424 0.0548614 0.62900001 4283057710
0.16311599 0.054857999 0.62900001 4283057709
0.16480599 0.054854602 0.62900001 4282992170
0.16676199 0.054938398 0.63 4283189033
0.168455 0.054935001 0.63 4283122986
0.17041799 0.055018902 0.63099998 4283188781
0.172114 0.055015501 0.63099998 4283517491
0.17381001 0.0550122 0.63099998 4283188526
0.175505 0.055009 0.63099998 4283385905
0.17692 0.054918598 0.63 4283254319
0.17832901 0.0548282 0.62900001 4282991663
0.18001799 0.054825 0.62900001 4283189042
0.18170799 0.054821901 0.62900001 4283583286
0.183981 0.0549931 0.63099998 4283188526
0.185087 0.054815698 0.62900001 4283451184
0.18707401 0.054899801 0.63 4283582770
0.188466 0.054809701 0.62900001 4283846197
0.190458 0.0548939 0.63 4283780663
0.19245499 0.054978199 0.63099998 4283584054
0.194765 0.055149499 0.63300002 4283584053
0.196465 0.055146702 0.63300002 4283649330
0.197226 0.054882601 0.63 4283648816
0.198287 0.054705702 0.62800002 4283320365
0.199974 0.054703001 0.62800002 4283386412
0.20166001 0.054700401 0.62800002 4283583791
0.203995 0.054872099 0.63 4283583791
0.205687 0.0548696 0.63 4283714872
0.207708 0.054954302 0.63099998 4283451700
0.20874 0.0547777 0.62900001 4283780151
0.21043 0.054775499 0.62900001 4284108861
0.212457 0.054860301 0.63 4283649080
0.214489 0.054945201 0.63099998 4283912251
0.216528 0.055030201 0.63200003 4283780663
0.217535 0.054854002 0.63 4283715125
0.21888 0.054765001 0.62900001 4283977781
0.220571 0.054763101 0.62900001 4283978035
0.222615 0.054848399 0.63 4283517230
0.224665 0.054933701 0.63099998 4283846197
0.226362 0.054931998 0.63099998 4284240441
0.227697 0.0548434 0.63 4284043323
0.228663 0.054667801 0.62800002 4284174907
0.230353 0.0546664 0.62800002 4283912504
0.232042 0.0546651 0.62800002 4284044604
0.23410399 0.054751001 0.62900001 4283716660
0.235048 0.0545757 0.62699997 4284242237
0.237491 0.0547488 0.62900001 4283913272
0.23918401 0.054747801 0.62900001 4284109883
0.241644 0.054921102 0.63099998 4284044090
0.24180099 0.054572199 0.62699997 4284241207
0.24349099 0.054571498 0.62699997 4283912756
0.24518099 0.054570999 0.62699997 4284110135
0.247265 0.054657601 0.62800002 4284241721
0.24895801 0.054657299 0.62800002 4284307000
0.25025299 0.054570001 0.62699997 4284175414
0.25234601 0.0546569 0.62800002 4284109621
0.25444499 0.054744001 0.62900001 4284438334
0.25573599 0.054657001 0.62800002 4284372800
0.25743201 0.054657299 0.62800002 4284438593
0.25954199 0.054744702 0.62900001 4284044351
0.261657 0.054832201 0.63 4284044865
0.26294199 0.0547457 0.62900001 4284374084
0.26380101 0.0545724 0.62699997 4284440134
0.264651 0.0543992 0.625 4284374596
0.266343 0.054400101 0.625 4284440389
0.268464 0.054488301 0.62599999 4284636993
0.27145401 0.054750599 0.62900001 4284571714
0.273159 0.054752 0.62900001 4284702786
0.27486399 0.054753501 0.62900001 4285031237
0.276131 0.054668099 0.62800002 4285359688
0.27739301 0.054582901 0.62699997 4285096778
0.27909499 0.054584801 0.62699997 4284834121
0.280799 0.054586899 0.62699997 4285031499
0.28205201 0.0545021 0.62599999 4285426511
0.283755 0.054504499 0.62599999 4285360716
0.285914 0.0545941 0.62699997 4285754960
0.28808001 0.054683901 0.62800002 4285754699
0.28933001 0.054599602 0.62699997 4285425480
0.29103899 0.054602601 0.62699997 4284767550
0.29228199 0.0545187 0.62599999 4285491788
0.293991 0.054522101 0.62599999 4285492302
0.29570001 0.054525599 0.62599999 4285492302
0.29883701 0.054790601 0.62900001 4285295437
0.30055699 0.054794502 0.62900001 4285690195
0.30179799 0.054711401 0.62800002 4285558609
0.302551 0.054541301 0.62599999 4285427529
0.30475301 0.054632898 0.62699997 4285821277
0.30647299 0.054637399 0.62699997 4285821529
0.30819401 0.0546422 0.62699997 4285558868
0.30942199 0.054559998 0.62599999 4285493073
0.31114301 0.054565102 0.62599999 4285690452
0.312866 0.054570399 0.62599999 4285624914
0.315092 0.054663099 0.62699997 4286085210
0.31682 0.054668799 0.62699997 4285887574
0.31854999 0.0546748 0.62699997 4285493073
0.31977099 0.054593701 0.62599999 4285953373
0.322014 0.054687198 0.62699997 4286282338
0.324265 0.054781001 0.62800002 4285887835
0.32652301 0.054875001 0.62900001 4285887574
0.32774499 0.0547948 0.62800002 4286018901
0.329487 0.054802001 0.62800002 4286018899
0.33017701 0.054634798 0.62599999 4286084439
0.33244699 0.054729801 0.62699997 4285755474
0.33419299 0.054737601 0.62699997 4286083925
0.33701101 0.054920301 0.62900001 4285952339
0.338227 0.054841399 0.62800002 4285557074
0.33943999 0.054762602 0.62699997 4285491283
0.34119299 0.054771401 0.62699997 4285754960
0.34294799 0.054780401 0.62699997 4285820752
0.34470499 0.0547897 0.62699997 4285426248
0.34646401 0.0547993 0.62699997 4285623113
0.34878099 0.0548965 0.62800002 4285557320
0.35054699 0.054906499 0.62800002 4285819722
0.35231599 0.0549169 0.62800002 4285885517
0.354087 0.054927401 0.62800002 4285359941
0.35586101 0.054938301 0.62800002 4285952078
0.35706699 0.054861899 0.62699997 4285359687
0.358271 0.054785799 0.62599999 4286083410
0.360046 0.0547974 0.62599999 4285030206
0.36182401 0.054809298 0.62599999 4285227585
0.36418501 0.054909099 0.62699997 4286017103
0.36655501 0.055009201 0.62800002 4286345554
0.36834601 0.055022001 0.62800002 4285687622
0.37073001 0.0551227 0.62900001 4286608726
0.37253001 0.055136099 0.62900001 4286148689
0.374928 0.055237502 0.63 4286148687
0.37613899 0.055163901 0.62900001 4286741340
0.37794799 0.055178199 0.62900001 4286083925
0.37975901 0.055192899 0.62900001 4285952085
0.38218099 0.055295601 0.63 4286280799
0.384002 0.055311002 0.63 4285820753
0.38582599 0.0553266 0.63 4285558600
0.38703901 0.055254702 0.62900001 4284571971
0.389485 0.055358902 0.63 4281942312
0.39131901 0.055375598 0.63 4285756510
0.39315701 0.055392601 0.63 4287072117
0.394999 0.055409901 0.63 4287005810
0.396844 0.0554276 0.63 4286940529
0.39932501 0.0555337 0.63099998 4287137908
0.40118 0.055552199 0.63099998 4287072117
0.40303999 0.055571001 0.63099998 4287006838
0.40490299 0.055590201 0.63099998 4287138424
0.40676999 0.0556098 0.63099998 4287006839
0.40864101 0.0556297 0.63099998 4287598975
0.41051599 0.0556501 0.63099998 4287533183
0.411742 0.055582602 0.63 4287927173
0.41427901 0.055691998 0.63099998 4287861378
0.41616699 0.055713501 0.63099998 4287729794
0.41805899 0.055735499 0.63099998 4287335036
0.419956 0.055757798 0.63099998 4287138171
0.421857 0.055780601 0.63099998 4287467138
0.42376301 0.055803899 0.63099998 4287796617
0.42500001 0.055739 0.63 4287467652
0.42691201 0.055763099 0.63 4287467652
0.42951 0.055876099 0.63099998 4287665031
0.432803 0.0560783 0.63300002 4287204480
0.43542701 0.056192402 0.634 4287401859
0.437372 0.056218501 0.634 4286809206
0.43793601 0.0560675 0.63200003 4287204218
-0.198759 0.052584801 0.62300003 4289440159
-0.197402 0.052671801 0.62400001 4289571491
-0.19541299 0.052590001 0.62300003 4289703077
-0.19405 0.052677002 0.62400001 4289900456
-0.19237401 0.052679699 0.62400001 4290033071
-0.19100399 0.052766901 0.625 4290164657
-0.189023 0.052685302 0.62400001 4290098605
-0.18734699 0.052688099 0.62400001 4290295984
-0.18537299 0.052606501 0.62300003 4289967533
-0.1837 0.0526095 0.62300003 4289967019
-0.182026 0.052612402 0.62300003 4290032810
-0.18064301 0.052699801 0.62400001 4290033326
-0.179253 0.0527873 0.625 4290164657
-0.177858 0.0528748 0.62599999 4290098864
-0.176177 0.052877899 0.62599999 4290230450
-0.17393699 0.052712101 0.62400001 4290033071
-0.172261 0.052715302 0.62400001 4289902255
-0.17031001 0.052634001 0.62300003 4289836462
-0.16863599 0.0526371 0.62300003 4289770669
-0.166694 0.0525559 0.62199998 4290164657
-0.165288 0.052643601 0.62300003 4289967278
-0.16361301 0.052646901 0.62300003 4289835947
-0.161678 0.052565601 0.62199998 4289967531
-0.160006 0.052568901 0.62199998 4290098603
-0.158843 0.0527413 0.62400001 4289573028
-0.15766899 0.052913699 0.62599999 4289638566
-0.155736 0.052832499 0.625 4289967533
-0.153809 0.052751299 0.62400001 4290164912
-0.152374 0.052839201 0.625 4289770668
-0.150934 0.0529272 0.62599999 4289506982
-0.14925 0.0529305 0.62599999 4289901738
-0.147094 0.052764799 0.62400001 4289638052
-0.14541499 0.052768201 0.62400001 4289572514
-0.143966 0.052856199 0.625 4289572514
-0.142511 0.052944198 0.62599999 4289572512
-0.140826 0.052947599 0.62599999 4289900963
-0.138918 0.052866399 0.625 4289440926
-0.137455 0.052954402 0.62599999 4289440926
-0.135552 0.052873202 0.625 4289638305
-0.134083 0.0529612 0.62599999 4289704098
-0.131974 0.052795399 0.62400001 4289638305
-0.130292 0.0527988 0.62400001 4289769893
-0.128611 0.052802201 0.62400001 4289440159
-0.127336 0.052974802 0.62599999 4289900709
-0.125448 0.052893501 0.625 4289703331
-0.123961 0.0529815 0.62599999 4289703331
-0.122273 0.0529848 0.62599999 4289703331
-0.120778 0.053072799 0.62699997 4289769375
-0.118897 0.052991498 0.62599999 4289769377
-0.117208 0.052994698 0.62599999 4289769377
-0.115335 0.052913301 0.625 4289900449
-0.113649 0.052916601 0.625 4289703070
-0.111962 0.052919801 0.625 4289834656
-0.110275 0.052923001 0.625 4289966242
-0.108415 0.052841499 0.62400001 4289900447
-0.106901 0.052929301 0.625 4289637275
-0.105382 0.053017199 0.62599999 4289900449
-0.103691 0.053020298 0.62599999 4289900449
-0.101674 0.052854002 0.62400001 4289966242
-0.099988699 0.052857 0.62400001 4289769377
-0.098302796 0.052859999 0.62400001 4289703584
-0.096926302 0.053032398 0.62599999 4289571998
-0.095234498 0.053035401 0.62599999 4289637789
-0.093542501 0.053038299 0.62599999 4289637789
-0.0917034 0.052956499 0.625 4289769377
-0.090301603 0.053128801 0.62699997 4289637537
-0.088747501 0.053216401 0.62800002 4289374882
-0.087049 0.053219199 0.62800002 4289572261
-0.085350297 0.0532219 0.62800002 4289638568
-0.083651401 0.053224601 0.62800002 4289638568
-0.081821799 0.0531426 0.62699997 4289769638
-0.079997301 0.053060401 0.62599999 4290032810
