# .PCD v0.7 - Point Cloud Data file format
VERSION 0.7
FIELDS x y z rgb
SIZE 4 4 4 4
TYPE F F F U
COUNT 1 1 1 1
WIDTH 1072
HEIGHT 1
VIEWPOINT 0 0 0 1 0 0 0
POINTS 1072
DATA ascii
0.28098199 0.067703597 0.639 4287467390
0.28227499 0.067600101 0.63800001 4287270011
0.28445399 0.067708701 0.639 4287467389
0.28619099 0.067711599 0.639 4287598206
0.287478 0.067608602 0.63800001 4287598206
0.28966799 0.067717798 0.639 4287795587
0.29186401 0.067827202 0.63999999 4287334775
0.294067 0.0679368 0.64099997 4286084708
0.295353 0.067834601 0.63999999 4287466361
0.29709801 0.067838602 0.63999999 4287598206
0.298379 0.067736797 0.639 4287598724
0.29918501 0.067529202 0.63700002 4287532676
0.30139801 0.067639798 0.63800001 4287401857
0.30314299 0.0676447 0.63800001 4287336578
0.30536699 0.067755803 0.639 4287402111
0.30663699 0.067654997 0.63800001 4287467904
0.308386 0.067660503 0.63800001 4287336318
0.30965 0.067560099 0.63700002 4287336064
0.311398 0.067566 0.63700002 4287730822
0.31314799 0.067572199 0.63700002 4287599236
0.316383 0.067896903 0.63999999 4287796101
0.31864101 0.0680096 0.64099997 4287796103
0.32090601 0.068122603 0.64200002 4287532931
0.32167101 0.0679176 0.63999999 4287664001
0.32293099 0.067818798 0.639 4287598469
0.32469499 0.067826398 0.639 4287664517
0.32595 0.067728199 0.63800001 4287993480
0.32822901 0.067842498 0.639 4287598722
0.32948199 0.067744702 0.63800001 4287796101
0.33177 0.067859598 0.639 4287796101
0.33302099 0.0677623 0.63800001 4287796103
0.334793 0.067771502 0.63800001 4287664262
0.335511 0.067568503 0.63599998 4287861641
0.33834201 0.067790702 0.63800001 4287466368
0.340653 0.067906998 0.639 4286479725
0.34350699 0.068129897 0.64099997 4287532154
0.344758 0.068034299 0.63999999 4287137396
0.34654701 0.068045199 0.63999999 4287268982
0.347794 0.0679501 0.639 4287400568
0.35013199 0.068067998 0.63999999 4287202934
0.35137701 0.067973502 0.639 4286940276
0.35206699 0.067772903 0.63700002 4287071862
0.35441399 0.067891702 0.63800001 4286808945
0.35621101 0.067904398 0.63800001 4287269241
0.35857099 0.068024002 0.639 4287203703
0.35981101 0.0679309 0.63800001 4287597947
0.361615 0.067944698 0.63800001 4287334775
0.36285201 0.067852199 0.63700002 4287532154
0.36522999 0.0679731 0.63800001 4287005810
0.36704201 0.067987897 0.63800001 4287005555
0.369434 0.068109602 0.639 4287071603
0.371254 0.068125002 0.639 4287137396
0.37366 0.068247497 0.63999999 4287137396
0.37490201 0.068157099 0.639 4287137396
0.37673 0.068173602 0.639 4287861119
0.37915301 0.068297297 0.63999999 4287466875
0.381585 0.068421401 0.64099997 4287664254
0.38282999 0.0683323 0.63999999 4288058757
0.38407201 0.068243697 0.639 4287466620
0.38531101 0.068155304 0.63800001 4286940794
0.387761 0.068281002 0.639 4285296481
0.38961101 0.068300299 0.639 4282730807
0.39146399 0.068319902 0.639 4288061324
0.39331999 0.068340003 0.639 4288257934
0.395798 0.068467498 0.63999999 4287796617
0.39890701 0.068702497 0.64200002 4288060304
0.401407 0.068830997 0.64300001 4288389016
0.40266201 0.068745904 0.64200002 4288060051
0.40454501 0.068768203 0.64200002 4288125843
0.405166 0.068576701 0.63999999 4288520340
0.40705001 0.068599798 0.63999999 4287730824
0.40830001 0.068516202 0.639 4288191887
0.41147399 0.0687548 0.64099997 4288323475
0.41401801 0.068886697 0.64200002 4288191889
0.415277 0.068804502 0.64099997 4288389268
0.41718501 0.068830103 0.64099997 4288059789
0.41909701 0.068856098 0.64099997 4287928203
0.42101401 0.068882696 0.64099997 4288125327
0.42293501 0.068909697 0.64099997 4288388499
0.424198 0.0688297 0.63999999 4287927434
0.42612499 0.068857796 0.63999999 4287664776
0.428725 0.068993904 0.64099997 4287533443
0.43066499 0.069023103 0.64099997 4287796869
0.433285 0.069160499 0.64200002 4287599750
0.43388101 0.068975203 0.63999999 4288322961
0.43651399 0.069113702 0.64099997 4287927689
0.43847299 0.069145098 0.64099997 4287729540
0.44181201 0.0693928 0.64300001 4287268729
0.445169 0.0696413 0.64499998 4287400313
0.447157 0.069674604 0.64499998 4287268727
-0.199156 0.065603897 0.63499999 4289704876
-0.197761 0.065710403 0.63599998 4289639083
-0.196053 0.065713599 0.63599998 4289441704
-0.19464999 0.065820098 0.63700002 4289573290
-0.193242 0.065926798 0.63800001 4289836722
-0.19152801 0.065930098 0.63800001 4289639344
-0.189814 0.0659336 0.63800001 4289441964
-0.187805 0.065833703 0.63700002 4289639344
-0.186094 0.065837197 0.63700002 4289441964
-0.184383 0.065840699 0.63700002 4289507757
-0.182384 0.065741003 0.63599998 4289441451
-0.18096 0.065848 0.63700002 4289638576
-0.178967 0.065748297 0.63599998 4289506476
-0.17753699 0.065855399 0.63700002 4289506474
-0.176101 0.065962501 0.63800001 4289638315
-0.17520601 0.066276498 0.64099997 4289638315
-0.172942 0.066073596 0.639 4289704108
-0.171225 0.066077404 0.639 4289639083
-0.16924199 0.065977901 0.63800001 4289901485
-0.16752701 0.065981798 0.63800001 4289835433
-0.165812 0.065985799 0.63800001 4289572775
-0.163839 0.065886296 0.63700002 4289506466
-0.16238099 0.065993696 0.63800001 4289835431
-0.16066501 0.065997802 0.63800001 4289769640
-0.159448 0.066208698 0.63999999 4289572261
-0.157233 0.066005804 0.63800001 4289572261
-0.155517 0.066009901 0.63800001 4289375141
-0.15404201 0.066117398 0.639 4289243555
-0.15232299 0.066121504 0.639 4289440934
-0.15036801 0.066022098 0.63800001 4289309348
-0.148651 0.066026203 0.63800001 4289506213
-0.146703 0.065926798 0.63700002 4289440675
-0.144989 0.065930903 0.63700002 4289309089
-0.142599 0.065624498 0.634 4289572261
-0.141114 0.065732099 0.63499999 4289440675
-0.139624 0.0658397 0.63599998 4289111710
-0.138128 0.065947399 0.63700002 4289374366
-0.136198 0.065847903 0.63599998 4289505952
-0.13469701 0.065955497 0.63700002 4289571230
-0.13318899 0.066063203 0.63800001 4289505437
-0.131264 0.0659637 0.63700002 4289505437
-0.129344 0.065864198 0.63599998 4289242266
-0.12763 0.065868303 0.63599998 4289176987
-0.12591501 0.065872297 0.63599998 4289045401
-0.124591 0.066083498 0.63800001 4289176472
-0.122678 0.065983899 0.63700002 4289242265
-0.12115 0.0660915 0.63800001 4288781714
-0.119055 0.065888204 0.63599998 4289044886
-0.117524 0.065995798 0.63700002 4289045140
-0.115987 0.066103302 0.63800001 4289176987
-0.114803 0.066418096 0.64099997 4289045147
-0.112721 0.066214703 0.639 4288979354
-0.110822 0.066114999 0.63800001 4288979608
-0.108929 0.066015102 0.63700002 4288650389
-0.107546 0.066226199 0.639 4288452496
-0.105655 0.066126302 0.63800001 4288320910
-0.104094 0.066233702 0.639 4288123531
-0.102208 0.066133797 0.63800001 4287926148
-0.1008 0.066344798 0.63999999 4287860607
-0.098606303 0.066037402 0.63700002 4287597437
-0.097189203 0.066248298 0.639 4287926400
-0.095312901 0.066148199 0.63800001 4287729280
-0.093735099 0.066255398 0.639 4287729026
-0.092007697 0.066258803 0.639 4287729026
-0.090138704 0.0661586 0.63800001 4287926400
-0.088552102 0.066265702 0.639 4288057988
-0.086824 0.066269003 0.639 4288057734
-0.085495099 0.066583402 0.64200002 4287926402
-0.083627902 0.066482902 0.64099997 4288255370
-0.081893697 0.066486202 0.64099997 4288189578
-0.079783998 0.066178098 0.63800001 4288255624
-0.078302197 0.066388696 0.63999999 4288255365
-0.076689601 0.066495501 0.64099997 4288321157
-0.075071402 0.0666022 0.64200002 4288255877
-0.073219098 0.066501401 0.64099997 4288124291
-0.071372002 0.066400602 0.63999999 4288189571
-0.069638997 0.066403396 0.63999999 4287794813
-0.067799598 0.066302396 0.639 4287860606
-0.066172197 0.066408902 0.63999999 4288189571
-0.064539202 0.066515297 0.64099997 4288057986
-0.062900603 0.066621698 0.64200002 4288255624
-0.060970601 0.066416703 0.63999999 4288189829
-0.059236299 0.066419102 0.63999999 4287992450
-0.0575918 0.066525303 0.64099997 4287795326
-0.056028701 0.066735201 0.64300001 4287926912
-0.054285798 0.066737503 0.64300001 4287992450
-0.052460998 0.066636004 0.64200002 4287531901
-0.050641399 0.066534303 0.64099997 4288058245
-0.0489797 0.066640198 0.64200002 4288058245
-0.047238901 0.066642299 0.64200002 4288387210
-0.045426998 0.066540398 0.64099997 4288321417
-0.043688498 0.066542298 0.64099997 4288124038
-0.041949902 0.066544101 0.64099997 4287926659
-0.040273901 0.066649698 0.64200002 4287992195
-0.038592398 0.066755198 0.64300001 4288320906
-0.036962599 0.0669645 0.64499998 4288255113
-0.035212599 0.066965997 0.64499998 4288189578
-0.033462498 0.066967502 0.64499998 4288057992
-0.031614002 0.066761203 0.64300001 4288255370
-0.029915599 0.066866398 0.64399999 4288057991
-0.0281679 0.066867597 0.64399999 4287926400
-0.026461201 0.066972703 0.64499998 4288057985
-0.024710599 0.066973798 0.64499998 4287992450
-0.022959899 0.066974796 0.64499998 4288058245
-0.021176299 0.066871896 0.64399999 4287926659
-0.019428199 0.066872798 0.64399999 4287992452
-0.017707501 0.066977501 0.64499998 4287795073
-0.0159813 0.067082003 0.64600003 4287729026
-0.0142496 0.067186497 0.64700001 4287794819
-0.0125124 0.067290999 0.648 4287531901
-0.0107698 0.0673953 0.64899999 4287663233
-0.0089800199 0.067188099 0.64700001 4287005557
-0.0072122701 0.067084603 0.64600003 4287860864
-0.0054499302 0.066981003 0.64499998 4288058243
-0.0037102001 0.067188904 0.64700001 4287992966
-0.0019535499 0.067189001 0.64700001 4287861380
-0.000197514 0.067396797 0.64899999 4287926919
0.00156216 0.067292899 0.648 4287992966
0.00333177 0.067500502 0.64999998 4287992712
0.0050965501 0.067500301 0.64999998 4287598724
0.00687186 0.067603901 0.65100002 4287861894
0.0086393198 0.067603603 0.65100002 4287730308
0.0103908 0.067499302 0.64999998 4287795333
0.0121367 0.067394897 0.64899999 4288058759
0.0138558 0.067186698 0.64700001 4287926657
0.015636399 0.067289896 0.648 4287795071
0.0173955 0.067289203 0.648 4287860864
0.0192136 0.067496002 0.64999998 4287532154
0.020978 0.067495197 0.64999998 4287663740
0.0227424 0.067494199 0.64999998 4287664254
0.024468901 0.067389399 0.64899999 4287533183
0.0263112 0.067595899 0.65100002 4287204218
0.028077999 0.0675947 0.65100002 4287467390
0.029798901 0.067489699 0.64999998 4287335036
0.031562801 0.067488298 0.64999998 4287466368
0.0333778 0.067590803 0.65100002 4287400575
0.035144199 0.067589298 0.65100002 4287400575
0.036853801 0.067483902 0.64999998 4286940278
0.038617201 0.0674823 0.64999998 4286019174
0.040442601 0.067584403 0.65100002 4286282087
0.042273398 0.067686498 0.65200001 4286610539
0.044041801 0.067684598 0.65200001 4286347107
0.0458101 0.067682698 0.65200001 4286478439
0.0474324 0.067473099 0.64999998 4286610279
0.049194999 0.067471102 0.64999998 4286413414
0.051035799 0.067572802 0.65100002 4286281574
0.052963 0.0677782 0.653 4286281574
0.054649401 0.067672201 0.65200001 4285952862
0.0563302 0.067566097 0.65100002 4286150241
0.058094699 0.067563698 0.65100002 4286281827
0.059859 0.067561299 0.65100002 4285229139
0.0616231 0.067558803 0.65100002 4286149981
0.063386999 0.067556202 0.65100002 4286215774
0.065150701 0.067553602 0.65100002 4285820762
0.066914201 0.067550898 0.65100002 4285557844
0.068572 0.067444399 0.64999998 4286150495
0.070440598 0.067545302 0.65100002 4286282081
0.072203502 0.067542396 0.65100002 4286413667
0.073966198 0.067539498 0.65100002 4286084706
0.0757287 0.067536503 0.65100002 4285953122
0.077491 0.0675335 0.65100002 4286281828
0.079374701 0.067634203 0.65200001 4285426776
0.081263699 0.0677348 0.653 4286084706
0.083030701 0.067731597 0.653 4285624157
0.084667601 0.067624599 0.65200001 4285689695
0.086431399 0.067621298 0.65200001 4285360992
0.088059701 0.067514203 0.65100002 4284244056
0.0898204 0.067510799 0.65100002 4282993990
0.091721401 0.067611098 0.65200001 4284638815
0.093627699 0.067711301 0.653 4286086260
0.095393002 0.067707799 0.653 4285493607
0.097009301 0.067600504 0.65200001 4285032279
0.098468497 0.067389503 0.64999998 4285361244
0.100225 0.067385897 0.64999998 4285163865
0.102138 0.067485899 0.65100002 4284703314
0.104056 0.067585804 0.65200001 4284768593
0.10598 0.067685701 0.653 4285097560
0.107578 0.067578197 0.65200001 4285360985
0.109171 0.067470796 0.65100002 4286084708
0.110588 0.067259602 0.64899999 4285427292
0.11234 0.067255698 0.64899999 4285690464
0.113916 0.067148201 0.648 4284769874
0.116022 0.067351498 0.64999998 4283782728
0.117595 0.067243896 0.64899999 4283386952
0.119162 0.067136303 0.648 4285163110
0.120723 0.067028701 0.64700001 4285690211
0.122468 0.0670247 0.64700001 4285821795
0.124405 0.067124203 0.648 4285755743
0.12615199 0.067120202 0.648 4285953122
0.127702 0.067012496 0.64700001 4285952867
0.12904599 0.066801302 0.64499998 4286281834
0.130785 0.066797197 0.64499998 4286084455
0.132523 0.066793099 0.64499998 4286281581
0.134469 0.066892497 0.64600003 4285952615
0.13578799 0.066681303 0.64399999 4286281580
0.137523 0.066677101 0.64399999 4286084716
0.13904101 0.0665695 0.64300001 4286216302
0.140992 0.066668801 0.64399999 4286084715
0.142726 0.066664703 0.64399999 4286347888
0.144908 0.066867597 0.64600003 4286282094
0.14664701 0.066863403 0.64600003 4286150762
0.147697 0.066548698 0.64300001 4286151276
0.149195 0.066441096 0.64200002 4286282862
0.151158 0.066540502 0.64300001 4286545518
0.152888 0.0665363 0.64300001 4286545004
0.15461899 0.066532202 0.64300001 4286545004
0.156348 0.066528097 0.64300001 4286873969
0.158324 0.066627502 0.64399999 4286940017
0.159807 0.066519998 0.64300001 4286743152
0.161034 0.066308998 0.64099997 4286940531
0.16275799 0.066304997 0.64099997 4286939762
0.164738 0.066404402 0.64200002 4286808176
0.166464 0.066400401 0.64200002 4287202936
0.16845199 0.066499799 0.64300001 4287005303
0.170445 0.066599302 0.64399999 4286676852
0.172176 0.066595398 0.64399999 4286875001
0.17417701 0.066694804 0.64499998 4287072127
0.175366 0.066484198 0.64300001 4286940541
0.176818 0.066376902 0.64200002 4287006332
0.178543 0.066373199 0.64200002 4286808953
0.180268 0.066369399 0.64200002 4286743929
0.18227699 0.066468999 0.64300001 4286743929
0.183718 0.066362001 0.64200002 4286743927
0.185443 0.066358402 0.64200002 4286875253
0.186876 0.066251397 0.64099997 4286809460
0.18801001 0.066041201 0.639 4286743667
0.18943 0.0659343 0.63800001 4286941046
0.191144 0.065930903 0.63800001 4287006585
0.193462 0.0661342 0.63999999 4286677622
0.19548599 0.066234201 0.64099997 4286743160
0.19751599 0.066334203 0.64200002 4287006332
0.199241 0.066330999 0.64200002 4286743162
0.200652 0.066224501 0.64099997 4287006334
0.202058 0.066118099 0.63999999 4286742646
0.20345899 0.066011801 0.639 4287005817
0.205176 0.066008799 0.639 4286874485
0.20624501 0.065799303 0.63700002 4286940792
0.207957 0.065796502 0.63700002 4287072378
0.209997 0.0658971 0.63800001 4287203966
0.212375 0.066101 0.63999999 4286612857
0.21442901 0.066201597 0.64099997 4286612857
0.21581499 0.066095904 0.63999999 4286612343
0.217535 0.0660934 0.63999999 4286480502
0.218913 0.065987803 0.639 4286283378
0.220975 0.066088803 0.63999999 4286348402
0.222348 0.065983303 0.639 4286677369
0.224417 0.066084497 0.63999999 4286743162
0.226491 0.066185802 0.64099997 4286940541
0.22821499 0.066183902 0.64099997 4287072641
0.229939 0.066182099 0.64099997 4287270020
0.231663 0.066180304 0.64099997 4287466883
0.233024 0.066075496 0.63999999 4287137918
0.23474599 0.066073999 0.63999999 4286677620
0.236099 0.065969303 0.639 4286677104
0.23744699 0.065864801 0.63800001 4287203448
0.23916499 0.065863602 0.63800001 4287006838
0.24088299 0.065862603 0.63800001 4286940276
0.24260101 0.065861598 0.63800001 4287071864
0.24470299 0.065963998 0.639 4286677367
0.246039 0.0658601 0.63800001 4286874746
0.248147 0.065962702 0.639 4287006334
0.249479 0.065858997 0.63800001 4286874748
0.25119999 0.065858699 0.63800001 4287400837
0.25292099 0.065858498 0.63800001 4287401606
0.25464201 0.065858401 0.63800001 4287533190
0.25636399 0.065858498 0.63800001 4287665031
0.25849199 0.065961897 0.639 4287335811
0.25940299 0.065755799 0.63700002 4287073409
0.26112401 0.065756299 0.63700002 4287467399
0.26284599 0.065756902 0.63700002 4286809983
0.264983 0.065860897 0.63800001 4286941823
0.266709 0.065861799 0.63800001 4287204480
0.268015 0.065759599 0.63700002 4287072892
0.269739 0.065760799 0.63700002 4287007353
0.27146399 0.065762199 0.63700002 4287138939
0.27318999 0.065763697 0.63700002 4286941046
0.27491599 0.065765403 0.63700002 4287335804
0.277078 0.065870501 0.63800001 4287269757
0.278808 0.065872602 0.63800001 4287269757
0.28009999 0.065771498 0.63700002 4287204218
0.28183001 0.065773897 0.63700002 4287270011
0.28356099 0.0657764 0.63700002 4286941298
0.285292 0.065779202 0.63700002 4287466875
0.287025 0.0657821 0.63700002 4287532415
0.289211 0.065888397 0.63800001 4287269243
0.290948 0.065891698 0.63800001 4287466361
0.292687 0.0658952 0.63800001 4286742638
0.29442599 0.065898798 0.63800001 4286940017
0.296166 0.065902703 0.63800001 4287532413
0.29743999 0.065803401 0.63700002 4287927689
0.29918 0.0658077 0.63700002 4287730310
0.30092099 0.065812103 0.63700002 4287599236
0.302663 0.065816797 0.63700002 4287336578
0.30392799 0.065718301 0.63599998 4287468418
0.30519 0.065620102 0.63499999 4287665282
0.30693001 0.065625302 0.63499999 4287270525
0.30867201 0.065630801 0.63499999 4287270525
0.31090301 0.0657399 0.63599998 4287204732
0.31265 0.065745898 0.63599998 4287665283
0.315882 0.066062197 0.639 4287598722
0.31764001 0.066068597 0.639 4287598724
0.31889999 0.065971904 0.63800001 4287335552
0.319653 0.065771997 0.63599998 4287861127
0.32140699 0.065779097 0.63599998 4287598469
0.32418001 0.065993302 0.63800001 4287532931
0.32594299 0.066000901 0.63800001 4287730822
0.32719401 0.0659054 0.63700002 4287467650
0.32844099 0.065810002 0.63599998 4287401857
0.33072299 0.065921903 0.63700002 4287533443
0.33249 0.065930501 0.63700002 4287862155
0.334259 0.065939397 0.63700002 4287796364
0.33497399 0.065741502 0.63499999 4287861641
0.33780199 0.065958001 0.63700002 4287532676
0.33957601 0.065967798 0.63700002 4287071350
0.34242499 0.066184901 0.639 4287137141
0.34420899 0.066195197 0.639 4287466361
0.34599501 0.0662058 0.639 4287005810
0.34669399 0.066009499 0.63700002 4286676845
0.348479 0.0660206 0.63700002 4287005810
0.35026601 0.066032097 0.63700002 4287071603
0.35205501 0.066043802 0.63700002 4286808945
0.35440201 0.066159599 0.63800001 4286743150
0.35563999 0.066068202 0.63700002 4287072117
0.357436 0.066080898 0.63700002 4287334775
0.35867 0.065990098 0.63599998 4287729531
0.36103499 0.066107199 0.63700002 4286874224
0.362838 0.0661209 0.63700002 4287137396
0.36464399 0.066134803 0.63700002 4287400568
0.36645201 0.066149101 0.63700002 4287203189
0.36768499 0.066059902 0.63599998 4287597947
0.37007701 0.066178799 0.63700002 4286413160
0.37247699 0.066298001 0.63800001 4287268469
0.37429899 0.066313699 0.63800001 4287334262
0.375534 0.066225797 0.63700002 4287335028
0.377951 0.066346198 0.63800001 4287072115
0.38037699 0.066467002 0.639 4287269494
0.38281199 0.066588297 0.63999999 4287729533
0.38345301 0.066397697 0.63800001 4287269496
0.384689 0.066311501 0.63700002 4286743152
0.38592201 0.0662257 0.63599998 4286151529
0.38776299 0.066244297 0.63599998 4282993463
0.390219 0.0663675 0.63700002 4286087017
0.39206901 0.066386998 0.63700002 4287928968
0.394541 0.066511102 0.63800001 4287928455
0.39702201 0.066635698 0.639 4288059789
0.39951301 0.066760801 0.63999999 4287993743
0.40138599 0.066781998 0.63999999 4287994257
0.403263 0.066803597 0.63999999 4287994511
0.40514299 0.066825703 0.63999999 4288191375
0.40575501 0.066639297 0.63800001 4287993994
0.40763801 0.0666622 0.63800001 4287928201
0.410166 0.066790096 0.639 4288586131
0.41205901 0.066813901 0.639 4287731336
0.41395599 0.066838197 0.639 4287862922
0.415858 0.066863 0.639 4288388754
0.41776401 0.066888198 0.639 4287928203
0.41967401 0.066914 0.639 4287993996
0.421588 0.066940203 0.639 4288322447
0.423507 0.066966899 0.639 4288256399
0.42543101 0.066994101 0.639 4287861641
0.42735901 0.067021802 0.639 4287861896
0.42794901 0.066840202 0.63700002 4288059789
0.42988101 0.066868901 0.63700002 4288126097
0.43114001 0.066793099 0.63599998 4288322708
0.435121 0.067137897 0.639 4288191120
0.43707401 0.067168303 0.639 4288190861
0.44040599 0.067409597 0.64099997 4287729794
0.443066 0.067546397 0.64200002 4287334775
0.445737 0.067683801 0.64300001 4287268982
-0.199159 0.063889697 0.63499999 4289375911
-0.19776499 0.063993402 0.63599998 4289704876
-0.19605599 0.063996501 0.63599998 4289441704
-0.19434801 0.063999698 0.63599998 4289375657
-0.19233599 0.063902304 0.63499999 4289507243
-0.190631 0.063905597 0.63499999 4289375911
-0.18832999 0.063707702 0.63300002 4289573290
-0.186924 0.063811697 0.634 4289902255
-0.185221 0.063815102 0.634 4289769899
-0.18409701 0.064019904 0.63599998 4289967278
-0.182101 0.0639228 0.63499999 4289638315
-0.18039501 0.063926302 0.63499999 4289967025
-0.17812601 0.063728601 0.63300002 4290098097
-0.176425 0.063732199 0.63300002 4290032559
-0.175 0.063836597 0.634 4289966764
-0.174117 0.064142399 0.63700002 4290164145
-0.171863 0.063944697 0.63499999 4289835692
-0.170157 0.063948497 0.63499999 4290164657
-0.168185 0.063851602 0.634 4290098864
-0.166743 0.063956097 0.63499999 4289770154
-0.16503599 0.063959897 0.63499999 4289835431
-0.16332901 0.063963801 0.63499999 4289440928
-0.16187599 0.064068399 0.63599998 4289769893
-0.16041701 0.064173102 0.63700002 4289769640
-0.158704 0.064176999 0.63700002 4289572259
-0.156745 0.064080201 0.63599998 4289572261
-0.15503401 0.064084202 0.63599998 4289572261
-0.15356401 0.064188898 0.63700002 4289703847
-0.15185 0.064192899 0.63700002 4289572261
-0.1499 0.064096197 0.63599998 4289637799
-0.147956 0.0639994 0.63499999 4289440420
-0.146247 0.064003401 0.63499999 4289703078
-0.14408199 0.063805804 0.63300002 4289243041
-0.141928 0.063608199 0.63099998 4289309089
-0.14089601 0.063914597 0.634 4289111710
-0.13962799 0.064120203 0.63599998 4289374882
-0.13813201 0.0642251 0.63700002 4289374880
-0.13620199 0.064128198 0.63599998 4289374366
-0.134701 0.064233102 0.63700002 4289176987
-0.132984 0.064237103 0.63700002 4289571745
-0.131062 0.064140201 0.63599998 4289505438
-0.12934799 0.064144202 0.63599998 4289374112
-0.127634 0.064148203 0.63599998 4288979354
-0.125919 0.064152099 0.63599998 4289505698
-0.124205 0.064156003 0.63599998 4289111194
-0.122682 0.064260803 0.63700002 4289111194
-0.120964 0.0642647 0.63700002 4289242780
-0.119059 0.064167701 0.63599998 4289111194
-0.117344 0.064171597 0.63599998 4289308573
-0.115991 0.064377204 0.63800001 4289374366
-0.114628 0.064582899 0.63999999 4289045917
-0.112548 0.064384803 0.63800001 4289110940
-0.110478 0.064186797 0.63599998 4289308573
-0.108762 0.064190499 0.63599998 4289176733
-0.107213 0.064295098 0.63700002 4289242780
-0.105493 0.064298801 0.63700002 4289242780
-0.103935 0.0644034 0.63800001 4289570977
-0.102212 0.064406998 0.63800001 4289637023
-0.100646 0.0645115 0.639 4289374105
-0.098609798 0.064313203 0.63700002 4289044886
-0.097040601 0.064417601 0.63800001 4289110933
-0.095316403 0.064421102 0.63800001 4288781968
-0.093738496 0.0645255 0.639 4288715921
-0.092011102 0.064528897 0.639 4288781714
-0.089859501 0.064229302 0.63599998 4288255624
-0.088278197 0.064333603 0.63700002 4288386956
-0.086419597 0.064235799 0.63599998 4288255371
-0.085098803 0.064542003 0.639 4287992198
-0.083370201 0.064545199 0.639 4287729027
-0.081768997 0.064649403 0.63999999 4287597441
-0.079787098 0.064450398 0.63800001 4287597694
-0.078182898 0.064554401 0.639 4287466106
-0.076453298 0.064557403 0.639 4287860864
-0.074957401 0.064762399 0.64099997 4287926657
-0.073107801 0.064664297 0.63999999 4288058498
-0.071263298 0.064566001 0.639 4287663740
-0.069315299 0.064366698 0.63700002 4287926912
-0.067483999 0.064268298 0.63599998 4287532154
-0.065864697 0.064372003 0.63700002 4287860866
-0.064340398 0.0645767 0.639 4287926659
-0.062805198 0.064781398 0.64099997 4287992198
-0.0609731 0.064682797 0.63999999 4287860864
-0.059146199 0.064584203 0.639 4288189829
-0.057414401 0.064586498 0.639 4287729533
-0.055856701 0.064791001 0.64099997 4288124291
-0.0542036 0.064894304 0.64200002 4288255624
-0.0524632 0.064896502 0.64200002 4288321417
-0.0506435 0.064797498 0.64099997 4288255624
-0.048981801 0.064900599 0.64200002 4288321417
-0.047240801 0.064902604 0.64200002 4288124038
-0.045428898 0.064803399 0.64099997 4287926659
-0.043690398 0.064805299 0.64099997 4287663487
-0.041951701 0.064807102 0.64099997 4287663487
-0.040338401 0.065011002 0.64300001 4287926148
-0.038594 0.065012597 0.64300001 4287729026
-0.036906801 0.065115303 0.64399999 4287794819
-0.035104901 0.065015703 0.64300001 4288123785
-0.033308301 0.064916097 0.64200002 4287992199
-0.031566199 0.0649174 0.64200002 4287728773
-0.0298704 0.065019801 0.64300001 4287597183
-0.028169099 0.065122202 0.64399999 4287794814
-0.026421299 0.065123297 0.64399999 4287794814
-0.0247116 0.065225601 0.64499998 4287729021
-0.022960899 0.0652266 0.64499998 4287334522
-0.021177201 0.065126397 0.64399999 4287597694
-0.019429 0.065127298 0.64399999 4287729280
-0.017708199 0.0652292 0.64499998 4287729280
-0.015982 0.065330997 0.64600003 4287729026
-0.0142282 0.065331697 0.64600003 4287729026
-0.0124936 0.065433398 0.64700001 4287860866
-0.010737 0.065433897 0.64700001 4287729280
-0.0089665297 0.065333202 0.64600003 4287466106
-0.0072014201 0.065232404 0.64499998 4288124291
-0.00545017 0.065232597 0.64499998 4288124805
-0.0037046201 0.065334 0.64600003 4288058757
-0.00195364 0.065435201 0.64700001 4287861378
-0.000196913 0.065435298 0.64700001 4287861896
0.00155981 0.065435201 0.64700001 4287861896
0.00332166 0.065536298 0.648 4287861896
0.00508893 0.065637201 0.64899999 4287730055
0.0068510501 0.065637 0.64899999 4287993482
0.0085998802 0.065535501 0.648 4287927687
0.0103432 0.065434001 0.64700001 4287597954
0.0120998 0.065433502 0.64700001 4287861380
0.013835 0.065331802 0.64600003 4287926657
0.0156129 0.065432303 0.64700001 4287926657
0.017369401 0.065431602 0.64700001 4287926912
0.019155299 0.065531902 0.648 4287597947
0.0209467 0.065632202 0.64899999 4287729533
0.022708399 0.0656313 0.64899999 4287729533
0.0243946 0.065428004 0.64700001 4287598206
0.0261911 0.065528102 0.648 4287795585
0.027992999 0.065628096 0.64899999 4287795587
0.0298001 0.065728001 0.64999998 4287729026
0.031515501 0.065625504 0.64899999 4287597955
0.033225399 0.065523103 0.648 4287729541
0.034983698 0.065521598 0.648 4287400575
0.0367986 0.065621197 0.64899999 4287071610
0.0385594 0.0656197 0.64899999 4286084455
0.040320098 0.065618001 0.64899999 4286413673
0.0422103 0.065818503 0.65100002 4286478953
0.043976098 0.0658167 0.65100002 4286347621
0.0456715 0.065713704 0.64999998 4286544746
0.0474343 0.065711796 0.64999998 4286808172
0.049197 0.0657098 0.64999998 4286610793
0.0510379 0.065808803 0.65100002 4286676332
0.052802902 0.065806702 0.65100002 4286544746
0.054483999 0.065703399 0.64999998 4286149988
0.0561595 0.065600097 0.64899999 4286215781
0.058007799 0.065698899 0.64999998 4286347367
0.0596775 0.065595403 0.64899999 4285887329
0.061341599 0.0654919 0.648 4286610539
0.063194796 0.065590501 0.64899999 4286742125
0.064953201 0.065587901 0.64899999 4286742378
0.066916898 0.065787397 0.65100002 4286084448
0.068574801 0.0656837 0.64999998 4286545252
0.070335202 0.065680899 0.64999998 4286544992
0.071984597 0.065577097 0.64899999 4286677092
0.073855497 0.065675303 0.64999998 4286545252
0.075498998 0.065571301 0.64899999 4286216288
0.077255897 0.065568402 0.64899999 4286479207
0.079012603 0.0655654 0.64899999 4285887329
0.080893502 0.0656633 0.64999998 4286084708
0.082652397 0.065660201 0.64999998 4285953122
0.0844111 0.065656997 0.64999998 4285689950
0.086037003 0.065552801 0.64899999 4285558109
0.087792501 0.065549597 0.64899999 4284704346
0.089409798 0.065445296 0.648 4282862656
0.0911621 0.065441899 0.648 4285033825
0.093200997 0.065640502 0.64999998 4285691755
0.095104396 0.065738 0.65100002 4285690725
0.096864097 0.065734498 0.65100002 4284835155
0.098320499 0.065529101 0.64899999 4285294937
0.099920198 0.065424502 0.648 4285229144
0.101671 0.065420903 0.648 4284242249
0.103581 0.065518297 0.64899999 4283452733
0.105334 0.065514602 0.64899999 4283913286
0.107252 0.065611802 0.64999998 4285163351
0.109007 0.065608099 0.64999998 4285952867
0.110592 0.065503404 0.64899999 4285821795
0.112171 0.065398701 0.648 4285887588
0.113744 0.065293901 0.64700001 4283980109
0.115669 0.065390997 0.648 4283716682
0.117236 0.065286197 0.64700001 4283058246
0.118798 0.065181397 0.64600003 4284834648
0.120727 0.065278403 0.64700001 4285821283
0.122283 0.065173604 0.64600003 4285953122
0.124217 0.065270498 0.64700001 4286216294
0.125572 0.065064803 0.64499998 4286084195
0.12731101 0.065060802 0.64499998 4286281574
0.12864999 0.064855099 0.64300001 4285887322
0.130586 0.064951897 0.64399999 4286478954
0.132321 0.064947903 0.64399999 4286478954
0.134057 0.064943902 0.64399999 4286084453
0.135792 0.064939797 0.64399999 4286413673
0.137527 0.064935803 0.64399999 4286084453
0.139045 0.064830899 0.64300001 4286019176
0.14077701 0.064826898 0.64300001 4286610545
0.142065 0.064621203 0.64099997 4286215787
0.144015 0.064717896 0.64200002 4286216041
0.145744 0.064713903 0.64200002 4286216039
0.147701 0.064810596 0.64300001 4286216039
0.148967 0.064604998 0.64099997 4286479211
0.15092701 0.064701803 0.64200002 4286347880
0.15265501 0.064697698 0.64200002 4286216294
0.154623 0.064794503 0.64300001 4286018915
0.155866 0.064588897 0.64099997 4286084708
0.15783601 0.064685702 0.64200002 4286347880
0.15931401 0.064580902 0.64099997 4286150501
0.160787 0.064476199 0.63999999 4286282087
0.162 0.064270802 0.63800001 4286413418
0.16397201 0.0643676 0.639 4286413418
0.16595 0.064464398 0.63999999 4286347627
0.168456 0.064762697 0.64300001 4286347627
0.16992 0.064658098 0.64200002 4286676590
0.171646 0.064654298 0.64200002 4286479211
0.172831 0.064448997 0.63999999 4286742385
0.174551 0.064445302 0.63999999 4286742385
0.17572001 0.064240202 0.63800001 4286940024
0.17771301 0.064337097 0.639 4286874231
0.17942999 0.064333498 0.639 4286743413
0.181714 0.0645312 0.64099997 4286743413
0.182863 0.064326197 0.639 4287138425
0.18429101 0.064222001 0.63800001 4287006839
0.18571401 0.064117901 0.63700002 4287072632
0.187131 0.064013802 0.63599998 4286874999
0.18854199 0.063909702 0.63499999 4287072378
0.190248 0.063906401 0.63499999 4286940794
0.191954 0.063903101 0.63499999 4286808953
0.193965 0.064000398 0.63599998 4286940539
0.196288 0.064198501 0.63800001 4286940539
0.198002 0.064195298 0.63800001 4287072125
0.199403 0.0640916 0.63700002 4287203196
0.200798 0.063988 0.63599998 4287005817
0.202189 0.0638844 0.63499999 4287203196
0.204216 0.063982099 0.63599998 4287071610
0.205277 0.063778102 0.634 4287072380
0.207306 0.063876003 0.63499999 4286941308
0.209342 0.063973904 0.63599998 4286875515
0.212046 0.064273 0.639 4287007613
0.21409699 0.064370997 0.63999999 4286678648
0.21548 0.064267904 0.639 4286876029
0.216857 0.064165004 0.63800001 4286743927
0.21822999 0.064062104 0.63700002 4286941306
0.219942 0.064059898 0.63700002 4287203966
0.221654 0.0640577 0.63700002 4287006332
0.22336701 0.064055599 0.63700002 4286809467
0.225786 0.064254798 0.639 4286809469
0.22714899 0.064152397 0.63800001 4286743421
0.228864 0.064150602 0.63800001 4286743421
0.23021901 0.064048298 0.63700002 4286809469
0.231933 0.064046703 0.63700002 4287006848
0.234014 0.064145803 0.63800001 4287072639
0.23536099 0.064043902 0.63700002 4287204478
0.237076 0.064042598 0.63700002 4287138685
0.238791 0.064041398 0.63700002 4286743927
0.24050599 0.064040303 0.63700002 4287335550
0.24260201 0.064139903 0.63800001 4287269759
0.244321 0.064139098 0.63800001 4287006332
0.245654 0.0640378 0.63700002 4287137918
0.24776 0.064137802 0.63800001 4287269504
0.249089 0.064036697 0.63700002 4287072125
0.25119999 0.0641369 0.63800001 4286808953
0.252525 0.064036198 0.63700002 4286809459
0.25424299 0.064035997 0.63700002 4287072378
0.255963 0.064036101 0.63700002 4286941306
0.257682 0.064036198 0.63700002 4286941822
0.258995 0.063936003 0.63599998 4287073408
0.260304 0.063835897 0.63499999 4287533190
0.26201999 0.063836403 0.63499999 4287467397
0.26415199 0.063937701 0.63599998 4287665031
0.26629001 0.064039104 0.63700002 4287599236
0.26801401 0.064040102 0.63700002 4287796615
0.26973799 0.064041197 0.63700002 4287336064
0.27146199 0.064042501 0.63700002 4287598976
0.27275899 0.063943498 0.63599998 4287664254
0.27362001 0.063744001 0.634 4287335803
0.27577299 0.063846298 0.63499999 4287335803
0.277495 0.063848197 0.63499999 4287401596
0.27965799 0.063950904 0.63599998 4287204218
0.281385 0.063953102 0.63599998 4287203964
0.283113 0.063955598 0.63599998 4287203966
0.28484201 0.063958198 0.63599998 4287269251
0.286571 0.063960999 0.63599998 4287467136
0.288302 0.063963898 0.63599998 4287269759
0.29003301 0.063967101 0.63599998 4287532413
0.291307 0.063869797 0.63499999 4287006324
0.29303801 0.063873403 0.63499999 4287072117
0.29523399 0.063977599 0.63599998 4287335289
0.296969 0.063981503 0.63599998 4287533183
0.298706 0.063985601 0.63599998 4287730308
0.300917 0.064090498 0.63700002 4287665283
0.302183 0.0639944 0.63599998 4287336064
0.30344599 0.063898496 0.63499999 4287467904
0.30470401 0.063802697 0.634 4287796868
0.30644101 0.0638078 0.634 4287467903
0.30818 0.063813098 0.634 4287335803
0.31040901 0.063919298 0.63499999 4287270010
0.31215301 0.063925102 0.63499999 4287862147
0.31439301 0.064031698 0.63599998 4287730562
0.31564501 0.063937202 0.63499999 4287927687
0.31739399 0.063943602 0.63499999 4287730055
0.318138 0.063748904 0.63300002 4287401604
0.320389 0.063856401 0.634 4287598983
0.32264799 0.0639643 0.63499999 4287730824
0.324402 0.063971601 0.63499999 4287730822
0.326159 0.063979201 0.63499999 4287993994
0.3274 0.0638863 0.634 4287796615
0.329676 0.063995197 0.63499999 4287796617
0.330915 0.063902698 0.634 4287993741
0.332151 0.063810498 0.63300002 4287796362
0.33390999 0.063819297 0.63300002 4287598985
0.33567101 0.063828401 0.63300002 4287926920
0.33743501 0.063837796 0.63300002 4287202936
0.339735 0.063948303 0.634 4286676845
0.342044 0.064059101 0.63499999 4287268982
0.34435999 0.064170197 0.63599998 4287400309
0.345595 0.064079799 0.63499999 4286874222
0.346827 0.063989699 0.634 4286611052
0.34860501 0.064000703 0.634 4286676845
0.35038501 0.064012103 0.634 4286743152
0.35216799 0.064023703 0.634 4287137910
0.353953 0.064035602 0.634 4287005810
0.35517901 0.063946903 0.63300002 4286808429
0.35696501 0.063959397 0.63300002 4287400566
0.359321 0.064073302 0.634 4286808431
0.36111599 0.064086497 0.634 4287334775
0.36348501 0.064201102 0.63499999 4287268980
0.36586201 0.064315997 0.63599998 4286676845
0.36767 0.064330198 0.63599998 4287334773
0.369481 0.064344801 0.63599998 4286281828
0.37129399 0.064359598 0.63599998 4287466102
0.37252301 0.064273603 0.63499999 4287466355
0.37375 0.064187899 0.634 4287598198
0.37556601 0.064203702 0.634 4287466614
0.378575 0.064422503 0.63599998 4287400566
0.38040301 0.064439103 0.63599998 4287071603
0.38223299 0.064456098 0.63599998 4286940531
0.383463 0.0643721 0.63499999 4286413673
0.385297 0.064389803 0.63499999 4286019427
0.38652501 0.064306401 0.634 4283520062
0.38836199 0.064324804 0.634 4283850056
0.390203 0.064343601 0.634 4287928968
0.39266601 0.064464398 0.63499999 4287271038
0.394517 0.064484 0.63499999 4287073406
0.39699501 0.064605601 0.63599998 4287336066
0.399483 0.064727701 0.63700002 4287336064
0.40072101 0.064646997 0.63599998 4287730822
0.40322199 0.064769998 0.63700002 4287796615
0.404461 0.064690001 0.63599998 4287665029
0.40697601 0.064814001 0.63700002 4287796615
0.40885901 0.064836599 0.63700002 4288257166
0.41074601 0.064859703 0.63700002 4288059787
0.411989 0.064781398 0.63599998 4288125834
0.413881 0.064805299 0.63599998 4288782996
0.41643101 0.064931698 0.63700002 4288322445
0.41833499 0.064956598 0.63700002 4288124550
0.420243 0.064981997 0.63700002 4287993480
0.42215499 0.065007903 0.63700002 4288388240
0.42473799 0.065136299 0.63800001 4288190606
0.42599401 0.0650611 0.63700002 4288256399
0.427921 0.065088399 0.63700002 4288059020
0.42917699 0.065014102 0.63599998 4288125329
0.43043301 0.064940102 0.63499999 4288322708
0.43304899 0.065071203 0.63599998 4288125327
0.43636 0.0653053 0.63800001 4288190861
0.439688 0.065540098 0.63999999 4288189829
0.44234401 0.065673202 0.64099997 4287203189
0.44431901 0.065704502 0.64099997 4287334262
-0.19960301 0.061780799 0.63099998 4289573036
-0.198222 0.061881699 0.63200003 4289507497
-0.196835 0.061982598 0.63300002 4289770669
-0.195443 0.062083598 0.634 4289704106
-0.19374 0.062086701 0.634 4289507497
-0.191734 0.0619919 0.63300002 4289836462
-0.190033 0.0619951 0.63300002 4289639083
-0.18803599 0.0619005 0.63200003 4289375911
-0.18663301 0.062001701 0.63300002 4289506727
-0.18493199 0.062005099 0.63300002 4289572520
-0.18381099 0.062204398 0.63499999 4289506727
-0.18181799 0.062109899 0.634 4289769901
-0.179546 0.061917402 0.63200003 4289966511
-0.17756701 0.061822999 0.63099998 4290032304
-0.175872 0.061826501 0.63099998 4289638315
-0.17500401 0.0621241 0.634 4289769901
-0.1733 0.062127698 0.634 4289835694
-0.171326 0.062033299 0.63300002 4289769899
-0.169625 0.062036999 0.63300002 4289901485
-0.167923 0.062040702 0.63300002 4289901485
-0.16622201 0.062044501 0.63300002 4289506982
-0.16478001 0.062146202 0.634 4289638052
-0.163075 0.062150002 0.634 4289769638
-0.16188 0.062349901 0.63599998 4289638052
-0.159918 0.062255699 0.63499999 4289703847
-0.15820999 0.062259499 0.63499999 4289506466
-0.15625601 0.062165301 0.634 4289572261
-0.15479399 0.0622673 0.63499999 4289638054
-0.15308601 0.0622712 0.63499999 4289901226
-0.15137701 0.0622751 0.63499999 4289440675
-0.14966901 0.062279001 0.63499999 4289637799
-0.147727 0.062184799 0.634 4289637799
-0.14579 0.062090602 0.63300002 4289506213
-0.143631 0.061898299 0.63099998 4289572006
-0.141707 0.061804101 0.63 4289308834
-0.14045601 0.062004201 0.63200003 4289769385
-0.139193 0.062204301 0.634 4289178015
-0.137702 0.0623064 0.63499999 4289178015
-0.13577799 0.062212199 0.634 4289374880
-0.13406999 0.062216099 0.634 4289045915
-0.132153 0.062121801 0.63300002 4289309089
-0.130448 0.062125701 0.63300002 4289242527
-0.12914801 0.062325899 0.63499999 4289308320
-0.127437 0.062329698 0.63499999 4289243041
-0.12552699 0.0622354 0.634 4289440420
-0.123623 0.062141102 0.63300002 4289308834
-0.122108 0.0622431 0.634 4289243041
-0.120589 0.062345099 0.63499999 4289111455
-0.118876 0.062348802 0.63499999 4289308834
-0.117163 0.062352601 0.63499999 4289243296
-0.115813 0.062552698 0.63700002 4289111710
-0.114273 0.062654696 0.63800001 4289045662
-0.112375 0.062560201 0.63700002 4288980124
-0.109961 0.062171001 0.63300002 4289045401
-0.108252 0.0621746 0.63300002 4289176987
-0.106711 0.062276401 0.634 4289243033
-0.105165 0.062378298 0.63499999 4289177240
-0.103613 0.062479999 0.63599998 4289111963
-0.101735 0.062385298 0.63499999 4289045915
-0.100177 0.062487099 0.63599998 4288848791
-0.098458499 0.062490501 0.63599998 4288914329
-0.097044103 0.0626904 0.63800001 4288980377
-0.095021002 0.062497299 0.63599998 4289045654
-0.093301803 0.062500603 0.63599998 4289177240
-0.091438398 0.062405702 0.63499999 4288979607
-0.089721501 0.062408902 0.63499999 4289308572
-0.088142902 0.062510401 0.63599998 4289176987
-0.086422801 0.062513597 0.63599998 4289044887
-0.084702402 0.062516697 0.63599998 4288979354
-0.083112299 0.062618099 0.63700002 4288913561
-0.081516601 0.062719502 0.63800001 4288847768
-0.0797901 0.062722497 0.63800001 4288848022
-0.077941097 0.062627099 0.63700002 4288913814
-0.076216899 0.062629998 0.63700002 4288913814
-0.074609399 0.062731199 0.63800001 4288584849
-0.072653599 0.062537298 0.63599998 4288388240
-0.070819996 0.062441699 0.63499999 4288453517
-0.068882696 0.062247701 0.63300002 4288190091
-0.067274399 0.062348701 0.634 4288058505
-0.065660402 0.062449601 0.63499999 4288123784
-0.064141601 0.062648803 0.63700002 4287926405
-0.062513702 0.062749699 0.63800001 4287729541
-0.060880199 0.062850401 0.639 4287729540
-0.059055999 0.0627544 0.63800001 4287597954
-0.057236999 0.062658399 0.63700002 4287597694
-0.055510402 0.062660597 0.63700002 4287794819
-0.053867999 0.062761098 0.63800001 4288057991
-0.052220099 0.062861599 0.639 4287992198
-0.050408602 0.0627653 0.63800001 4287926659
-0.048754901 0.062865697 0.639 4287860866
-0.046948399 0.062769197 0.63800001 4287926405
-0.045288999 0.062869497 0.639 4287794819
-0.0435558 0.0628713 0.639 4287794820
-0.041887999 0.062971398 0.63999999 4287729027
-0.040214598 0.063071497 0.64099997 4287926405
-0.038475599 0.063073099 0.64099997 4287794819
-0.036793701 0.063173003 0.64200002 4287926405
-0.034997199 0.063076101 0.64099997 4287729027
-0.0331541 0.062880702 0.639 4287663234
-0.0314692 0.062980399 0.63999999 4287597441
-0.029778801 0.063080102 0.64099997 4287597441
-0.028170301 0.063376501 0.64399999 4287399804
-0.0264224 0.063377701 0.64399999 4287465083
-0.024674401 0.063378699 0.64399999 4287531390
-0.0228907 0.063281298 0.64300001 4287531647
-0.0211781 0.063380599 0.64399999 4287334522
-0.019429799 0.063381501 0.64399999 4287334520
-0.0176815 0.063382201 0.64399999 4287268727
-0.015957899 0.063481398 0.64499998 4287597694
-0.0142067 0.063482001 0.64499998 4287268729
-0.0124942 0.063679397 0.64700001 4287400315
-0.0107209 0.063581496 0.64600003 4287268729
-0.0089530302 0.063483402 0.64499998 4287795071
-0.0072017298 0.063483797 0.64499998 4288059012
-0.0054419502 0.063385598 0.64399999 4287993733
-0.0036933101 0.0633858 0.64399999 4287927941
-0.00194466 0.063385896 0.64399999 4287730562
-0.00019631301 0.063484401 0.64499998 4287927687
0.00155506 0.063484401 0.64499998 4287861896
0.0033064201 0.063484304 0.64499998 4287795848
0.0050577801 0.063484102 0.64499998 4287927436
0.0068196701 0.063582301 0.64600003 4288059020
0.0085869702 0.063680403 0.64700001 4287993227
0.0103437 0.063680001 0.64700001 4287927434
0.0121004 0.063679501 0.64700001 4287992712
0.0138356 0.063580498 0.64600003 4287860864
0.0155895 0.063579902 0.64600003 4287992450
0.017343299 0.063579202 0.64600003 4287992705
0.0191266 0.063676901 0.64700001 4287729533
0.020850699 0.063577697 0.64600003 4287663740
0.022639301 0.063675202 0.64700001 4287729533
0.0243579 0.063575797 0.64600003 4287597692
0.026111299 0.063574702 0.64600003 4287927173
0.027907901 0.063671999 0.64700001 4287532162
0.029663799 0.063670799 0.64700001 4287860873
0.031419698 0.0636696 0.64700001 4287795081
0.033124201 0.063569799 0.64600003 4287860873
0.034931201 0.063666798 0.64700001 4287795334
0.036743499 0.063763797 0.648 4287334782
0.038561001 0.063860603 0.64899999 4286084455
0.040321801 0.063859001 0.64899999 4286479466
0.042082399 0.063857302 0.64899999 4286939758
0.043775301 0.063757204 0.648 4286742379
0.045532901 0.0637554 0.648 4287005551
0.047290299 0.063753501 0.648 4286610793
0.049199 0.063948303 0.64999998 4286742638
0.050961599 0.063946299 0.64999998 4286478953
0.052724 0.063944198 0.64999998 4286742125
0.0544024 0.063843697 0.64899999 4286873711
0.0562483 0.063939899 0.64999998 4286742126
0.058010101 0.063937597 0.64999998 4286150246
0.059679899 0.063836902 0.64899999 4286808431
0.061249401 0.063637801 0.64700001 4287071348
0.063002497 0.063635401 0.64700001 4286939762
0.064755499 0.063632898 0.64700001 4286808431
0.066611104 0.063728698 0.648 4286610793
0.068366401 0.063726097 0.648 4287005804
0.070229799 0.0638218 0.64899999 4286611045
0.071987398 0.063818999 0.64899999 4286479964
0.073744699 0.063816197 0.64899999 4286611297
0.0753856 0.0637151 0.648 4286348133
0.077020802 0.063613899 0.64700001 4286676843
0.078772098 0.063610896 0.64700001 4285952609
0.0805232 0.063607998 0.64700001 4286281574
0.082273997 0.063604899 0.64700001 4286150501
0.084024601 0.063601799 0.64700001 4286084708
0.085775003 0.0635987 0.64700001 4286018660
0.087660499 0.063693799 0.648 4284638553
0.089413099 0.063690603 0.648 4282993728
0.091165498 0.063687302 0.648 4285099619
0.092917599 0.063684002 0.648 4285691756
0.094815597 0.0637789 0.64899999 4285953897
0.0964211 0.063677303 0.648 4285887588
0.098021001 0.063575603 0.64700001 4285689697
0.099769503 0.063572101 0.64700001 4285294939
0.101675 0.063666798 0.648 4285426523
0.103425 0.063663296 0.648 4285229144
0.105176 0.063659698 0.648 4284900181
0.107091 0.063754298 0.64899999 4285689697
0.108843 0.063750699 0.64899999 4285755490
0.110425 0.063648798 0.648 4285821797
0.111828 0.0634486 0.64600003 4285624164
0.113572 0.063444898 0.64600003 4285230176
0.115316 0.063441202 0.64600003 4285098335
0.116878 0.063339204 0.64499998 4285163614
0.118618 0.063335396 0.64499998 4286018662
0.120358 0.063331597 0.64499998 4285952867
0.122098 0.0633277 0.64499998 4286084708
0.123837 0.0633239 0.64499998 4285821536
0.12538201 0.063221797 0.64399999 4286215781
0.12711801 0.063217901 0.64399999 4286084708
0.128454 0.063017704 0.64200002 4286151005
0.13018399 0.063013799 0.64200002 4286610793
0.13212 0.063107997 0.64300001 4286479466
0.13406099 0.063202202 0.64399999 4286282087
0.135796 0.063198298 0.64399999 4286611052
0.137317 0.063096203 0.64300001 4286413673
0.13904899 0.063092202 0.64300001 4286413418
0.140562 0.062990099 0.64200002 4286545006
0.141626 0.062691897 0.639 4286545006
0.143571 0.062785998 0.63999999 4286479211
0.145521 0.062880203 0.64099997 4286216294
0.147476 0.062974297 0.64200002 4286347625
0.148739 0.062774204 0.63999999 4286216294
0.150461 0.062770203 0.63999999 4286479466
0.152421 0.0628644 0.64099997 4286413673
0.154146 0.062860399 0.64099997 4286478953
0.155627 0.062758401 0.63999999 4286807918
0.157594 0.062852599 0.64099997 4286347880
0.159318 0.062848702 0.64099997 4286676845
0.16079099 0.0627468 0.63999999 4286281832
0.16200399 0.062546797 0.63800001 4286676590
0.16372 0.062542997 0.63800001 4286545004
0.16595399 0.0627352 0.63999999 4286413418
0.168198 0.062927499 0.64200002 4286676590
0.16992401 0.0629237 0.64200002 4286676590
0.171382 0.062821902 0.64099997 4286084453
0.172565 0.062622197 0.639 4286084453
0.174282 0.062618501 0.639 4286347625
0.175724 0.062516801 0.63800001 4286479213
0.17743801 0.062513202 0.63800001 4286216555
0.179153 0.062509596 0.63800001 4285953897
0.18115 0.062604003 0.639 4286151276
0.18229499 0.062404599 0.63700002 4286217323
0.18400601 0.062401101 0.63700002 4286414187
0.185426 0.062299699 0.63599998 4286414187
0.187134 0.062296301 0.63599998 4286545518
0.188843 0.062293001 0.63599998 4286677104
0.190551 0.0622897 0.63599998 4286546034
0.19226 0.0622865 0.63599998 4286875001
0.193968 0.0622833 0.63599998 4286875001
0.19598401 0.062378 0.63700002 4286940794
0.197695 0.062375002 0.63700002 4286809208
0.199093 0.062274002 0.63599998 4287137655
0.200486 0.062173098 0.63499999 4287005557
0.20251 0.062268101 0.63599998 4287466108
0.204218 0.062265299 0.63599998 4287531395
0.205927 0.062262502 0.63599998 4287334783
0.20730899 0.0621619 0.63499999 4287072380
0.209344 0.0622571 0.63599998 4287138173
0.211385 0.0623524 0.63700002 4287073408
0.213431 0.062447801 0.63800001 4286876027
0.21514501 0.062445398 0.63800001 4287007616
0.21686 0.062442999 0.63800001 4286810237
