# .PCD v0.7 - Point Cloud Data file format
VERSION 0.7
FIELDS x y z rgb
SIZE 4 4 4 4
TYPE F F F U
COUNT 1 1 1 1
WIDTH 1141
HEIGHT 1
VIEWPOINT 0 0 0 1 0 0 0
POINTS 1141
DATA ascii
0.362057 0.20392001 0.78299999 4288256389
0.36421901 0.203944 0.78299999 4288519563
0.36778599 0.20475 0.78600001 4288387463
0.369488 0.204515 0.78500003 4287861119
0.372134 0.20480201 0.78600001 4286281314
0.37335899 0.204307 0.78399998 4286346845
0.375532 0.204335 0.78399998 4287267945
0.377226 0.20410299 0.78299999 4286807134
0.379401 0.20413201 0.78299999 4287201899
0.38206401 0.204422 0.78399998 4287530614
0.38424599 0.20445301 0.78399998 4287727992
0.38642901 0.204484 0.78399998 4287859822
0.38861501 0.20451599 0.78399998 4287465577
0.39130101 0.20480999 0.78500003 4288057968
0.392993 0.204583 0.78399998 4288123761
0.39518499 0.20461699 0.78399998 4287794796
0.39737901 0.20465299 0.78399998 4287202920
0.40008599 0.20495 0.78500003 4287466347
0.40177599 0.204726 0.78399998 4287860850
0.40397799 0.20476399 0.78399998 4287992691
0.405664 0.204542 0.78299999 4287597417
0.408389 0.204842 0.78399998 4287992175
0.41007501 0.204622 0.78299999 4287466347
0.41228399 0.20466299 0.78299999 4287334761
0.414496 0.204705 0.78299999 4286940264
0.41777501 0.205272 0.78500003 4286677096
0.42053401 0.205577 0.78600001 4283650121
0.422225 0.20536099 0.78500003 4284835163
0.424454 0.20540699 0.78500003 4287928708
0.42668599 0.20545501 0.78500003 4288323466
0.42946801 0.20576499 0.78600001 4288257158
0.43170899 0.205814 0.78600001 4288585868
0.433402 0.20560201 0.78500003 4288520075
0.435646 0.205654 0.78500003 4288322698
0.43900999 0.20623 0.787 4288191112
0.44126701 0.206283 0.787 4288586385
0.443528 0.206338 0.787 4288323213
0.445225 0.206131 0.78600001 4288192140
0.44749001 0.20618799 0.78600001 4288323212
0.44975901 0.206246 0.78600001 4288520591
0.45203099 0.206305 0.78600001 4288388744
0.45430699 0.206365 0.78600001 4288453768
0.456586 0.20642599 0.78600001 4288914321
0.46003801 0.20701399 0.78799999 4288651663
0.46174401 0.206815 0.787 4288586133
0.464039 0.20688 0.787 4288717971
0.46693 0.20721 0.78799999 4288520591
0.47042701 0.207803 0.79000002 4288388489
0.47214401 0.207609 0.78899997 4288454537
0.475063 0.20794301 0.79000002 4288585354
0.47738799 0.208014 0.79000002 4288322698
0.48093101 0.20861401 0.792 4288322698
0.48205101 0.208161 0.79000002 4288388491
0.483163 0.20771 0.78799999 4288191112
0.48550099 0.20778599 0.78799999 4287927940
0.49031901 0.20892 0.792 4288059524
0.49392301 0.209528 0.79400003 4287993731
0.49629301 0.209609 0.79400003 4288388489
0.49803999 0.209428 0.79299998 4288453770
-0.123247 0.128842 0.50099999 4289703592
0.0972974 0.128915 0.50099999 4286096843
0.100996 0.130193 0.50599998 4284978362
0.109035 0.13868 0.53899997 4284452018
0.148285 0.18369401 0.71399999 4290243835
0.153364 0.187548 0.72899997 4290243835
0.156607 0.18908501 0.73500001 4289980408
0.159666 0.190366 0.74000001 4290177787
0.162534 0.19138899 0.74400002 4290111994
0.16542301 0.192412 0.74800003 4290045950
0.16833299 0.193435 0.75199997 4289782010
0.170812 0.19394401 0.75400001 4289781757
0.173072 0.194196 0.755 4286096843
0.17487399 0.193933 0.75400001 4284912571
0.17690501 0.193928 0.75400001 4285964743
0.17941099 0.194437 0.75599998 4288992503
0.18216801 0.19520301 0.759 4291819263
0.185426 0.196483 0.764 4287670980
0.18821999 0.19724999 0.76700002 4287074967
0.190286 0.197245 0.76700002 4287335560
0.192352 0.19724 0.76700002 4287729287
0.19467101 0.197492 0.76800001 4287663233
0.19674 0.197487 0.76800001 4287531899
0.198809 0.197483 0.76800001 4287531899
0.201139 0.197735 0.76899999 4287202936
0.20321 0.197731 0.76899999 4287334522
0.206083 0.198498 0.77200001 4287136883
0.207623 0.19798 0.76999998 4287202676
0.20997 0.19823299 0.77100003 4287202920
0.212047 0.198229 0.77100003 4287400048
0.21440201 0.19848201 0.77200001 4287465073
0.21676201 0.198736 0.773 4287070316
0.21856201 0.198476 0.77200001 4287333234
0.220357 0.19821499 0.77100003 4287135855
0.22272301 0.19847 0.77200001 4287596660
0.225095 0.198724 0.773 4287596912
0.22747201 0.19897801 0.77399999 4287333738
0.229855 0.199233 0.77499998 4287465324
0.23194399 0.199231 0.77499998 4287728496
0.234034 0.199229 0.77499998 4287400048
0.235818 0.19897 0.77399999 4287268208
0.238213 0.19922601 0.77499998 4287334001
0.24030299 0.199224 0.77499998 4287334255
0.242706 0.199481 0.77600002 4287400048
0.24448401 0.199223 0.77499998 4287203175
0.246575 0.199222 0.77499998 4287399785
0.249308 0.199736 0.77700001 4287662957
0.251405 0.199736 0.77700001 4287466335
0.25350201 0.199736 0.77700001 4287794543
0.25560001 0.199737 0.77700001 4287465588
0.25803 0.199994 0.778 4287728759
0.260131 0.19999599 0.778 4287662966
0.26256901 0.20025399 0.77899998 4287663220
0.26467401 0.200256 0.77899998 4286807911
0.26643699 0.200001 0.778 4286939243
0.26853901 0.200003 0.778 4286347106
0.270643 0.20000599 0.778 4286346853
0.27274701 0.200008 0.778 4286149474
0.27485099 0.200012 0.778 4287400055
0.2766 0.19975799 0.77700001 4287860860
0.278703 0.199762 0.77700001 4287795067
0.28080601 0.19976699 0.77700001 4288189824
0.28290999 0.199771 0.77700001 4288190078
0.28538099 0.20003299 0.778 4287795319
0.28785899 0.200296 0.77899998 4287992698
0.28997001 0.200302 0.77899998 4288518529
0.29208201 0.200308 0.77899998 4288058231
0.294195 0.200314 0.77899998 4288189817
0.29668799 0.200579 0.77999997 4287400047
0.29918799 0.20084301 0.78100002 4287465334
0.30169499 0.20110799 0.78200001 4286215268
0.30342999 0.200859 0.78100002 4285821772
0.30476999 0.20035399 0.77899998 4287005027
0.30649301 0.20010599 0.778 4287333740
0.30900499 0.200372 0.77899998 4288123001
0.31112501 0.20038199 0.77899998 4288254842
0.313245 0.20039301 0.77899998 4287992185
0.315366 0.200404 0.77899998 4287859829
0.31789601 0.200672 0.77999997 4287794291
0.32002199 0.200684 0.77999997 4287729013
0.322561 0.20095401 0.78100002 4287136875
0.324276 0.20071 0.77999997 4288059004
0.32598701 0.20046601 0.77899998 4288256128
0.32811499 0.20048 0.77899998 4288519563
0.33066699 0.200752 0.77999997 4288520077
0.33237299 0.200509 0.77899998 4288454284
0.334075 0.200267 0.778 4288651410
0.33577201 0.20002601 0.77700001 4287993472
0.33833501 0.20029999 0.778 4288322437
0.34090501 0.20057499 0.77899998 4287730559
0.34348199 0.20085 0.77999997 4288322698
0.34606501 0.20112599 0.78100002 4288915349
0.34776399 0.20088799 0.77999997 4287928454
0.34945801 0.20065001 0.77899998 4288716942
0.352052 0.200927 0.77999997 4287926910
0.35465199 0.201206 0.78100002 4288190337
0.356803 0.20122699 0.78100002 4287992958
0.35803601 0.200734 0.77899998 4288321668
0.36018401 0.200757 0.77899998 4287927424
0.36233401 0.20078 0.77899998 4288519563
0.365421 0.20132001 0.78100002 4288651149
0.36663899 0.200829 0.77899998 4288058496
0.36879399 0.200855 0.77899998 4286216547
0.37047499 0.20062301 0.778 4286544738
0.372152 0.20039199 0.77700001 4286610783
0.37430701 0.20041899 0.77700001 4286939234
0.37646401 0.20044699 0.77700001 4287465064
0.37959799 0.200992 0.77899998 4287333992
0.38176501 0.201022 0.77899998 4287202144
0.384426 0.20131101 0.77999997 4288188787
0.38659999 0.201342 0.77999997 4287202406
0.388776 0.20137399 0.77999997 4287860335
0.39045301 0.201149 0.77899998 4287926382
0.39263001 0.20118199 0.77899998 4288255093
0.39531699 0.20147499 0.77999997 4287795057
0.396992 0.201252 0.77899998 4286742369
0.39968899 0.201547 0.77999997 4287860850
0.401364 0.201325 0.77899998 4287729264
0.404071 0.20162199 0.77999997 4287794796
0.406266 0.20166001 0.77999997 4287597416
0.408463 0.2017 0.77999997 4287729003
0.41066301 0.20174 0.77999997 4287136612
0.412866 0.201782 0.77999997 4287400815
0.41560301 0.20208301 0.78100002 4286874730
0.41888499 0.20264401 0.78299999 4286743150
0.42056599 0.202429 0.78200001 4282532398
0.423327 0.202733 0.78299999 4287204721
0.42500901 0.20252 0.78200001 4288323466
0.42723399 0.20256799 0.78200001 4287797121
0.429463 0.20261601 0.78200001 4288585868
0.43224701 0.202924 0.78299999 4288651147
0.43393001 0.20271499 0.78200001 4288848528
0.436726 0.203026 0.78299999 4288651149
0.438411 0.202819 0.78200001 4288454285
0.441219 0.20313101 0.78299999 4288389006
0.44347101 0.20318601 0.78299999 4288323212
0.44572601 0.20324101 0.78299999 4288322698
0.44798401 0.203298 0.78299999 4288322951
0.44967201 0.203096 0.78200001 4288124803
0.45251301 0.20341501 0.78299999 4288585356
0.45536301 0.20373499 0.78399998 4288520077
0.45880699 0.20431601 0.78600001 4288125580
0.46109399 0.20437799 0.78600001 4288126348
0.46279499 0.204182 0.78500003 4288586384
0.46567899 0.20450699 0.78600001 4288652177
0.468573 0.204834 0.787 4288454537
0.47027999 0.204641 0.78600001 4288388744
0.471986 0.204449 0.78500003 4288519561
0.47429499 0.204519 0.78500003 4288322698
0.47782299 0.205112 0.787 4288454798
0.48075601 0.20544501 0.78799999 4288257419
0.48308799 0.20552 0.78799999 4288257420
0.48542401 0.205595 0.78799999 4288454799
0.48838401 0.205933 0.78899997 4287533696
0.490733 0.206011 0.78899997 4288191626
0.49433601 0.206614 0.79100001 4287928454
0.497329 0.206956 0.792 4288191626
-0.148912 0.144521 0.56800002 4285164916
-0.12325 0.12749299 0.50099999 4289309603
0.105196 0.132392 0.51999998 4284780985
0.145383 0.17820799 0.69999999 4290178042
0.152318 0.184313 0.72399998 4290178042
0.15576001 0.18608899 0.73100001 4290177787
0.158593 0.18710101 0.73500001 4290046201
0.161447 0.188114 0.73900002 4290046203
0.164101 0.18887199 0.74199998 4289980155
0.166996 0.18988401 0.74599999 4289848317
0.169458 0.190387 0.74800003 4289584125
0.171932 0.190891 0.75 4287873508
0.17418399 0.19114 0.75099999 4284452020
0.176442 0.191388 0.75199997 4285044155
0.17894199 0.191892 0.75400001 4286294990
0.181693 0.19265001 0.75700003 4291622143
0.18446 0.193408 0.75999999 4290238450
0.18675201 0.193657 0.76099998 4286088351
0.18905 0.19390699 0.76200002 4287532170
0.19135299 0.19415601 0.76300001 4287597955
0.193662 0.194406 0.764 4287335036
0.19572 0.194401 0.764 4287598208
0.198037 0.19464999 0.76499999 4287597692
0.20009699 0.194646 0.76499999 4287597694
0.20242199 0.194896 0.76599997 4287466108
0.205286 0.195655 0.76899999 4287465849
0.207358 0.19565099 0.76899999 4287794299
0.209157 0.195392 0.76800001 4287991932
0.210951 0.195134 0.76700002 4287662966
0.213295 0.195384 0.76800001 4287794553
0.21592499 0.19588999 0.76999998 4287596920
0.21771599 0.195632 0.76899999 4287596414
0.219788 0.195628 0.76899999 4287596667
0.22186001 0.19562501 0.76899999 4287597174
0.22451501 0.19613101 0.77100003 4287465587
0.226887 0.196383 0.77200001 4287334255
0.22926401 0.19663499 0.773 4287663219
0.231048 0.19637799 0.77200001 4287465840
0.233431 0.19663 0.773 4287202669
0.235516 0.196628 0.773 4287465841
0.238214 0.197135 0.77499998 4287597427
0.239994 0.19688 0.77399999 4287400048
0.242082 0.196878 0.77399999 4287465840
0.243854 0.196623 0.773 4287268715
0.245939 0.196622 0.773 4287268713
0.248346 0.196876 0.77399999 4287466851
0.25043401 0.196876 0.77399999 4287401311
0.252197 0.196621 0.773 4287268461
0.25428399 0.196622 0.773 4287465587
0.25670201 0.196877 0.77399999 4287136622
0.25912699 0.19713201 0.77499998 4287465841
0.26155701 0.19738699 0.77600002 4287005289
0.26365301 0.19738901 0.77600002 4287465840
0.26574999 0.197391 0.77600002 4287531633
0.26750201 0.197138 0.77499998 4287531633
0.26994401 0.197395 0.77600002 4287794552
0.271341 0.196889 0.77399999 4287662967
0.273435 0.19689199 0.77399999 4287597174
0.27552801 0.196895 0.77399999 4287399795
0.277623 0.196899 0.77399999 4287466102
0.279717 0.19690301 0.77399999 4287531895
0.282177 0.197162 0.77499998 4287597941
0.28427601 0.197166 0.77499998 4287729527
0.28674501 0.19742601 0.77600002 4287795320
0.288847 0.197431 0.77600002 4288387194
0.29132599 0.19769201 0.77700001 4288255608
0.29381001 0.197952 0.778 4288058229
0.295921 0.19795901 0.778 4287926392
0.29803199 0.19796599 0.778 4287794805
0.300529 0.198228 0.77899998 4287466354
0.30225599 0.197982 0.778 4287335022
0.303978 0.197735 0.77700001 4286150748
0.30609 0.197744 0.77700001 4285624150
0.30780599 0.19749901 0.77600002 4285952348
0.310316 0.197763 0.77700001 4286675818
0.31202799 0.197519 0.77600002 4287268462
0.31413999 0.197529 0.77600002 4287530864
0.31666201 0.197795 0.77700001 4287794299
0.31877899 0.197806 0.77700001 4287663471
0.32089701 0.197818 0.77700001 4286808417
0.32301599 0.197831 0.77700001 4287532656
0.324718 0.197589 0.77600002 4288190588
0.326837 0.197603 0.77600002 4288190606
0.32895699 0.19761699 0.77600002 4288323212
0.33107799 0.197631 0.77600002 4288389005
0.332771 0.197392 0.77499998 4288257419
0.33445999 0.197152 0.77399999 4288059012
0.33701399 0.197423 0.77499998 4288453768
0.33957499 0.197695 0.77600002 4287730047
0.34126201 0.197457 0.77499998 4288124805
0.34338799 0.197475 0.77499998 4288914321
0.345961 0.19774801 0.77600002 4288191110
0.348093 0.197767 0.77600002 4289177746
0.351129 0.19829699 0.778 4288716679
0.352815 0.198062 0.77700001 4287795832
0.35541099 0.198338 0.778 4287927163
0.35709399 0.19810501 0.77700001 4288453768
0.359236 0.198127 0.77700001 4288125058
0.36091501 0.19789401 0.77600002 4288585354
0.363058 0.197918 0.77600002 4288387975
0.36520201 0.197942 0.77600002 4288387716
0.36782199 0.198222 0.77700001 4287663993
0.369973 0.198247 0.77700001 4286282080
0.37164599 0.198018 0.77600002 4286216025
0.37379801 0.198045 0.77600002 4286807648
0.37595201 0.198073 0.77600002 4286938719
0.37810701 0.198101 0.77600002 4287267684
0.38075501 0.198386 0.77700001 4287530856
0.38291699 0.198415 0.77700001 4287859821
0.38557699 0.19870099 0.778 4287465578
0.38724899 0.198477 0.77700001 4287399785
0.38891599 0.198254 0.77600002 4287991922
0.39158899 0.198542 0.77700001 4287860850
0.39376199 0.198576 0.77700001 4287860850
0.39593801 0.19860999 0.77700001 4287268713
0.39811599 0.19864599 0.77700001 4287005541
0.400296 0.198682 0.77700001 4287860850
0.40247899 0.19871899 0.77700001 4288123761
0.40518501 0.199012 0.778 4288189039
0.40685299 0.19879501 0.77700001 4287794282
0.40904301 0.198835 0.77700001 4288057454
0.411237 0.198875 0.77700001 4287399785
0.41343299 0.198917 0.77700001 4287137127
0.41616601 0.19921499 0.778 4286742883
0.417833 0.199002 0.77700001 4282926398
0.420578 0.199302 0.778 4286019439
0.42333201 0.199604 0.77899998 4288125833
0.42554799 0.19965 0.77899998 4288257933
0.42776799 0.199697 0.77899998 4288586384
0.42943799 0.199489 0.778 4288652177
0.43166101 0.19953801 0.778 4288520077
0.433887 0.199588 0.778 4288520078
0.43667701 0.19989499 0.77899998 4288652178
0.43834901 0.199691 0.778 4288520591
0.44115099 0.200001 0.77899998 4288783763
0.44339299 0.200055 0.77899998 4288717456
0.44621101 0.200367 0.77999997 4288191110
0.447889 0.200167 0.77899998 4288388489
0.451298 0.200739 0.78100002 4288585870
0.454142 0.20105501 0.78200001 4288323212
0.45699501 0.201372 0.78299999 4288257166
0.45927101 0.201433 0.78299999 4288454799
0.46155199 0.20149601 0.78299999 4288323212
0.46324399 0.20130201 0.78200001 4288454798
0.46672001 0.201882 0.78399998 4288060040
0.46781999 0.201433 0.78200001 4288125833
0.47011399 0.2015 0.78200001 4287928454
0.471205 0.20105299 0.77999997 4288126347
0.47532299 0.201897 0.78299999 4288455312
0.47824299 0.202226 0.78399998 4288257419
0.48178801 0.202814 0.78600001 4288060301
0.48411599 0.202889 0.78600001 4288257682
0.48583099 0.20270599 0.78500003 4287994248
0.48816699 0.202783 0.78500003 4288060040
0.49175701 0.20337801 0.787 4287928454
0.49410799 0.203457 0.787 4288125833
0.497096 0.203797 0.78799999 4288125833
0.499461 0.20388 0.78799999 4288521105
-0.120395 0.127413 0.50599998 4288848797
0.102368 0.12746599 0.50599998 4285109950
0.149378 0.178838 0.70999998 4289981177
0.153635 0.181603 0.72100002 4290112763
0.156657 0.18285599 0.72600001 4290046715
0.159924 0.184361 0.73199999 4290111994
0.162559 0.185111 0.73500001 4290046203
0.165658 0.18636499 0.74000001 4289914110
0.16810501 0.18686301 0.74199998 4289519353
0.171021 0.18786401 0.74599999 4289452793
0.173262 0.18810999 0.74699998 4284452020
0.175743 0.18860801 0.74900001 4285109950
0.17799801 0.18885501 0.75 4285767880
0.180978 0.18985599 0.75400001 4288663538
0.183495 0.190355 0.75599998 4291490559
0.185776 0.19060101 0.75700003 4286683059
0.187815 0.190596 0.75700003 4287008660
0.19010501 0.190842 0.75800002 4287402374
0.19239999 0.191089 0.759 4287271301
0.194956 0.191588 0.76099998 4287402374
0.197006 0.19158299 0.76099998 4287401343
0.19931699 0.19182999 0.76200002 4286940792
0.201634 0.192077 0.76300001 4287202682
0.20422301 0.19257601 0.76499999 4287465854
0.206283 0.192572 0.76499999 4287268729
0.208344 0.19256701 0.76499999 4287663485
0.21012899 0.192312 0.764 4287202934
0.21218801 0.19230799 0.764 4287203189
0.214526 0.19255599 0.76499999 4287137396
0.21658701 0.192552 0.76499999 4287597694
0.218648 0.19254901 0.76499999 4287268727
0.220709 0.192546 0.76499999 4287268982
0.223353 0.193046 0.76700002 4287466361
0.22542 0.19304299 0.76700002 4287400309
0.22778399 0.19329201 0.76800001 4287466101
0.229554 0.193038 0.76700002 4287597427
0.231924 0.193287 0.76800001 4287465840
0.23399401 0.193285 0.76800001 4287663219
0.236679 0.19378699 0.76999998 4287663220
0.23906501 0.19403701 0.77100003 4287729527
0.241145 0.19403499 0.77100003 4287400562
0.24259301 0.19353101 0.76899999 4287597427
0.24466699 0.19352999 0.76899999 4287597427
0.247063 0.193781 0.76999998 4287860598
0.24913999 0.19378 0.76999998 4287728750
0.25121799 0.19378 0.76999998 4287465326
0.25329599 0.19378 0.76999998 4287399531
0.255043 0.19352899 0.76899999 4287465324
0.25745401 0.193781 0.76999998 4287728496
0.260207 0.194286 0.77200001 4287925875
0.26263201 0.194538 0.773 4287729266
0.26471999 0.19453999 0.773 4287335022
0.26646399 0.19429 0.77200001 4287532401
0.26889801 0.194544 0.773 4287532147
0.269936 0.193791 0.76999998 4287334768
0.27237201 0.19404601 0.77100003 4287663219
0.27410099 0.19379701 0.76999998 4287400301
0.27726001 0.194555 0.773 4287597680
0.27935201 0.19455899 0.773 4287663219
0.281809 0.19481499 0.77399999 4287334769
0.283537 0.19456799 0.773 4287268722
0.286001 0.194824 0.77399999 4287334254
0.287725 0.19457801 0.773 4287663219
0.28981999 0.194583 0.773 4287203677
0.292294 0.194841 0.77399999 4287466092
0.294393 0.194847 0.77399999 4287531633
0.29649201 0.19485401 0.77399999 4287597426
0.29897901 0.195113 0.77499998 4287203183
0.301083 0.19512101 0.77499998 4287334768
0.30279601 0.194877 0.77399999 4287334768
0.30450499 0.19463301 0.773 4287137390
0.30700299 0.194894 0.77399999 4286807657
0.30910799 0.194903 0.77399999 4286478429
0.310812 0.19466101 0.773 4286544476
0.31291601 0.19467101 0.773 4286413659
0.31542799 0.194934 0.77399999 4287400554
0.317536 0.19494499 0.77399999 4287795824
0.319233 0.19470499 0.773 4287466859
0.320925 0.194465 0.77200001 4286941531
0.32303101 0.19447701 0.77200001 4287993462
0.32556 0.19474199 0.773 4288387977
0.32767099 0.194756 0.773 4288322698
0.329357 0.194518 0.77200001 4288257419
0.331038 0.19428 0.77100003 4288125833
0.333148 0.194295 0.77100003 4288387977
0.335693 0.194563 0.77200001 4288124298
0.33868301 0.19508301 0.77399999 4287993219
0.34080401 0.19509999 0.77399999 4287598975
0.342484 0.194865 0.773 4288848526
0.34505099 0.195135 0.77399999 4288257156
0.347177 0.195154 0.77399999 4288585609
0.350207 0.195677 0.77600002 4289177230
0.35188699 0.195445 0.77499998 4288585093
0.35310599 0.194961 0.773 4288124803
0.35477501 0.19473 0.77200001 4288059012
0.35736501 0.195003 0.773 4288322698
0.35949701 0.195026 0.773 4288322699
0.36116299 0.194796 0.77200001 4288256905
0.36282501 0.19456699 0.77100003 4288453254
0.364957 0.194591 0.77100003 4287861364
0.36804301 0.19512101 0.773 4286610783
0.37018299 0.19514599 0.773 4286676576
0.37232599 0.195172 0.773 4287136099
0.37398601 0.194947 0.77200001 4286938719
0.37613001 0.19497401 0.77200001 4287201891
0.37827599 0.195003 0.77200001 4287794028
0.380916 0.19528399 0.773 4287530856
0.38356501 0.195567 0.77399999 4287465578
0.38522401 0.195345 0.773 4287597164
0.38688001 0.195123 0.77200001 4287859822
0.389036 0.19515499 0.77200001 4288123508
0.39170101 0.19544099 0.773 4287795057
0.39386499 0.195474 0.773 4287926128
0.396543 0.19576199 0.77399999 4287268713
0.39871499 0.195797 0.77399999 4286544990
0.400888 0.195833 0.77399999 4287860589
0.40306401 0.19587 0.77399999 4288254833
0.40524301 0.195908 0.77399999 4287926382
0.40742499 0.19594701 0.77399999 4288122993
0.41013801 0.19623899 0.77499998 4287728750
0.41285899 0.19653299 0.77600002 4286873955
0.41451901 0.196321 0.77499998 4286611297
0.416177 0.19611 0.77399999 4285689948
0.41891301 0.19640701 0.77499998 4282465850
0.42056999 0.196197 0.77399999 4287796868
0.42277101 0.196242 0.77399999 4287928968
0.42442599 0.196035 0.773 4288191626
0.42773399 0.19658899 0.77499998 4288717456
0.430502 0.19689099 0.77600002 4288717970
0.43327901 0.197194 0.77700001 4288717456
0.434944 0.19699 0.77600002 4288980628
0.43717 0.197041 0.77600002 4288783764
0.439399 0.197093 0.77600002 4288454799
0.44106299 0.19689199 0.77499998 4288125833
0.44386801 0.1972 0.77600002 4288652177
0.44668299 0.19751 0.77700001 4288717970
0.449507 0.19782101 0.778 4288389005
0.45175999 0.197878 0.778 4288454798
0.45401701 0.197937 0.778 4288783250
0.456278 0.197997 0.778 4288257420
0.45854199 0.19805799 0.778 4288586384
0.46140301 0.198375 0.77899998 4288257419
0.46367899 0.198438 0.77899998 4288060554
0.465361 0.198248 0.778 4288323726
0.46704099 0.19805899 0.77700001 4288323726
0.46871999 0.197871 0.77600002 4288455312
0.47221801 0.19845 0.778 4288520591
0.47634199 0.199285 0.78100002 4288454798
0.47865 0.199356 0.78100002 4288388752
0.48096299 0.19942801 0.78100002 4288257166
0.48266199 0.199247 0.77999997 4288257166
0.484981 0.199322 0.77999997 4288257419
0.48793 0.199654 0.78100002 4288191626
0.49089 0.19998699 0.78200001 4288060040
0.49386099 0.200323 0.78299999 4288520591
0.49621001 0.200404 0.78299999 4288389005
0.49983701 0.20099799 0.78500003 4288323726
-0.156276 0.146936 0.58999997 4288060050
0.107631 0.130835 0.52499998 4284255155
0.146018 0.17294 0.69400001 4290046970
0.151723 0.17741901 0.71200001 4289981177
0.15515199 0.179158 0.71899998 4290112508
0.1584 0.180647 0.72500002 4290111994
0.161017 0.181389 0.72799999 4290111996
0.163873 0.18237901 0.73199999 4289980157
0.166751 0.18336999 0.736 4289914110
0.169651 0.184361 0.74000001 4289453054
0.17210799 0.184854 0.74199998 4287676389
0.17481001 0.18559501 0.745 4284255155
0.17752901 0.18633699 0.74800003 4285504708
0.180264 0.187079 0.75099999 4286557908
0.182529 0.18732201 0.75199997 4291163647
0.184554 0.187317 0.75199997 4290107637
0.187076 0.18781 0.75400001 4281748584
0.189357 0.188054 0.755 4283324501
0.191644 0.188298 0.75599998 4284771429
0.19393601 0.18854199 0.75700003 4285494637
0.196493 0.189035 0.759 4286414964
0.19853701 0.18903001 0.759 4287006587
0.200581 0.189025 0.759 4286939511
0.20262501 0.18902101 0.759 4287663234
0.20493899 0.189265 0.75999999 4288123785
0.207259 0.18951 0.76099998 4288255885
0.209583 0.18975499 0.76200002 4288255884
0.21163601 0.189751 0.76200002 4287598206
0.213689 0.18974701 0.76200002 4287532413
0.21545801 0.189494 0.76099998 4287466622
0.21808 0.189989 0.76300001 4287532415
0.21984699 0.18973599 0.76200002 4287071862
0.22219101 0.189982 0.76300001 4287203448
0.22454099 0.190228 0.764 4287203189
0.226896 0.190474 0.76499999 4286874222
0.228958 0.19047201 0.76499999 4286940268
0.23102 0.190469 0.76499999 4287006316
0.233082 0.190467 0.76499999 4287203440
0.235452 0.190714 0.76599997 4287335026
0.237827 0.190961 0.76700002 4287269235
0.239895 0.19096 0.76700002 4287334515
0.241963 0.19095799 0.76700002 4287334515
0.24435 0.19120599 0.76800001 4287005803
0.24642199 0.19120499 0.76800001 4287005543
0.248494 0.19120499 0.76800001 4287137127
0.25056601 0.191204 0.76800001 4287531371
0.25263801 0.191204 0.76800001 4287794543
0.25437999 0.190955 0.76700002 4287399785
0.25645 0.190956 0.76700002 4287663471
0.258858 0.19120499 0.76800001 4287400299
0.26127201 0.19145501 0.76899999 4287860852
0.26369199 0.191706 0.76999998 4287663473
0.26577201 0.191707 0.76999998 4287400299
0.26785299 0.191709 0.76999998 4287663473
0.26923299 0.191213 0.76800001 4287729266
0.271662 0.19146501 0.76899999 4287597678
0.27374199 0.191468 0.76899999 4287531885
0.276539 0.19196901 0.77100003 4287202920
0.27862501 0.191972 0.77100003 4287729264
0.28071201 0.191976 0.77100003 4287729012
0.282433 0.19173101 0.76999998 4287400308
0.284518 0.191736 0.76999998 4287530876
0.286603 0.191741 0.76999998 4287464569
0.289065 0.19199499 0.77100003 4287661948
0.29115501 0.192 0.77100003 4287793532
0.29324499 0.19200701 0.77100003 4287333234
0.29495299 0.191764 0.76999998 4287334255
0.29781401 0.192269 0.77200001 4287072109
0.29991001 0.192276 0.77200001 4287269488
0.30239701 0.192533 0.773 4287401074
0.303709 0.19204301 0.77100003 4287203440
0.30620101 0.19230001 0.77200001 4287203182
0.30829999 0.19230901 0.77200001 4287465071
0.31040001 0.19231801 0.77200001 4287531371
0.312096 0.19207899 0.77100003 4287204185
0.31378701 0.19183999 0.76999998 4287400813
0.315474 0.19160201 0.76899999 4287400813
0.31798199 0.191862 0.76999998 4287400813
0.32008201 0.191874 0.76999998 4286874469
0.32260001 0.19213501 0.77100003 4287664244
0.324705 0.192148 0.77100003 4288190337
0.326386 0.191911 0.76999998 4288190596
0.32806301 0.19167601 0.76899999 4288454798
0.32973599 0.191441 0.76800001 4288257420
0.332268 0.191705 0.76899999 4287994247
0.334373 0.19171999 0.76899999 4288125317
0.33647901 0.191735 0.76899999 4287664766
0.339026 0.192001 0.76999998 4287468147
0.34069499 0.19176801 0.76899999 4288388742
0.343696 0.192285 0.77100003 4287993725
0.34581301 0.192303 0.77100003 4287797112
0.34883401 0.19282 0.773 4288782986
0.35005099 0.19234 0.77100003 4288716435
0.351715 0.192111 0.76999998 4288256652
0.35337499 0.191881 0.76899999 4288191113
0.356419 0.19240101 0.77100003 4288454285
0.35901001 0.192673 0.77200001 4288059527
0.360672 0.192445 0.77100003 4287006838
0.362331 0.19221801 0.76999998 4288255877
0.36398599 0.191992 0.76899999 4288453250
0.367066 0.192516 0.77100003 4286611045
0.36919999 0.192541 0.77100003 4286478683
0.370855 0.19231699 0.76999998 4287267685
0.37250599 0.192093 0.76899999 4287201891
0.375128 0.19237 0.76999998 4287004512
0.377758 0.192647 0.77100003 4287399270
0.37990201 0.19267499 0.77100003 4287662443
0.38204801 0.19270501 0.77100003 4287859822
0.384197 0.192734 0.77100003 4287333992
0.386347 0.192765 0.77100003 4287925615
0.38900399 0.193046 0.77200001 4288189301
0.39116201 0.193078 0.77200001 4287926129
0.39332199 0.193111 0.77200001 4288123507
0.394972 0.192895 0.77100003 4287728750
0.39713401 0.192929 0.77100003 4286347097
0.39877999 0.19271401 0.76999998 4287005027
0.401465 0.193001 0.77100003 4287926129
0.403635 0.193038 0.77100003 4287991922
0.40580699 0.193076 0.77100003 4287334497
0.40798101 0.193114 0.77100003 4287597417
0.41122299 0.193655 0.773 4287202405
0.41287401 0.193445 0.77200001 4287070819
0.41452199 0.193235 0.77100003 4286611550
0.41616699 0.193027 0.76999998 4283716666
0.41889599 0.193321 0.77100003 4284901715
0.42054099 0.193114 0.76999998 4287468156
0.42273301 0.193159 0.76999998 4287928193
0.42492801 0.193205 0.76999998 4288059263
0.42767999 0.19350301 0.77100003 4287862145
0.43099999 0.19405299 0.773 4288256644
0.43321201 0.194102 0.773 4288387722
0.43542901 0.194151 0.773 4288059524
0.43708199 0.193951 0.77200001 4288256905
0.43873301 0.19375201 0.77100003 4288191626
0.441526 0.194056 0.77200001 4288586384
0.44432801 0.194362 0.773 4288586384
0.44771701 0.19492 0.77499998 4288388744
0.44938001 0.19472501 0.77399999 4288388491
0.45220801 0.195034 0.77499998 4288848273
0.454458 0.19509301 0.77499998 4288519308
0.45612401 0.194901 0.77399999 4288914835
0.459564 0.195465 0.77600002 4288849557
0.46182999 0.195528 0.77600002 4288126347
0.4641 0.195591 0.77600002 4288192140
0.46577299 0.19540299 0.77499998 4288258187
0.46865299 0.195721 0.77600002 4288323970
0.47215 0.196293 0.778 4288652177
0.47444299 0.196362 0.778 4288585870
0.47612801 0.196179 0.77700001 4288389006
0.47842801 0.19625001 0.77700001 4288257166
0.48135099 0.196575 0.778 4288059787
0.48304099 0.19639499 0.77700001 4288652178
0.48535499 0.19647001 0.77700001 4288586385
0.487046 0.19629399 0.77600002 4288520592
0.48936701 0.196371 0.77600002 4288454798
0.492327 0.196703 0.77700001 4288389006
0.497208 0.197797 0.78100002 4288191626
-0.17954201 0.165297 0.671 4289177503
-0.149922 0.13943399 0.56599998 4286612351
-0.138173 0.12983 0.52700001 4289374627
0.104355 0.125477 0.509 4284913085
0.125044 0.148399 0.602 4290046203
0.143288 0.167867 0.68099999 4290178042
0.150664 0.17427 0.70700002 4290178042
0.153863 0.175743 0.713 4290111994
0.157095 0.17721599 0.71899998 4290111994
0.160138 0.178443 0.72399998 4290046203
0.16320699 0.17966899 0.72899997 4289914617
0.166077 0.180649 0.73299998 4289914364
0.16919801 0.181876 0.73799998 4289584892
0.171882 0.18260901 0.741 4289058296
0.174347 0.18309601 0.74299997 4284715706
0.176585 0.183337 0.74400002 4284913085
0.178829 0.183578 0.745 4286228943
0.181321 0.184065 0.74699998 4289782271
0.183823 0.184553 0.74900001 4291097343
0.18633699 0.18504 0.75099999 4285897908
0.18861 0.18528099 0.75199997 4287534234
0.19114199 0.18576901 0.75400001 4286612614
0.19342899 0.18601 0.755 4286349432
0.19598 0.186498 0.75700003 4286678136
0.19828001 0.186739 0.75800002 4285953897
0.200057 0.186488 0.75700003 4285097820
0.201829 0.18623701 0.75599998 4284308305
0.204135 0.186479 0.75700003 4284044376
0.206991 0.187213 0.75999999 4283518032
0.20931201 0.187455 0.76099998 4283256384
0.21164 0.18769801 0.76200002 4283585603
0.21369199 0.187694 0.76200002 4282730293
0.216028 0.18793599 0.76300001 4283256123
0.21779799 0.187686 0.76200002 4282729779
0.21956199 0.187436 0.76099998 4282992437
0.22103 0.18694 0.759 4283650367
0.223369 0.18718299 0.75999999 4284834641
0.225416 0.187181 0.75999999 4285624157
0.227764 0.187424 0.76099998 4286018913
0.22951201 0.18717501 0.75999999 4286676843
0.23125599 0.18692701 0.759 4287400566
0.233302 0.186924 0.759 4287268982
0.235658 0.187169 0.75999999 4287400568
0.237707 0.187167 0.75999999 4287005810
0.24038699 0.187658 0.76200002 4287203189
0.24276 0.187903 0.76300001 4287137394
0.244818 0.187902 0.76300001 4287531894
0.246876 0.18790101 0.76300001 4287532401
0.24926101 0.18814699 0.764 4287138147
0.25132301 0.18814699 0.764 4287401070
0.25305301 0.18790001 0.76300001 4287532658
0.255447 0.18814699 0.764 4287401072
0.257846 0.188393 0.76499999 4287203693
0.260252 0.18864 0.76599997 4286940523
0.261978 0.18839499 0.76499999 4287268713
0.264045 0.18839701 0.76499999 4287203434
0.26645899 0.18864401 0.76599997 4287203436
0.268179 0.1884 0.76499999 4287531885
0.270953 0.188895 0.76700002 4287466092
0.273027 0.188897 0.76700002 4287466092
0.27546 0.189147 0.76800001 4287202920
0.277538 0.18915001 0.76800001 4287531885
0.27925199 0.188907 0.76700002 4287400813
0.28096101 0.188665 0.76599997 4287532147
0.28303501 0.188669 0.76599997 4287662209
0.28548199 0.18892001 0.76700002 4287530107
0.28793499 0.189171 0.76800001 4287464569
0.28963801 0.18893 0.76700002 4287332981
0.29171801 0.188936 0.76700002 4287399017
0.293798 0.188942 0.76700002 4287202152
0.29626399 0.18919501 0.76800001 4287071596
0.29834899 0.189202 0.76800001 4287400815
0.30043399 0.189209 0.76800001 4287466354
0.30291301 0.189463 0.76899999 4287005804
0.30500299 0.18947101 0.76899999 4287465587
0.306694 0.18923301 0.76800001 4287531127
0.30878201 0.18924201 0.76800001 4287268715
0.310467 0.189005 0.76700002 4287794552
0.312962 0.189261 0.76800001 4287531641
0.31423301 0.188779 0.76599997 4287071090
0.31631899 0.18878999 0.76599997 4287597687
0.317992 0.188554 0.76499999 4286413667
0.32049599 0.188812 0.76599997 4287861370
0.322586 0.188825 0.76599997 4288519049
0.32467699 0.18883701 0.76599997 4288191112
0.326343 0.188604 0.76499999 4288191627
0.32843399 0.188618 0.76499999 4287665797
0.33052599 0.188632 0.76499999 4287862661
0.33305299 0.18889301 0.76599997 4287993731
0.33515099 0.188908 0.76599997 4287401594
0.33768901 0.189171 0.76700002 4287730814
0.33979201 0.18918701 0.76700002 4288388228
0.34234101 0.18945 0.76800001 4287993470
0.34444901 0.189468 0.76800001 4287730551
0.34700999 0.189733 0.76899999 4288519056
0.34866899 0.189505 0.76800001 4289045147
0.35032499 0.18927699 0.76700002 4287993480
0.35151699 0.188803 0.76499999 4288191113
0.35454899 0.189317 0.76700002 4288519563
0.35712799 0.189585 0.76800001 4288124805
0.359247 0.18960699 0.76800001 4288124550
0.359956 0.188888 0.76499999 4288321931
0.36159599 0.188664 0.764 4288255875
0.36513701 0.189428 0.76700002 4287663734
0.36726001 0.18945301 0.76700002 4286938980
0.36890301 0.18923 0.76599997 4287070306
0.37102699 0.189256 0.76599997 4287332964
0.374127 0.189776 0.76800001 4287201892
0.37674999 0.19005001 0.76899999 4286872927
0.37888801 0.19007801 0.76899999 4287465064
0.38053301 0.189859 0.76800001 4287859822
0.38267201 0.189888 0.76800001 4287399271
0.38481301 0.189918 0.76800001 4287727722
0.38746101 0.19019599 0.76899999 4288254066
0.389103 0.18998 0.76800001 4286478683
0.390742 0.18976501 0.76700002 4287860335
0.39288899 0.189798 0.76700002 4287926129
0.39503899 0.189831 0.76700002 4287202406
0.397192 0.18986601 0.76700002 4285754960
0.399867 0.19014899 0.76800001 4286938980
0.40150401 0.189937 0.76700002 4287991668
0.40419 0.190222 0.76800001 4288057715
0.40635499 0.19025899 0.76800001 4287662957
0.40905499 0.19054601 0.76899999 4287531371
0.41122901 0.190585 0.76899999 4287268198
0.413405 0.190626 0.76899999 4286809182
0.41504401 0.190419 0.76800001 4285822042
0.41722301 0.19046099 0.76800001 4282795572
0.418859 0.190256 0.76700002 4288256903
0.42104101 0.1903 0.76700002 4287599228
0.423778 0.190593 0.76800001 4288190590
0.42652401 0.190887 0.76899999 4287927418
0.429279 0.191183 0.76999998 4288190841
0.430922 0.190982 0.76899999 4287993209
0.43425199 0.19152801 0.77100003 4288058749
0.43476701 0.190832 0.76800001 4287927679
0.437543 0.19113199 0.76899999 4287664252
0.43975699 0.191184 0.76899999 4287927426
0.441975 0.191237 0.76899999 4287795840
0.444774 0.191539 0.76999998 4287861633
0.44758201 0.191843 0.77100003 4287926912
0.44981599 0.1919 0.77100003 4287861117
0.45205399 0.191957 0.77100003 4287861119
0.45370701 0.19176599 0.76999998 4288059012
0.45654199 0.192075 0.77100003 4288125319
0.45938799 0.192385 0.77200001 4287731075
0.46224299 0.19269601 0.773 4287994500
0.46390599 0.19250999 0.77200001 4288191363
0.46677601 0.19282401 0.773 4288322949
0.46965501 0.193139 0.77399999 4288585868
0.471935 0.193206 0.77399999 4288782733
0.47299501 0.192775 0.77200001 4288585364
0.47527799 0.192844 0.77200001 4288388492
0.478185 0.193165 0.773 4288585870
0.480481 0.19323701 0.773 4288651663
0.48215699 0.19306 0.77200001 4288717971
0.48508701 0.193385 0.773 4288717971
0.487398 0.193461 0.773 4288586385
0.49098101 0.194039 0.77499998 4288257420
0.49458101 0.194619 0.77700001 4288454798
0.498198 0.1952 0.77899998 4288191113
-0.12847701 0.124525 0.51099998 4288848536
0.103334 0.122888 0.50400001 4285176257
0.118194 0.138732 0.56900001 4289980155
0.142452 0.165059 0.67699999 4290112249
0.151309 0.173099 0.70999998 4290243835
0.154732 0.174799 0.71700001 4290112249
0.157538 0.175768 0.72100002 4290243580
0.160807 0.17722499 0.727 4290177787
0.16343699 0.17794999 0.73000002 4290111996
0.16608299 0.17867599 0.73299998 4290045948
0.168745 0.179401 0.736 4289979903
0.171424 0.18012699 0.73900002 4289189881
0.17388301 0.180608 0.741 4288333805
0.175879 0.180603 0.741 4284847292
0.177874 0.18059701 0.741 4285242050
0.18059801 0.18132199 0.74400002 4287874021
0.18284699 0.18156099 0.745 4291688959
0.185598 0.18228599 0.74800003 4289450214
0.18786301 0.18252499 0.74900001 4287337625
0.190387 0.183007 0.75099999 4287862418
0.192922 0.18348899 0.75300002 4287796615
0.195467 0.183971 0.755 4287598724
0.19750001 0.183966 0.755 4287861126
0.19900499 0.183474 0.75300002 4287466368
0.200499 0.182982 0.75099999 4287268989
0.203061 0.183465 0.75300002 4287861126
0.20617799 0.184435 0.75700003 4287729540
0.208767 0.184917 0.759 4287795585
0.210811 0.18491299 0.759 4287203703
0.213135 0.18515299 0.75999999 4288124805
0.21546599 0.18539201 0.76099998 4287795840
0.21723001 0.18514501 0.75999999 4288255877
0.218988 0.184898 0.759 4288387463
0.220742 0.184651 0.75800002 4288058496
0.223078 0.184891 0.759 4287597945
0.225419 0.185132 0.75999999 4287334773
0.22776601 0.18537199 0.76099998 4287203189
0.229817 0.18537 0.76099998 4286874222
0.231868 0.185367 0.76099998 4285821534
0.233611 0.185121 0.75999999 4284308042
0.23597001 0.18536299 0.76099998 4283583814
0.238022 0.185361 0.76099998 4283781193
0.240704 0.185846 0.76300001 4283649854
0.242762 0.185845 0.76300001 4283452476
0.24514 0.186087 0.764 4283518269
0.246877 0.18584201 0.76300001 4283650614
0.248935 0.18584201 0.76300001 4283584821
0.250994 0.18584099 0.76300001 4286940264
0.25272101 0.185597 0.76200002 4287861364
0.254778 0.185597 0.76200002 4287795830
0.25649801 0.18535399 0.76099998 4287664244
0.25855201 0.18535499 0.76099998 4287598198
0.260607 0.18535601 0.76099998 4287729784
0.26266301 0.185357 0.76099998 4287137647
0.264718 0.185358 0.76099998 4287335028
0.26677501 0.18536 0.76099998 4287335026
0.26918501 0.185605 0.76200002 4287335281
0.27160099 0.18585099 0.76300001 4287401074
0.273664 0.185854 0.76300001 4287269488
0.27572799 0.185857 0.76300001 4287466867
0.277064 0.18537299 0.76099998 4287072105
0.27912301 0.185377 0.76099998 4287400821
0.281183 0.185381 0.76099998 4287334773
0.283988 0.185872 0.76300001 4286874475
0.286055 0.185877 0.76300001 4286874475
0.28812301 0.185882 0.76300001 4286940010
0.29019099 0.18588699 0.76300001 4287137643
0.29264301 0.18613601 0.764 4286742885
0.29510099 0.186386 0.76499999 4286874726
0.297176 0.18639299 0.76499999 4287137898
0.29925299 0.1864 0.76499999 4286940519
0.30172399 0.18665101 0.76599997 4286940519
0.30380499 0.18665899 0.76599997 4287137390
0.30548701 0.186423 0.76499999 4287335020
0.307165 0.186188 0.764 4287202920
0.30924299 0.186197 0.764 4287071336
0.311322 0.186206 0.764 4287268975
0.313402 0.186216 0.764 4286676838
0.315483 0.18622699 0.764 4287071596
0.31756499 0.18623801 0.764 4286808424
0.31922901 0.186005 0.76300001 4287335026
0.321311 0.18601701 0.76300001 4288190335
0.32339299 0.186029 0.76300001 4288059526
0.325477 0.186042 0.76300001 4288060040
0.32756099 0.186055 0.76300001 4287731589
0.32921499 0.18582501 0.76200002 4288060554
0.331734 0.186083 0.76300001 4287665536
0.33425999 0.186342 0.764 4287993986
0.33679301 0.186601 0.76499999 4288125570
0.338889 0.186617 0.76499999 4288059263
0.340987 0.18663301 0.76499999 4287861370
0.343086 0.18664999 0.76499999 4288058751
0.34518701 0.18666799 0.76499999 4287795840
0.347289 0.18668599 0.76499999 4288584850
0.349392 0.18670399 0.76499999 4288322699
0.35103801 0.186479 0.764 4288125320
0.35314199 0.186499 0.764 4288059010
0.355712 0.186764 0.76499999 4288388230
0.357822 0.186785 0.76499999 4288256644
0.35946301 0.186562 0.764 4288388230
0.360627 0.186096 0.76200002 4288255875
0.36320901 0.186363 0.76300001 4288058749
0.36532 0.186387 0.76300001 4287136875
0.366952 0.186167 0.76200002 4286675808
0.369064 0.18619201 0.76200002 4287399271
0.371665 0.186461 0.76300001 4287333478
0.37525299 0.18722101 0.76599997 4286741341
0.37738201 0.18724801 0.76599997 4286741341
0.37901801 0.187031 0.76499999 4287267685
0.38065001 0.18681499 0.764 4287661929
0.38378099 0.187333 0.76599997 4287661929
0.38642201 0.187608 0.76700002 4287991408
0.38805801 0.18739399 0.76599997 4287465578
0.38918099 0.18693601 0.764 4286413404
0.39131999 0.186968 0.764 4288123508
0.39449099 0.18749 0.76599997 4288057715
0.396121 0.187279 0.76499999 4287333224
0.39827001 0.187314 0.76499999 4286082398
0.39989701 0.187104 0.764 4286806123
0.403101 0.18763 0.76599997 4288386426
0.40525901 0.187667 0.76599997 4287991922
0.40742099 0.187705 0.76599997 4287597164
0.409585 0.18774299 0.76599997 4287202154
0.41175199 0.187783 0.76599997 4287267694
0.41338101 0.18757799 0.76499999 4286018151
0.41609401 0.187865 0.76599997 4282597173
0.417178 0.187416 0.764 4286874222
0.41989899 0.187704 0.76499999 4287861886
0.42152601 0.187503 0.764 4287598453
0.42370501 0.187548 0.764 4287993209
0.42533001 0.18734799 0.76300001 4287927418
0.42807201 0.18764 0.764 4288059002
0.43082401 0.187934 0.76499999 4288124797
0.43301901 0.18798199 0.76499999 4287861370
0.43464801 0.187786 0.764 4287663991
0.43799001 0.188329 0.76599997 4288058496
0.439623 0.188134 0.76499999 4288058498
0.44240901 0.18843301 0.76599997 4287466108
0.445205 0.188733 0.76700002 4284308295
0.44859299 0.189281 0.76899999 4287268980
0.45082399 0.189337 0.76899999 4287598198
0.45247 0.18914799 0.76800001 4287993211
0.454115 0.18896 0.76700002 4287993209
0.457542 0.189512 0.76899999 4288256381
0.46038699 0.18981899 0.76999998 4287927414
0.46324199 0.190128 0.77100003 4287401074
0.46610701 0.190438 0.77200001 4287861623
0.46837601 0.190502 0.77200001 4287400821
0.46943 0.190074 0.76999998 4287663993
0.47170201 0.19014101 0.76999998 4287466359
0.47397801 0.190209 0.76999998 4287861119
0.477496 0.190773 0.77200001 4287861633
0.479166 0.190596 0.77100003 4288190596
0.48145899 0.190668 0.77100003 4288256905
0.483758 0.190741 0.77100003 4288520077
0.48543099 0.190568 0.76999998 4288519824
0.48837 0.190892 0.77100003 4288586384
0.491956 0.19146401 0.773 4288717970
0.49619901 0.192286 0.77600002 4288783249
0.49789599 0.192119 0.77499998 4288585870
0.49765599 0.191209 0.77100003 4288783250
0.49934301 0.191044 0.76999998 4288520338
-0.13071901 0.12266 0.509 4289769893
-0.127823 0.121217 0.50300002 4289045400
-0.124617 0.120743 0.50099999 4288847768
0.111967 0.129967 0.53899997 4289452793
0.13846 0.158655 0.65799999 4290112249
0.14961 0.169258 0.70200002 4290112249
0.153659 0.171663 0.71200001 4290112249
0.15688799 0.173104 0.71799999 4290111994
0.16037101 0.174786 0.72500002 4290046715
0.163219 0.175744 0.72899997 4289849336
0.165636 0.17622 0.73100001 4289849083
0.168293 0.176937 0.73400003 4289782524
0.170965 0.177655 0.73699999 4289650939
0.17318501 0.17789 0.73799998 4289452540
0.175173 0.177884 0.73799998 4284057262
0.17764001 0.17836 0.74000001 4284649661
0.18011799 0.178837 0.74199998 4286295761
0.182607 0.179313 0.74400002 4289848831
0.18510699 0.17979001 0.74599999 4290765308
0.187617 0.18026599 0.74800003 4287075246
0.18988501 0.180502 0.74900001 4287665300
0.192158 0.180738 0.75 4288386703
0.19469599 0.181214 0.75199997 4287992199
0.196721 0.181209 0.75199997 4287992452
0.198745 0.18120401 0.75199997 4288058245
0.200504 0.180959 0.75099999 4287005810
0.202795 0.18119501 0.75199997 4287663740
0.205365 0.18167201 0.75400001 4287663738
0.207396 0.181668 0.75400001 4287926910
0.20998199 0.182145 0.75599998 4287005808
0.212018 0.18214101 0.75599998 4288058239
0.21461999 0.18261901 0.75800002 4288189571
0.21637601 0.182374 0.75700003 4287861119
0.218126 0.182129 0.75599998 4287729533
0.220163 0.182126 0.75599998 4288189571
0.22249299 0.182363 0.75700003 4287992705
0.224829 0.182601 0.75800002 4287861119
0.226871 0.18259799 0.75800002 4287860606
0.22921599 0.182836 0.759 4287992446
0.231261 0.182833 0.759 4287926910
0.232999 0.18258999 0.75800002 4287795324
0.23504201 0.182588 0.75800002 4287597941
0.237085 0.182586 0.75800002 4287597688
0.239759 0.183066 0.75999999 4287597173
0.241809 0.183064 0.75999999 4287860859
0.244179 0.183303 0.76099998 4287137389
0.24590699 0.183061 0.75999999 4287466354
0.248284 0.183301 0.76099998 4286084708
0.25066501 0.183541 0.76200002 4285689695
0.25239 0.1833 0.76099998 4285163600
0.254109 0.18305901 0.75999999 4284703302
0.25615999 0.18305901 0.75999999 4284045629
0.25855201 0.1833 0.76099998 4284111169
0.261291 0.18378299 0.76300001 4283781698
0.26300699 0.183543 0.76200002 4283913792
0.26541299 0.18378501 0.76300001 4284439883
0.267124 0.18354601 0.76200002 4284176964
0.26953599 0.183788 0.76300001 4284111171
0.27159801 0.18379 0.76300001 4283650365
0.27366099 0.18379299 0.76300001 4284045123
0.275363 0.18355501 0.76200002 4284768846
0.276696 0.18307599 0.75999999 4285097811
0.278386 0.18283799 0.759 4285624155
0.28044 0.182842 0.759 4286611050
0.28286701 0.18308701 0.75999999 4286808933
0.284926 0.183091 0.75999999 4287137902
0.286607 0.182855 0.759 4287466867
0.28866401 0.18286 0.759 4287598453
0.291105 0.183107 0.75999999 4287203695
0.293551 0.18335301 0.76099998 4287006314
0.295616 0.18336 0.76099998 4287072623
0.297681 0.183366 0.76099998 4287532660
0.30053499 0.183855 0.76300001 4287532660
0.30221 0.183622 0.76200002 4287138406
0.303882 0.18338899 0.76099998 4286940519
0.30554801 0.183156 0.75999999 4287072354
0.30802 0.183405 0.76099998 4287269482
0.31049699 0.18365601 0.76200002 4286874471
0.312161 0.183424 0.76099998 4286808937
0.31464699 0.18367501 0.76200002 4286677351
0.315891 0.183203 0.75999999 4287137902
0.317545 0.182973 0.759 4287400819
0.31961501 0.18298499 0.759 4287927163
0.32210901 0.183237 0.75999999 4287664766
0.32375801 0.183009 0.759 4288454284
0.32540199 0.18278 0.75800002 4288125833
0.32747301 0.182794 0.75800002 4288060040
0.33085099 0.183531 0.76099998 4287730561
0.33337 0.183786 0.76200002 4288322696
0.335457 0.183801 0.76200002 4288322435
0.33754399 0.183816 0.76200002 4288585093
0.33963299 0.183832 0.76200002 4287795832
0.34127501 0.183608 0.76099998 4288059004
0.343364 0.183625 0.76099998 4287992958
0.34545499 0.183642 0.76099998 4288256391
0.34754699 0.18366 0.76099998 4288651663
0.349181 0.183438 0.75999999 4288256905
0.351273 0.183457 0.75999999 4288124805
0.353367 0.183477 0.75999999 4288322437
0.35546201 0.183497 0.75999999 4288191104
0.357559 0.18351801 0.75999999 4288191618
0.359658 0.18354 0.75999999 4288388228
0.36175799 0.183562 0.75999999 4288519300
0.36386099 0.183585 0.75999999 4286677351
0.36548299 0.183367 0.759 4287005543
0.36807001 0.183633 0.75999999 4286742371
0.37017801 0.183658 0.75999999 4286544476
0.37326699 0.184167 0.76200002 4286806890
0.37538499 0.184193 0.76200002 4287201891
0.37750399 0.18422 0.76200002 4287464547
0.379127 0.18400601 0.76099998 4287991146
0.38174799 0.184276 0.76200002 4287662181
0.383874 0.184305 0.76200002 4287333991
0.38549501 0.184093 0.76099998 4287795057
0.386603 0.18364 0.759 4287268713
0.38923901 0.18391301 0.75999999 4287795057
0.392398 0.184429 0.76200002 4288057461
0.39401701 0.18422 0.76099998 4288254840
0.396153 0.18425401 0.76099998 4287004006
0.397769 0.184046 0.75999999 4286017880
0.40148601 0.184808 0.76300001 4287333738
0.403635 0.184844 0.76300001 4288387196
0.40578699 0.184881 0.76300001 4287268462
0.40687299 0.184434 0.76099998 4287399785
0.40956199 0.184715 0.76200002 4287202658
0.41226 0.18499701 0.76300001 4286544749
0.41387999 0.18479399 0.76200002 4284965974
0.41495201 0.18435 0.75999999 4282597677
0.41711199 0.18439201 0.75999999 4288125058
0.42037901 0.184921 0.76200002 4288256128
