# .PCD v0.7 - Point Cloud Data file format
VERSION 0.7
FIELDS x y z rgb
SIZE 4 4 4 4
TYPE F F F U
COUNT 1 1 1 1
WIDTH 1119
HEIGHT 1
VIEWPOINT 0 0 0 1 0 0 0
POINTS 1119
DATA ascii
0.29884401 0.43623799 0.96899998 4284440921
0.301806 0.436728 0.97000003 4281808946
0.30383301 0.43586701 0.96799999 4280690206
0.30616599 0.43545699 0.96700001 4282663996
0.30913499 0.435949 0.96799999 4283387719
0.311465 0.435541 0.96700001 4284374873
0.31379101 0.43513399 0.96600002 4282795841
0.315786 0.434277 0.96399999 4281283372
0.31810099 0.43387201 0.963 4281940534
0.32074401 0.433918 0.963 4284769633
0.32305399 0.433514 0.96200001 4284243028
0.32501999 0.43266001 0.95999998 4282663741
0.32697701 0.43180799 0.958 4281611053
0.32926801 0.431407 0.95700002 4282598203
0.331902 0.43145701 0.95700002 4282993220
0.334537 0.43150899 0.95700002 4283585357
0.337174 0.43156201 0.95700002 4283059013
0.33945701 0.431164 0.95599997 4282005811
0.34173599 0.43076801 0.95499998 4282532155
0.34401101 0.43037301 0.954 4282532155
0.34628299 0.42997801 0.95300001 4282663741
0.349282 0.43048799 0.954 4282730048
0.35192001 0.430547 0.954 4284045908
0.354188 0.43015599 0.95300001 4283453771
0.35607699 0.42931399 0.95099998 4282203704
0.35833499 0.42892501 0.94999999 4282664771
0.360208 0.42808601 0.94800001 4282665539
0.36245501 0.427699 0.94700003 4282139195
0.36431301 0.42686099 0.94499999 4282599746
0.36693799 0.42692801 0.94499999 4282665539
0.36956501 0.42699701 0.94499999 4282796611
0.37219501 0.427066 0.94499999 4283257162
0.37442899 0.42668501 0.94400001 4284243542
0.37665999 0.426305 0.94300002 4283519817
0.37848499 0.42547399 0.94099998 4282072626
0.381111 0.425549 0.94099998 4283059266
0.383331 0.42517301 0.94 4283783244
0.385548 0.42479801 0.93900001 4283323208
0.38776201 0.42442399 0.93800002 4283915345
0.390389 0.42450401 0.93800002 4284770139
0.39301699 0.42458501 0.93800002 4282795835
0.39522699 0.42421499 0.93699998 4282334254
0.39743301 0.42384699 0.93599999 4282531633
0.399636 0.42348 0.935 4282729010
0.40183601 0.423114 0.93400002 4282466093
0.40446499 0.42320201 0.93400002 4283387193
0.407098 0.42329299 0.93400002 4284111169
0.40929401 0.42293099 0.93300003 4281940255
0.41237 0.42347801 0.93400002 4282005793
0.41545501 0.42402601 0.935 4282992688
0.41854799 0.424577 0.93599999 4282268712
0.42164999 0.425129 0.93699998 4280952854
0.42385399 0.424775 0.93599999 4281084185
0.426512 0.42487699 0.93599999 4281281564
0.42917201 0.424981 0.93599999 4281281564
0.43183601 0.425087 0.93599999 4281808163
0.43496701 0.425648 0.93699998 4281281306
0.437639 0.425758 0.93699998 4281150233
0.44031501 0.42586899 0.93699998 4281216024
0.44394001 0.426891 0.93900001 4280887061
0.44710401 0.427461 0.94 4281939749
0.450755 0.42848799 0.94199997 4281216540
0.45345899 0.42860699 0.94199997 4280690196
0.45664999 0.42918399 0.94300002 4281019161
0.459851 0.42976299 0.94400001 4280623889
0.46306199 0.43034399 0.94499999 4280755989
0.46578899 0.43047199 0.94499999 4281018647
0.46851999 0.43060201 0.94499999 4280821268
0.471753 0.43119001 0.94599998 4280755475
0.47549799 0.43223599 0.94800001 4280558094
0.479258 0.433285 0.94999999 4280689680
0.48201999 0.43342501 0.94999999 4280887059
0.48427501 0.43311 0.949 4280821268
0.487555 0.43371001 0.94999999 4280821013
0.49084499 0.43431401 0.95099998 4280821013
0.494665 0.43537599 0.95300001 4280360976
0.49693501 0.43507099 0.95200002 4280690196
0.49972901 0.43522501 0.95200002 4280426508
-0.198897 0.455782 1.021 4287664001
-0.195941 0.455322 1.02 4287663747
-0.19317999 0.455309 1.02 4288189577
-0.19079199 0.45618901 1.022 4287663233
-0.18802699 0.45617601 1.022 4286215530
-0.185261 0.456164 1.022 4288057988
-0.181961 0.45481399 1.0190001 4287925885
-0.179028 0.45435601 1.018 4287334262
-0.176447 0.45479199 1.0190001 4287595892
-0.173691 0.454781 1.0190001 4287203187
-0.17076699 0.45432499 1.018 4286413701
-0.167849 0.453868 1.017 4287926687
-0.164937 0.45341301 1.016 4287663495
-0.16250899 0.45429599 1.018 4287597694
-0.160071 0.45517901 1.02 4287334515
-0.157313 0.45517099 1.02 4287202416
-0.154404 0.454716 1.0190001 4287465074
-0.151352 0.45381501 1.017 4287597174
-0.14860301 0.45380801 1.017 4287662966
-0.145711 0.453354 1.016 4287334001
-0.14282501 0.45289999 1.015 4287267694
-0.139944 0.452447 1.0140001 4287530864
-0.137069 0.451994 1.013 4287793522
-0.134331 0.451987 1.013 4287398250
-0.131464 0.45153499 1.012 4287398250
-0.128857 0.45197499 1.013 4287464045
-0.12637 0.45286101 1.015 4288056180
-0.123628 0.452856 1.015 4287596659
-0.120886 0.45285001 1.015 4287530866
-0.117911 0.45195299 1.013 4287202669
-0.115061 0.45150101 1.012 4286412899
-0.112328 0.45149601 1.012 4287137137
-0.109594 0.45149201 1.012 4287137137
-0.106861 0.451487 1.012 4287531127
-0.104128 0.45148301 1.012 4287531128
-0.101295 0.451033 1.011 4287070577
-0.098466702 0.450582 1.01 4286478954
-0.095644496 0.45013201 1.0089999 4285886819
-0.092827603 0.44968301 1.008 4286742128
-0.090016298 0.449233 1.007 4287136884
-0.087297097 0.44922999 1.007 4287202162
-0.084494002 0.44878 1.006 4287399027
-0.081777602 0.44877699 1.006 4287201648
-0.0790613 0.44877401 1.006 4286675558
-0.076269202 0.44832501 1.005 4286214753
-0.073482499 0.44787699 1.0039999 4286215007
-0.070560299 0.446536 1.001 4286017374
-0.067790002 0.446087 1 4285425752
-0.064960003 0.44519299 0.99800003 4285623131
-0.0621408 0.44429901 0.99599999 4285557854
-0.059034001 0.441174 0.98900002 4285360221
-0.055395201 0.43358901 0.972 4284965715
-0.0506537 0.41619 0.93300003 4284439373
-0.046071298 0.39834499 0.89300001 4282860339
-0.041655999 0.38005501 0.852 4282135848
-0.037415899 0.36131799 0.81 4280491544
-0.0347073 0.355964 0.79799998 4286545277
-0.032349098 0.353733 0.79299998 4284375652
-0.030132299 0.35284001 0.79100001 4284704617
-0.0278908 0.35150099 0.78799999 4284244066
-0.0257309 0.35105401 0.787 4284506724
-0.0236065 0.351053 0.787 4284637794
-0.021482 0.35105199 0.787 4283914073
-0.019357599 0.35105199 0.787 4284439647
-0.017211299 0.35060501 0.78600001 4284242268
-0.0150896 0.35060501 0.78600001 4284506210
-0.0129514 0.35015801 0.78500003 4284440417
-0.0108324 0.35015801 0.78500003 4284243552
-0.0086912196 0.34926501 0.78299999 4284243552
-0.0065776398 0.34926501 0.78299999 4284243299
-0.0044697602 0.349711 0.78399998 4284242530
-0.0023564899 0.35015699 0.78500003 4284046442
-0.000237215 0.349711 0.78399998 4288193729
0.00187666 0.34926501 0.78299999 4287146185
0.00398514 0.34881899 0.78200001 4286289847
0.0060960199 0.34881899 0.78200001 4285434024
0.0082069002 0.34881899 0.78200001 4284644508
0.010331 0.34926501 0.78299999 4286684345
0.0124287 0.34882 0.78200001 4286289333
0.014521 0.34837401 0.78100002 4287013571
0.016607899 0.347929 0.77999997 4286947264
0.0187134 0.347929 0.77999997 4287013057
0.0207923 0.34748399 0.77899998 4287210182
0.0229245 0.34793001 0.77999997 4286683581
0.02503 0.347931 0.77999997 4286749374
0.027170399 0.348378 0.78100002 4286025909
0.029278699 0.34837899 0.78100002 4286223288
0.031346802 0.34793401 0.77999997 4286420667
0.033409499 0.347489 0.77899998 4286092216
0.035558 0.347936 0.77999997 4286158009
0.037663698 0.34793699 0.77999997 4285894837
0.0397694 0.347938 0.77999997 4285631667
0.041767702 0.34704801 0.778 4285762483
0.043811701 0.34660301 0.77700001 4285434288
0.0459093 0.34660399 0.77700001 4285171116
0.048068799 0.34705201 0.778 4285236909
0.050040301 0.34616199 0.77600002 4285303216
0.0520682 0.34571701 0.77499998 4285697974
0.0540208 0.344827 0.773 4285500595
0.056180399 0.34527501 0.77399999 4285237423
0.0583455 0.345723 0.77499998 4285894837
0.060438 0.345725 0.77499998 4285829044
0.0626112 0.346174 0.77600002 4285829044
0.064623103 0.34573001 0.77499998 4285631665
0.0666297 0.34528601 0.77399999 4285631665
0.068542197 0.34439701 0.77200001 4285434286
0.070626803 0.34439901 0.77200001 4285565874
0.072711498 0.34440199 0.77200001 4285631667
0.074796297 0.344405 0.77200001 4285500081
0.0768812 0.34440801 0.77200001 4285368495
0.0790684 0.34485701 0.773 4285499827
0.081050999 0.344414 0.77200001 4285434034
0.083136097 0.34441799 0.77200001 4285105583
0.085110798 0.34397501 0.77100003 4285302702
0.087306403 0.34442499 0.77200001 4285236909
0.089275897 0.34398299 0.77100003 4285631150
0.091477104 0.34443301 0.77200001 4285433771
0.0934413 0.34399101 0.77100003 4285236135
0.095524199 0.343995 0.77100003 4285499307
0.097607099 0.34400001 0.77100003 4285433514
0.099560902 0.34355801 0.76999998 4285827756
0.101641 0.34356299 0.76999998 4286023585
0.103722 0.343568 0.76999998 4282930793
0.105803 0.343573 0.76999998 4283914595
0.107883 0.34357801 0.76999998 4284046434
0.109964 0.343584 0.76999998 4283849306
0.1119 0.34314299 0.76899999 4283520341
0.11383 0.34270301 0.76800001 4284506208
0.115906 0.342709 0.76800001 4284111448
0.117982 0.342715 0.76800001 4283782738
0.119902 0.34227601 0.76700002 4283848531
0.121976 0.342282 0.76700002 4284308827
0.12405 0.342289 0.76700002 4283848276
0.126288 0.34274301 0.76800001 4284045655
0.12853201 0.343196 0.76899999 4284111448
0.130612 0.34320399 0.76899999 4284111703
0.13251901 0.34276599 0.76800001 4284045908
0.13442101 0.342327 0.76700002 4283914322
0.136318 0.34189001 0.76599997 4283914322
0.13821 0.341452 0.76499999 4283915092
0.14009701 0.341014 0.764 4284243803
0.142536 0.34191599 0.76599997 4284177757
0.144798 0.342372 0.76700002 4283914585
0.147066 0.34282801 0.76800001 4283915099
0.14914501 0.34283799 0.76800001 4283849306
0.151224 0.34284899 0.76800001 4283980892
0.153503 0.34330601 0.76899999 4284309597
0.155788 0.34376299 0.76999998 4283980632
0.159924 0.348239 0.77999997 4283980378
0.170138 0.36566401 0.81900001 4283980378
0.196348 0.416576 0.93300003 4284111964
0.205484 0.43043301 0.96399999 4284309597
0.210255 0.43491399 0.97399998 4283980632
0.213333 0.43582401 0.97600001 4283980378
0.215978 0.43584099 0.97600001 4284046171
0.218849 0.43630499 0.977 4283454288
0.221725 0.43676901 0.97799999 4280624674
0.22483601 0.43768099 0.98000002 4281282602
0.227727 0.43814701 0.98100001 4280953637
0.230389 0.43816599 0.98100001 4280295707
0.232813 0.43774 0.98000002 4281282857
0.23523299 0.437314 0.97899997 4282532924
0.237648 0.43688801 0.97799999 4281151271
0.24030399 0.43691 0.97799999 4280492827
0.24320801 0.437379 0.97899997 4280558618
0.245868 0.437401 0.97899997 4281282343
0.248528 0.43742499 0.97899997 4281479722
0.25093299 0.437002 0.97799999 4280755999
0.25333199 0.43658 0.977 4280492827
0.25598899 0.43660501 0.977 4281808687
0.25864601 0.43663099 0.977 4283058752
0.261572 0.43710399 0.97799999 4281611561
0.26423299 0.43713099 0.97799999 4280953631
0.26689601 0.437159 0.97799999 4280361494
0.26983401 0.43763399 0.97899997 4280887838
0.27194399 0.43676999 0.977 4281874478
0.27404401 0.43590501 0.97500002 4282203443
0.27641699 0.43548799 0.97399998 4281084448
0.278786 0.43507299 0.97299999 4280624411
0.28115001 0.43465701 0.972 4282400822
0.28351 0.43424299 0.97100002 4282927166
0.28615901 0.43427601 0.97100002 4282137652
0.28910801 0.43475699 0.972 4280624672
0.29176199 0.43479201 0.972 4281611567
0.29411399 0.43437999 0.97100002 4283257162
0.296462 0.43396899 0.97000003 4283915092
0.299422 0.43445399 0.97100002 4282730303
0.30176699 0.43404499 0.97000003 4280822306
0.30347899 0.43274099 0.96700001 4280953631
0.306126 0.43278101 0.96700001 4282335284
0.30877399 0.43282101 0.96700001 4282992959
0.311423 0.432863 0.96700001 4282992961
0.31342301 0.43200901 0.96499997 4281282857
0.31574199 0.43160501 0.96399999 4281019430
0.31805599 0.43120101 0.963 4283190601
0.32069799 0.43124601 0.963 4284177494
0.32300699 0.43084401 0.96200001 4282400824
0.32531101 0.43044299 0.96100003 4280953378
0.32726899 0.42959499 0.95899999 4280888097
0.32990599 0.42964301 0.95899999 4282730556
0.33219799 0.429245 0.958 4282993473
0.33483499 0.429295 0.958 4282993475
0.33712101 0.42889899 0.95700002 4282269752
0.339403 0.42850301 0.95599997 4281611567
0.34168199 0.42810801 0.95499998 4281940532
0.34395599 0.427715 0.954 4282006327
0.345862 0.42687401 0.95200002 4282730050
0.348492 0.42693001 0.95200002 4283256394
0.35149199 0.42743701 0.95300001 4283584845
0.35412699 0.42749599 0.95300001 4282072118
0.35639 0.42710701 0.95200002 4281545774
0.35827199 0.42627099 0.94999999 4282664257
0.36052501 0.42588499 0.949 4282269499
0.362391 0.42504999 0.94700003 4281876023
0.36463299 0.42466599 0.94599998 4282336574
0.366871 0.424283 0.94499999 4281941816
0.369497 0.42434999 0.94499999 4282533438
0.372125 0.424418 0.94499999 4283520333
0.374358 0.42403799 0.94400001 4283848268
0.37618801 0.42321101 0.94199997 4282270005
0.37841201 0.422833 0.94099998 4281546280
0.381441 0.423356 0.94199997 4282598970
0.38325599 0.42253199 0.94 4283060035
0.38588199 0.422607 0.94 4283454793
0.38768399 0.421785 0.93800002 4283717965
0.39072499 0.42231399 0.93900001 4283651396
0.39335501 0.42239401 0.93900001 4281677091
0.395987 0.42247501 0.93900001 4281873956
0.39819801 0.42210799 0.93800002 4281873956
0.39954999 0.42084199 0.935 4281544991
0.40174901 0.42047799 0.93400002 4281150747
0.40437701 0.42056501 0.93400002 4283189814
0.40700799 0.42065299 0.93400002 4282268965
0.409641 0.42074299 0.93400002 4281480218
0.412718 0.42128599 0.935 4282466599
0.41536 0.421379 0.935 4282729516
0.41845101 0.42192501 0.93599999 4281150486
0.421101 0.42202201 0.93599999 4280755475
0.42330101 0.42166999 0.935 4281150233
0.42595401 0.42177001 0.935 4281216026
0.42906901 0.42232299 0.93599999 4281676577
0.43173 0.422427 0.93599999 4281347612
0.43439499 0.42253199 0.93599999 4280821266
0.43706301 0.42263901 0.93599999 4281150233
0.44067401 0.42365199 0.93800002 4280755473
0.44429901 0.424667 0.94 4281479198
0.44746399 0.42523199 0.94099998 4282137128
0.450638 0.42579901 0.94199997 4281150747
0.453821 0.42636901 0.94300002 4280755989
0.45701301 0.42694101 0.94400001 4280887061
0.460215 0.427515 0.94499999 4280952854
0.46342599 0.42809099 0.94599998 4281742370
0.46566099 0.42776501 0.94499999 4281347612
0.46838999 0.42789301 0.94499999 4280952854
0.47162101 0.42847601 0.94599998 4281019161
0.47486201 0.429061 0.94700003 4280887575
0.47811201 0.429649 0.94800001 4281742884
0.48137301 0.43023899 0.949 4280887575
0.483623 0.42992499 0.94800001 4280623889
0.48689801 0.43052101 0.949 4281413405
0.49069899 0.43157199 0.95099998 4281149978
0.49399701 0.43217301 0.95200002 4281413664
0.496784 0.432322 0.95200002 4281150233
-0.198689 0.45254901 1.02 4288256399
-0.19554301 0.45164901 1.018 4287861641
-0.19297799 0.45208001 1.0190001 4288386957
-0.19040699 0.452512 1.02 4287597441
-0.188199 0.45383099 1.023 4286807924
-0.18561199 0.454263 1.024 4288123784
-0.18266401 0.45380801 1.023 4288386953
-0.179545 0.45291001 1.021 4287334520
-0.176783 0.45289999 1.021 4287466108
-0.173851 0.45244601 1.02 4287335287
-0.17092501 0.45199299 1.0190001 4286875262
-0.168005 0.45153999 1.018 4287666070
-0.165252 0.45153099 1.018 4287007363
-0.16249999 0.45152199 1.018 4287137396
-0.159905 0.45195699 1.0190001 4287334263
-0.156996 0.45150501 1.018 4287004783
-0.154396 0.45194101 1.0190001 4287268209
-0.151196 0.45060301 1.016 4287202416
-0.148596 0.45103899 1.017 4287005037
-0.145417 0.44970101 1.0140001 4287596660
-0.14267699 0.44969401 1.0140001 4287399280
-0.139937 0.449687 1.0140001 4287661938
-0.137197 0.44968101 1.0140001 4287398766
-0.134325 0.449231 1.013 4287464045
-0.131458 0.448782 1.012 4287529838
-0.128979 0.44966301 1.0140001 4287464045
-0.126489 0.450544 1.016 4287267180
-0.123744 0.45053899 1.016 4287201901
-0.120761 0.44964701 1.0140001 4287333485
-0.117906 0.44919801 1.013 4286807910
-0.114829 0.44786301 1.01 4286939243
-0.112101 0.44785899 1.01 4286873711
-0.109157 0.44696799 1.008 4286939504
-0.10654 0.44740701 1.0089999 4287070576
-0.103918 0.447846 1.01 4287333748
-0.10109 0.44739899 1.0089999 4287070576
-0.098268002 0.44695199 1.008 4286347368
-0.095451303 0.44650501 1.007 4286610542
-0.092732102 0.44650099 1.007 4286939507
-0.089834198 0.445611 1.005 4287334263
-0.087120503 0.44560799 1.005 4287465335
-0.084322996 0.445162 1.0039999 4287399027
-0.081693403 0.445602 1.005 4287464820
-0.078901403 0.44515601 1.0039999 4287070316
-0.076038897 0.444267 1.002 4286872937
-0.073187299 0.443378 1 4287267441
-0.070417002 0.44293201 0.99900001 4287662199
-0.067652099 0.44248599 0.99800003 4287399027
-0.064892702 0.44204101 0.99699998 4287333748
-0.062013999 0.44070899 0.99400002 4287662714
-0.058853 0.43715999 0.986 4287267956
-0.054994501 0.427847 0.96499997 4286807404
-0.049783502 0.406564 0.917 4286610025
-0.045089599 0.38749799 0.87400001 4286017374
-0.041165799 0.37330899 0.84200001 4285425238
-0.0372761 0.35779101 0.80699998 4285031260
-0.034749798 0.35424301 0.79900002 4286478977
-0.032388899 0.352025 0.79400003 4284375652
-0.0302075 0.35158101 0.79299998 4284704617
-0.027960701 0.35025001 0.79000002 4284178273
-0.025828199 0.35024899 0.79000002 4284244066
-0.023665801 0.349805 0.78899997 4284243038
-0.021508699 0.349361 0.78799999 4283650901
-0.019357 0.34891701 0.787 4284571234
-0.0172108 0.34847301 0.78600001 4284637026
-0.0151084 0.34891599 0.787 4284374624
-0.0129675 0.348472 0.78600001 4283979866
-0.0108459 0.348472 0.78600001 4284111966
-0.0087020705 0.34758499 0.78399998 4284440931
-0.00659425 0.348028 0.78500003 4284112227
-0.0044810399 0.34847099 0.78600001 4284308325
-0.0023594201 0.34847099 0.78600001 4283390314
-0.00023781401 0.34847099 0.78600001 4287341754
0.0018814 0.348028 0.78500003 4287670983
0.0039952202 0.34758499 0.78399998 4284710044
0.00611143 0.34758499 0.78399998 4284183700
0.0082381498 0.348028 0.78500003 4282670715
0.0103571 0.34802899 0.78500003 4284841884
0.0124442 0.34714201 0.78299999 4283921039
0.0145392 0.346699 0.78200001 4285368231
0.016650001 0.34670001 0.78200001 4285895090
0.018760899 0.34670001 0.78200001 4286684092
0.020845 0.346257 0.78100002 4287210697
0.022953199 0.34625801 0.78100002 4287210697
0.0250935 0.34670201 0.78200001 4287604940
0.027273901 0.34758899 0.78399998 4287144390
0.0293903 0.34759 0.78399998 4287013317
0.031426199 0.34670401 0.78200001 4286421180
0.033451401 0.345819 0.77999997 4286486973
0.035511401 0.34537601 0.77899998 4286421180
0.0376142 0.345377 0.77899998 4286618046
0.0397681 0.34582201 0.77999997 4286223034
0.041766401 0.34493601 0.778 4286354620
0.043810301 0.34449399 0.77700001 4286223034
0.0459079 0.34449601 0.77700001 4286223804
0.048005499 0.344497 0.77700001 4285894839
0.050038598 0.344055 0.77600002 4285697974
0.052066401 0.34361401 0.77499998 4286026939
0.054088801 0.34317201 0.77399999 4285895353
0.056251101 0.34361699 0.77499998 4285566902
0.058418699 0.344062 0.77600002 4285697972
0.060513798 0.344064 0.77600002 4285697458
0.062609002 0.34406701 0.77600002 4285237421
0.0646208 0.34362501 0.77499998 4285894837
0.066627301 0.34318399 0.77399999 4285631665
0.068717197 0.343187 0.77399999 4285631665
0.070624202 0.34230199 0.77200001 4285763253
0.072802998 0.34274799 0.773 4285631667
0.074890301 0.342751 0.773 4285894839
0.076977797 0.34275401 0.773 4285500081
0.079065204 0.34275699 0.773 4285697460
0.081152797 0.34276 0.773 4285565620
0.083240397 0.34276301 0.773 4285434548
0.085217699 0.34232301 0.77200001 4285434548
0.087189697 0.341883 0.77100003 4285500081
0.089272097 0.341887 0.77100003 4285237421
0.091354601 0.34189001 0.77100003 4285303214
0.093558401 0.342338 0.77200001 4285565358
0.095767699 0.342785 0.773 4285499564
0.097855903 0.34278899 0.773 4285170596
0.099814899 0.34235001 0.77200001 4285630124
0.101769 0.34191099 0.77100003 4285760160
0.103717 0.34147301 0.76999998 4283193449
0.105935 0.341921 0.77100003 4283652190
0.108018 0.34192601 0.77100003 4283849308
0.109959 0.341488 0.76999998 4283849046
0.11204 0.34149301 0.76999998 4284111964
0.114121 0.341499 0.76999998 4283914587
0.116202 0.34150401 0.76999998 4283979866
0.11813 0.34106699 0.76899999 4284045657
0.120052 0.34062999 0.76800001 4284440415
0.122128 0.34063599 0.76800001 4284308827
0.124366 0.341086 0.76899999 4283980117
0.12661 0.34153599 0.76999998 4284243034
0.128692 0.341544 0.76999998 4284177241
0.13077401 0.34155101 0.76999998 4284177496
0.132856 0.34155801 0.76999998 4283848531
0.134764 0.34112301 0.76899999 4283783252
0.13648801 0.34024301 0.76700002 4283980117
0.13856301 0.34025201 0.76700002 4284178010
0.14045499 0.33981699 0.76599997 4284178011
0.142713 0.340269 0.76700002 4283914587
0.144789 0.340278 0.76700002 4284243550
0.147247 0.34117499 0.76899999 4284111964
0.149523 0.34162799 0.76999998 4284375136
0.151804 0.34208199 0.77100003 4284440929
0.153892 0.34209201 0.77100003 4284375390
0.15618201 0.34254599 0.77200001 4284112218
0.160117 0.346551 0.78100002 4283914585
0.170957 0.365199 0.82300001 4283980378
0.197597 0.41668701 0.93900001 4284309343
0.206108 0.42912799 0.96700001 4284375390
0.210455 0.432693 0.97500002 4284243804
0.213535 0.433597 0.977 4283914585
0.21596099 0.43316901 0.97600001 4284308829
0.219055 0.43407401 0.97799999 4283453518
0.221707 0.434091 0.97799999 4280821539
0.22504701 0.43544099 0.98100001 4281150504
0.227708 0.43545899 0.98100001 4280689951
0.23060399 0.435922 0.98199999 4280361500
0.232793 0.43505299 0.98000002 4281085223
0.235213 0.43462899 0.97899997 4281413929
0.23786999 0.43465 0.97899997 4280821537
0.24077401 0.43511501 0.98000002 4280558620
0.243435 0.43513599 0.98000002 4280557850
0.245845 0.43471399 0.97899997 4280886815
0.24825101 0.434293 0.97799999 4281478952
0.250909 0.43431601 0.97799999 4280952608
0.253308 0.43389601 0.977 4280689690
0.25596401 0.43392 0.977 4281873964
0.25861999 0.433945 0.977 4281413927
0.261545 0.43441501 0.97799999 4280755997
0.26420599 0.434441 0.97799999 4280821790
0.266868 0.434468 0.97799999 4280361753
0.26953 0.43449599 0.97799999 4281216548
0.27163699 0.43363601 0.97600001 4281808685
0.274014 0.43322 0.97500002 4281479722
0.27638701 0.43280599 0.97399998 4280689436
0.27932799 0.43327999 0.97500002 4280821792
0.28140801 0.43242201 0.97299999 4282400824
0.28376901 0.43200999 0.972 4282335029
0.286421 0.432042 0.972 4280756511
0.28966799 0.432964 0.97399998 4280559134
0.292027 0.43255401 0.97299999 4282138166
0.29468399 0.43258899 0.97299999 4283520333
0.29703701 0.43217999 0.972 4282796096
0.29969299 0.43221599 0.972 4281480234
0.30172899 0.431364 0.97000003 4280427546
0.30344 0.430067 0.96700001 4281282594
0.306086 0.43010601 0.96700001 4282335282
0.309053 0.43059 0.96799999 4282927680
0.311703 0.43063101 0.96799999 4281809201
0.31370601 0.429782 0.96600002 4280822051
0.316026 0.42937899 0.96499997 4281808946
0.318672 0.42942199 0.96499997 4283585359
0.32098699 0.429021 0.96399999 4282730048
0.322961 0.42817599 0.96200001 4281348650
0.32526401 0.42777699 0.96100003 4280559134
0.32756299 0.427378 0.95999998 4281414957
0.32985801 0.42697999 0.95899999 4282402106
0.332149 0.42658401 0.958 4282270266
0.33443499 0.42618799 0.95700002 4282335290
0.33636501 0.425347 0.95499998 4281940787
0.33899599 0.42539901 0.95499998 4281019685
0.34127 0.425006 0.954 4281743153
0.344262 0.42550501 0.95499998 4282137911
0.34617001 0.42466801 0.95300001 4282730048
0.34843501 0.42427799 0.95200002 4283059013
0.35106501 0.42433399 0.95200002 4282401083
0.35406801 0.42483801 0.95300001 4281480236
0.35633001 0.42445099 0.95200002 4281414443
0.35858801 0.42406499 0.95099998 4281940532
0.36084199 0.42368001 0.94999999 4282072118
0.36271 0.422851 0.94800001 4281743923
0.36495399 0.42246801 0.94700003 4281941302
0.367194 0.422086 0.94599998 4282270267
0.36943001 0.42170599 0.94499999 4282927682
0.37244999 0.42221901 0.94599998 4283717196
0.37468499 0.421841 0.94499999 4282927421
0.37691599 0.421464 0.94400001 4281282341
0.37874201 0.42064101 0.94199997 4281545768
0.38136801 0.42071301 0.94199997 4282796349
0.383589 0.42034 0.94099998 4282796864
0.38621601 0.420414 0.94099998 4283389001
0.38843301 0.42004299 0.94 4283585863
0.39064601 0.41967401 0.93900001 4282203180
0.39327499 0.419752 0.93900001 4281019161
0.395906 0.41983199 0.93900001 4281216026
0.39853901 0.41991401 0.93900001 4281281819
0.40032101 0.41910201 0.93699998 4281281819
0.40252301 0.41873899 0.93599999 4282400300
0.40472299 0.41837701 0.935 4283058230
0.40779001 0.41891199 0.93599999 4282268714
0.41042799 0.419 0.93599999 4281676577
0.41350901 0.419539 0.93699998 4282268714
0.41571099 0.41918299 0.93599999 4281281819
0.418356 0.419276 0.93599999 4280492303
0.42145401 0.41982001 0.93699998 4280821268
0.424108 0.41991699 0.93699998 4280821268
0.42676499 0.42001501 0.93699998 4280952852
0.429883 0.420564 0.93800002 4281150233
0.43301001 0.42111501 0.93900001 4280887061
0.43568099 0.42121899 0.93900001 4280492303
0.43788901 0.420876 0.93800002 4280821268
0.441504 0.42188099 0.94 4280558096
0.44466001 0.42243999 0.94099998 4280689682
0.447826 0.42300099 0.94199997 4281413405
0.45100001 0.423563 0.94300002 4280887061
0.45466501 0.42457801 0.94499999 4280755475
0.45786101 0.425145 0.94599998 4280689682
0.46106699 0.42571399 0.94700003 4280689682
0.463792 0.42583701 0.94700003 4281873956
0.46652001 0.42596099 0.94700003 4280887061
0.469253 0.42608699 0.94700003 4280623889
0.47198901 0.42621499 0.94700003 4280821268
0.474729 0.426346 0.94700003 4281151261
0.47848201 0.42737901 0.949 4282006056
0.48123601 0.42751399 0.949 4280953368
0.48399401 0.42765099 0.949 4281348126
0.486756 0.427791 0.949 4281282331
0.49107 0.42928499 0.95200002 4281216540
0.494369 0.42988101 0.95300001 4281874470
0.49715599 0.43002799 0.95300001 4281216540
0.499423 0.429726 0.95200002 4281545505
-0.19867601 0.449765 1.02 4288322453
-0.195531 0.44887099 1.018 4288322453
-0.19277599 0.44885901 1.018 4287992974
-0.19002201 0.448847 1.018 4287400837
-0.187452 0.44927701 1.0190001 4287598216
-0.18469501 0.44926599 1.0190001 4288255631
-0.18193901 0.44925499 1.0190001 4288058252
-0.17918301 0.44924501 1.0190001 4287203713
-0.176254 0.44879401 1.018 4287402121
-0.17316 0.44790301 1.016 4285691763
-0.17024501 0.44745299 1.015 4287928735
-0.167336 0.44700301 1.0140001 4287270028
-0.16459399 0.44699499 1.0140001 4287400837
-0.16201299 0.447427 1.015 4287663234
-0.15926901 0.44741899 1.015 4287597692
-0.156526 0.447411 1.015 4287334520
-0.153631 0.44696301 1.0140001 4287268727
-0.15074199 0.44651499 1.013 4287531899
-0.148004 0.44650799 1.013 4287466106
-0.14526699 0.44650099 1.013 4287729021
-0.14252999 0.446495 1.013 4287268470
-0.13979299 0.44648799 1.013 4287202163
-0.13705599 0.446482 1.013 4287136370
-0.134187 0.44603601 1.012 4287465335
-0.13132299 0.44558901 1.011 4287202163
-0.128719 0.44602501 1.012 4287333748
-0.12611 0.44646001 1.013 4287662713
-0.123374 0.446455 1.013 4287399281
-0.120399 0.44556901 1.011 4287662452
-0.117436 0.44468299 1.0089999 4287399795
-0.114711 0.44467801 1.0089999 4287136369
-0.111875 0.444233 1.008 4287268469
-0.109152 0.44422901 1.008 4287465848
-0.10643 0.44422501 1.008 4287136884
-0.103708 0.444222 1.008 4287004784
-0.100886 0.44377699 1.007 4287070577
-0.097971998 0.44289199 1.005 4287071093
-0.095258303 0.442889 1.005 4287334011
-0.092360497 0.44200501 1.003 4287070839
-0.0896523 0.442002 1.003 4286939253
-0.0869442 0.44199899 1.003 4287070839
-0.084236197 0.44199601 1.003 4287202163
-0.081446901 0.441553 1.002 4287070576
-0.078663103 0.44110999 1.001 4287201648
-0.075732902 0.439785 0.99800003 4287070062
-0.072965398 0.43934199 0.99699998 4287333748
-0.070203297 0.43889901 0.99599999 4287530613
-0.067514502 0.43889701 0.99599999 4287399541
-0.064630397 0.43757299 0.99299997 4287070577
-0.061700199 0.43580899 0.98900002 4287136370
-0.058373801 0.43096 0.97799999 4287596406
-0.054195002 0.41906101 0.95099998 4287201901
-0.048533399 0.393942 0.89399999 4287332971
-0.043901801 0.374993 0.85100001 4287003753
-0.0403824 0.363976 0.82599998 4287070062
-0.037090302 0.35383999 0.80299997 4287005050
-0.0346618 0.35119501 0.79699999 4286545023
-0.032428801 0.35031301 0.79500002 4284836203
-0.030244799 0.34987101 0.79400003 4284638824
-0.0280308 0.34898901 0.792 4284638308
-0.0258602 0.348548 0.79100001 4284506724
-0.0236651 0.347666 0.78899997 4284243038
-0.0215081 0.34722501 0.78799999 4284374624
-0.0193565 0.34678301 0.787 4284374369
-0.0172322 0.34678301 0.787 4284440417
-0.015108 0.34678301 0.787 4284375136
-0.0129837 0.346782 0.787 4284572517
-0.0108456 0.34634101 0.78600001 4284309090
-0.0087129399 0.3459 0.78500003 4284045918
-0.00659408 0.3459 0.78500003 4284309607
-0.0044809198 0.34634101 0.78600001 4284375400
-0.00236237 0.34678099 0.787 4284046189
-0.00023841301 0.347222 0.78799999 4287868619
0.00188615 0.34678099 0.787 4287212233
0.0040002102 0.3459 0.78500003 4285499560
0.0061190701 0.3459 0.78500003 4285235874
0.00823793 0.3459 0.78500003 4282866810
0.01037 0.34634101 0.78600001 4283984776
0.0124598 0.34546 0.78399998 4282867324
0.014576 0.34546101 0.78399998 4284051600
0.0166921 0.34546101 0.78399998 4284446619
0.0188323 0.345902 0.78500003 4285236135
0.020924499 0.34546199 0.78399998 4286158009
0.023040701 0.34546199 0.78399998 4286290109
0.0251249 0.34502199 0.78299999 4286684867
0.027238401 0.34502301 0.78299999 4287211211
0.029352 0.34502399 0.78299999 4287079880
0.031465501 0.345025 0.78299999 4287014087
0.033493299 0.34414399 0.78100002 4286881731
0.0356015 0.344145 0.78100002 4287013571
0.037709702 0.34414601 0.78100002 4286683838
0.039818 0.344147 0.78100002 4286486460
0.041818898 0.34326699 0.77899998 4286289081
0.043865401 0.34282801 0.778 4286025909
0.045965601 0.34282899 0.778 4286157241
0.048127599 0.34327099 0.77899998 4286158011
0.0501661 0.342832 0.778 4285829046
0.0522664 0.34283301 0.778 4285960892
0.054226901 0.34195301 0.77600002 4286026685
0.056394499 0.34239599 0.77700001 4285763513
0.058492102 0.342397 0.77700001 4285763767
0.060667802 0.34283999 0.778 4285895351
0.062687598 0.342401 0.77700001 4285566386
0.064785399 0.34240299 0.77700001 4285369007
0.066711098 0.341524 0.77499998 4285829558
0.068803601 0.341526 0.77499998 4285697974
0.070621699 0.340206 0.77200001 4285763253
0.072800398 0.34064999 0.773 4285697458
0.0748877 0.34065199 0.773 4285894837
0.077074498 0.341095 0.77399999 4285960116
0.079266898 0.341539 0.77499998 4285697460
0.081359699 0.34154201 0.77499998 4285434288
0.083344899 0.341104 0.77399999 4285829046
0.085324802 0.340666 0.773 4285302962
0.087412402 0.34066999 0.773 4285368755
0.089500099 0.340673 0.773 4285237423
0.091587901 0.34067699 0.773 4285434802
0.093796998 0.34112099 0.77399999 4285697458
0.096011497 0.34156501 0.77499998 4285697458
0.098104902 0.34156901 0.77499998 4285631150
0.100069 0.341133 0.77399999 4285894065
0.10216 0.34113699 0.77399999 4284509826
0.103982 0.34026 0.77200001 4283717730
0.106205 0.34070501 0.773 4283586902
0.108153 0.340269 0.77200001 4284112732
0.110097 0.33983299 0.77100003 4284046425
0.112034 0.339398 0.76999998 4283783253
0.114115 0.339403 0.76999998 4284177759
0.116196 0.33940899 0.76999998 4284111197
0.118277 0.339414 0.76999998 4284046173
0.120202 0.33897901 0.76899999 4283914585
0.12244 0.33942601 0.76999998 4284046425
0.124521 0.339432 0.76999998 4284178010
0.12660301 0.339439 0.76999998 4283783252
0.128685 0.33944601 0.76999998 4283783252
0.130767 0.33945301 0.76999998 4284243289
0.13267601 0.339019 0.76899999 4283980117
0.134931 0.33946699 0.76999998 4283849045
0.13683601 0.33903399 0.76899999 4283980632
0.138735 0.33860099 0.76800001 4284046425
0.14062899 0.338168 0.76700002 4284177757
0.14270499 0.338177 0.76700002 4284111966
0.14478 0.33818501 0.76700002 4284111966
0.147047 0.338635 0.76800001 4284309343
0.14931899 0.33908501 0.76899999 4284375136
0.151794 0.339977 0.77100003 4283651929
0.153881 0.33998701 0.77100003 4284244064
0.15617099 0.34043801 0.77200001 4283980892
0.16051599 0.34529901 0.78299999 4283783513
0.173438 0.36824301 0.83499998 4283980892
0.198845 0.416767 0.94499999 4283849306
0.20652001 0.42736599 0.96899998 4284244064
0.210656 0.43046799 0.97600001 4284178271
0.213737 0.431366 0.97799999 4283783513
0.21594501 0.43049899 0.97600001 4283519827
0.21903799 0.431398 0.97799999 4282861381
0.22146299 0.43097401 0.977 4280953123
0.22502901 0.43275499 0.98100001 4281084195
0.22769 0.43277299 0.98100001 4280294678
0.23035 0.43279099 0.98100001 4280689436
0.232774 0.43236899 0.98000002 4281413159
0.235193 0.43194699 0.97899997 4280623643
0.23785 0.43196699 0.97899997 4280821022
0.240753 0.432428 0.98000002 4280886301
0.243413 0.43244901 0.98000002 4280623129
0.246326 0.43291199 0.98100001 4281017887
0.24873599 0.43249199 0.98000002 4281544231
0.25139901 0.432515 0.98000002 4280426518
0.253802 0.43209699 0.97899997 4280887069
0.25646299 0.43212 0.97899997 4281610792
0.25912499 0.43214399 0.97899997 4280953376
0.26205501 0.43261099 0.98000002 4280821276
0.26471999 0.43263599 0.98000002 4281413676
0.26711401 0.432221 0.97899997 4280164376
0.269503 0.43180701 0.97799999 4281479720
0.271887 0.43139201 0.977 4281742892
0.27454701 0.43142101 0.977 4281282343
0.276925 0.43100801 0.97600001 4280492057
0.27901101 0.430154 0.97399998 4281742894
0.28108701 0.42930099 0.972 4282006066
0.28344601 0.42888999 0.97100002 4281019685
0.28668299 0.42980501 0.97299999 4280361755
0.28993201 0.43072101 0.97500002 4280954406
0.292593 0.43075401 0.97500002 4282401852
0.29495299 0.43034601 0.97399998 4282401852
0.29761299 0.430381 0.97399998 4281611822
0.29965699 0.42953199 0.972 4280822304
0.302003 0.42912701 0.97100002 4280492825
0.30403 0.42828 0.96899998 4281743145
0.306364 0.427876 0.96799999 4282532661
0.30901301 0.42791399 0.96799999 4282138166
0.311663 0.42795399 0.96799999 4280624927
0.313665 0.42710999 0.96600002 4280822051
0.31598401 0.426709 0.96499997 4282598462
0.318299 0.42630801 0.96399999 4282795841
0.320943 0.42635101 0.96399999 4281479981
0.32325199 0.425953 0.963 4280427548
0.32555699 0.42555499 0.96200001 4280624925
0.328199 0.42559999 0.96200001 4281744176
0.33049801 0.42520499 0.96100003 4281744690
0.33244699 0.42436701 0.95899999 4281678383
0.33473501 0.42397299 0.958 4281874992
0.336667 0.42313701 0.95599997 4281282855
0.338945 0.42274499 0.95499998 4281151269
0.34157601 0.42279601 0.95499998 4282006578
0.344569 0.423291 0.95599997 4282138681
0.346479 0.42245901 0.954 4282664255
0.34838 0.42162701 0.95200002 4282796096
0.35027099 0.42079699 0.94999999 4281874994
0.35363901 0.42173901 0.95200002 4281151271
0.356271 0.42179701 0.95200002 4281611822
0.35852799 0.421413 0.95099998 4282072373
0.36002201 0.42014301 0.94800001 4282072118
0.36264801 0.42020401 0.94800001 4281809462
0.36489001 0.41982299 0.94700003 4281875255
0.36751699 0.41988599 0.94700003 4282532669
0.36975601 0.419507 0.94599998 4282664255
0.37238401 0.41957301 0.94599998 4283059268
0.374221 0.41875201 0.94400001 4281545768
0.37644801 0.41837701 0.94300002 4281216803
0.37826899 0.417559 0.94099998 4281874733
0.38089201 0.417629 0.94099998 4282730556
0.38351601 0.41770101 0.94099998 4283125575
0.38614199 0.41777399 0.94099998 4282993989
0.38835701 0.417404 0.94 4282730042
0.390569 0.417036 0.93900001 4280953115
0.39277801 0.41666901 0.93800002 4280952601
0.39540401 0.416747 0.93800002 4281018647
0.398458 0.417272 0.93900001 4281281819
0.40066499 0.41690901 0.93800002 4281611043
0.403299 0.416991 0.93800002 4283057975
0.405503 0.41663101 0.93699998 4282597424
0.40813899 0.41671699 0.93699998 4281347357
0.41121599 0.41724899 0.93800002 4281479198
0.41341901 0.41689301 0.93699998 4281676577
0.41561899 0.41653901 0.93599999 4280689682
0.41826299 0.41663 0.93599999 4280426510
0.42090899 0.416724 0.93599999 4280623889
0.42355901 0.41681901 0.93599999 4280623889
0.426211 0.41691601 0.93599999 4280558094
0.42978299 0.41790599 0.93800002 4280821266
0.432908 0.41845199 0.93900001 4280623887
0.43650499 0.41944599 0.94099998 4280294924
0.43871701 0.41910401 0.94 4280295438
0.44233501 0.420102 0.94199997 4280426510
0.445023 0.42021 0.94199997 4281281819
0.44866499 0.421213 0.94400001 4281150747
0.45184299 0.42177099 0.94499999 4280360717
0.45502999 0.42233101 0.94599998 4280295438
0.45774299 0.42244801 0.94599998 4280294924
0.46094599 0.42301199 0.94700003 4280952854
0.463669 0.423132 0.94700003 4281347612
0.466396 0.423255 0.94700003 4280294924
0.470117 0.42427301 0.949 4280426508
0.472359 0.42395201 0.94800001 4280689680
0.47610199 0.42497599 0.94999999 4281084952
0.47885299 0.42510599 0.94999999 4281084952
0.48262101 0.426135 0.95200002 4280558610
0.48538601 0.42627001 0.95200002 4280953366
0.48815501 0.42640799 0.95200002 4280887828
0.49144399 0.42699599 0.95300001 4280952854
0.49526101 0.42803499 0.95499998 4282137642
0.497531 0.42773199 0.954 4281084448
0.499798 0.42743 0.95300001 4281743399
-0.19885799 0.44742 1.021 4287861902
-0.195519 0.44609401 1.018 4287796109
-0.192765 0.44608301 1.018 4287729802
-0.189824 0.44563299 1.017 4287729802
-0.18725701 0.44606099 1.018 4287861388
-0.184503 0.44604999 1.018 4288124560
-0.18192901 0.44647899 1.0190001 4287927181
-0.178997 0.446031 1.018 4287796109
-0.176071 0.44558299 1.017 4287270796
-0.17298099 0.44469801 1.015 4285954936
-0.169901 0.443813 1.013 4287994519
-0.167162 0.443804 1.013 4287730833
-0.164262 0.443358 1.012 4288058767
-0.161686 0.44378799 1.013 4288189838
-0.159105 0.44421899 1.0140001 4288255370
-0.15621001 0.443773 1.013 4288058505
-0.153321 0.44332799 1.012 4287860613
-0.150437 0.44288301 1.011 4288123785
-0.147852 0.443315 1.012 4288123785
-0.145117 0.443308 1.012 4288123785
-0.142242 0.442864 1.011 4288057992
-0.139649 0.44329599 1.012 4287860612
-0.136915 0.44329101 1.012 4287991941
-0.134048 0.44284701 1.011 4288189320
-0.13105799 0.441966 1.0089999 4287991941
-0.12845901 0.442399 1.01 4287860609
-0.125856 0.44283199 1.011 4287992195
-0.123247 0.44326499 1.012 4287926399
-0.120156 0.44194701 1.0089999 4287794299
-0.117082 0.44062799 1.006 4287794814
-0.114252 0.44018599 1.005 4287992195
-0.111538 0.440182 1.005 4287992452
-0.108824 0.44017899 1.005 4287860866
-0.106004 0.43973699 1.0039999 4287860866
-0.10319 0.43929499 1.003 4287597437
-0.100582 0.43972999 1.0039999 4287531644
-0.0976763 0.438851 1.002 4287662976
-0.094876103 0.43841001 1.001 4287531648
-0.091989197 0.43753099 0.99900001 4287531394
-0.089291997 0.43752801 0.99900001 4287400062
-0.086594798 0.43752599 0.99900001 4287465855
-0.084065601 0.43839899 1.001 4287597437
-0.0812006 0.43752101 0.99900001 4287334265
-0.078346401 0.436643 0.99699998 4287596920
-0.075427197 0.43532601 0.99400002 4287596920
-0.072743803 0.43532401 0.99400002 4287333748
-0.070060402 0.43532199 0.99400002 4287399541
-0.067309201 0.434883 0.99299997 4287596921
-0.0643683 0.43312901 0.98900002 4287202679
-0.061199401 0.42962399 0.98100001 4287399542
-0.057775401 0.42392901 0.96799999 4287465334
-0.0530538 0.40772399 0.93099999 4287530866
-0.047175001 0.38056999 0.86900002 4287793522
-0.042972099 0.36480299 0.833 4287004008
-0.039892498 0.357357 0.81599998 4287202163
-0.036950801 0.35034901 0.80000001 4287399809
-0.034704398 0.349473 0.79799998 4287005826
-0.032428 0.348158 0.79500002 4284836203
-0.030282101 0.34815699 0.79500002 4284507238
-0.0281008 0.34771901 0.79400003 4284572517
-0.025924999 0.34728 0.79299998 4284572517
-0.0236945 0.34596601 0.79000002 4284375138
-0.021534899 0.34552699 0.78899997 4284506724
-0.0193807 0.34508899 0.78799999 4284243552
-0.017253701 0.34508801 0.78799999 4284769382
-0.0151268 0.34508801 0.78799999 4284440929
-0.0129999 0.34508801 0.78799999 4284440929
-0.0108729 0.34508699 0.78799999 4284309345
-0.0087349303 0.34464899 0.787 4284243297
-0.00661072 0.34464899 0.787 4284244074
-0.00449222 0.34508699 0.78799999 4284441202
-0.00236831 0.345525 0.78899997 4284967293
-0.00023871 0.345525 0.78899997 4287671247
0.0018884999 0.34508699 0.78799999 4287146955
0.00400521 0.34421101 0.78600001 4286091954
0.0061189202 0.34377301 0.78500003 4286353071
0.0082482304 0.34421101 0.78600001 4284841114
0.0103697 0.34421101 0.78600001 4283130237
0.0124754 0.34377399 0.78500003 4283919498
0.0145756 0.34333599 0.78399998 4283854221
0.016713001 0.34377399 0.78500003 4283788173
0.018831899 0.343775 0.78500003 4284183447
0.0209774 0.34421301 0.78600001 4284644770
0.0230696 0.34377599 0.78500003 4284645284
0.025156301 0.34333801 0.78399998 4284645284
0.0272377 0.34290099 0.78299999 4285435055
0.0292763 0.342026 0.78100002 4285171883
0.031384401 0.34202701 0.78100002 4286487741
0.033492502 0.34202701 0.78100002 4286881985
0.035600599 0.34202799 0.78100002 4287145157
0.037757099 0.34246701 0.78200001 4287145157
0.0399189 0.342906 0.78299999 4287144389
0.041925099 0.342031 0.78100002 4286618045
0.043977 0.34159401 0.77999997 4286289080
0.0460825 0.34159499 0.77999997 4286552253
0.0482498 0.342035 0.78100002 4286223034
0.050229199 0.34116 0.77899998 4286091448
0.0523321 0.34116101 0.77899998 4285697460
0.054435 0.34116301 0.77899998 4285763767
0.056465399 0.34072599 0.778 4285697974
0.058565699 0.34072801 0.778 4285566388
0.060666099 0.34073001 0.778 4285697974
0.062685698 0.34029299 0.77700001 4285697972
0.064700097 0.33985701 0.77600002 4285895351
0.066709101 0.339421 0.77499998 4285895353
0.0688015 0.339423 0.77499998 4285763765
0.070802398 0.33898801 0.77399999 4285632179
0.072892196 0.33899 0.77399999 4285500079
0.074982099 0.338992 0.77399999 4285960630
0.077171497 0.33943301 0.77499998 4285828530
0.079264201 0.33943501 0.77499998 4285565358
0.081251897 0.33899999 0.77399999 4285236907
0.083234303 0.33856499 0.773 4285171114
0.085101001 0.33769101 0.77100003 4285237423
0.087183103 0.33769399 0.77100003 4284908972
0.089381002 0.33813599 0.77200001 4284908972
0.091584504 0.338577 0.773 4285172144
0.0937934 0.33901799 0.77399999 4285434800
0.096007697 0.33945999 0.77499998 4285302700
0.097974502 0.339026 0.77399999 4285763504
0.100065 0.33902901 0.77399999 4285893290
0.102024 0.338595 0.773 4283915362
0.104112 0.33860001 0.773 4284243034
0.1062 0.338604 0.773 4283652181
0.108149 0.33816999 0.77200001 4283783252
0.110092 0.33773699 0.77100003 4283980631
0.112175 0.337742 0.77100003 4283716690
0.114258 0.33774701 0.77100003 4284111450
0.116342 0.33775201 0.77100003 4284045659
0.118272 0.33731899 0.76999998 4283914587
0.120353 0.33732501 0.76999998 4283717722
0.122593 0.33776799 0.77100003 4283981146
0.124677 0.33777401 0.77100003 4283783767
0.126596 0.33734199 0.76999998 4283849559
0.128511 0.33691099 0.76899999 4283914838
0.13042 0.33647901 0.76800001 4284046425
0.132497 0.33648601 0.76800001 4284177241
0.13492399 0.33736899 0.76999998 4284177241
0.137006 0.33737701 0.76999998 4283979864
0.139089 0.33738399 0.76999998 4284177241
0.14098801 0.336954 0.76899999 4284309597
0.143068 0.33696201 0.76899999 4283980632
0.14514901 0.33697 0.76899999 4284243804
0.147229 0.336979 0.76899999 4284178011
0.149698 0.33786401 0.77100003 4284309597
0.15198199 0.33831099 0.77200001 4284243550
0.154071 0.338321 0.77200001 4284506722
0.15656599 0.33920699 0.77399999 4284573029
0.16132601 0.34491399 0.787 4284573029
0.17674901 0.37297499 0.85100001 4284507236
0.199884 0.41637799 0.94999999 4284177757
0.20714501 0.426034 0.972 4284506722
0.211073 0.42867801 0.97799999 4284507236
0.21394099 0.429131 0.97899997 4284441443
0.215929 0.42783099 0.97600001 4283321932
0.218798 0.428285 0.977 4281940020
0.221673 0.42873999 0.97799999 4280952095
0.225012 0.43007201 0.98100001 4281017888
0.227672 0.430089 0.98100001 4280425751
0.230097 0.42966801 0.98000002 4280688923
0.23275501 0.42968601 0.98000002 4281083680
0.235414 0.42970401 0.98000002 4280557337
0.238316 0.43016201 0.98100001 4281346852
0.240978 0.43018201 0.98100001 4280623129
0.243641 0.43020201 0.98100001 4280623383
0.246555 0.43066099 0.98199999 4281083934
0.249222 0.430682 0.98199999 4281478692
0.251376 0.429827 0.98000002 4280623382
0.25403899 0.429849 0.98000002 4281478691
0.25644001 0.429434 0.97899997 4281478691
0.25936499 0.429896 0.98000002 4280623897
0.26203001 0.42991999 0.98000002 4280821276
0.264965 0.43038401 0.98100001 4281347620
0.26681501 0.429093 0.97799999 4280361492
0.269476 0.42911899 0.97799999 4281282596
0.27185899 0.428707 0.977 4281282341
0.274519 0.428734 0.977 4280492827
0.276896 0.428323 0.97600001 4280755229
0.27898201 0.42747399 0.97399998 4281348136
0.28134701 0.427064 0.97299999 4281742894
0.283999 0.42709401 0.97299999 4280559134
0.286946 0.427564 0.97399998 4280690718
0.2899 0.42803499 0.97500002 4281348650
0.29225999 0.42762801 0.97399998 4282137911
0.29491901 0.427661 0.97399998 4281348395
0.297272 0.42725599 0.97299999 4281085478
0.29993001 0.42728999 0.97299999 4280427293
0.30227801 0.42688599 0.972 4280755744
0.30462101 0.42648301 0.97100002 4281150757
0.30664301 0.425641 0.96899998 4281808946
0.30897501 0.42524001 0.96799999 4281019430
0.31162399 0.42527801 0.96799999 4280361500
0.31427401 0.425318 0.96799999 4281545776
0.31627101 0.42447901 0.96600002 4282466878
0.31858701 0.424081 0.96499997 4281676846
0.32156599 0.42456201 0.96600002 4280624413
0.32387999 0.42416501 0.96499997 4280756511
0.32585099 0.42333001 0.963 4281480234
0.32815301 0.42293501 0.96200001 4281875762
0.33010799 0.42210099 0.95999998 4281218092
0.332746 0.42214701 0.95999998 4281743408
0.33468699 0.42131501 0.958 4281480234
0.33697 0.42092299 0.95700002 4280954145
0.33889401 0.420093 0.95499998 4281545768
0.341524 0.42014301 0.95499998 4281809199
0.344156 0.420194 0.95499998 4282665024
0.346789 0.42024601 0.95499998 4282138681
0.348326 0.41897899 0.95200002 4281874992
0.35058501 0.418594 0.95099998 4281348648
0.35358301 0.41908899 0.95200002 4280757281
0.356962 0.420026 0.954 4281546027
0.35922301 0.41964301 0.95300001 4281875508
0.361101 0.41882101 0.95099998 4282007094
0.363352 0.418441 0.94999999 4281874739
0.36598399 0.418502 0.94999999 4282137911
0.36822999 0.41812301 0.949 4282533439
0.37008199 0.41730499 0.94700003 4282796611
0.372318 0.41692901 0.94599998 4281940532
0.37455001 0.416554 0.94499999 4280821537
0.37638 0.415739 0.94300002 4281150502
0.37819999 0.41492501 0.94099998 4282598462
0.38082099 0.414994 0.94099998 4283190599
0.38303599 0.41462299 0.94 4282336060
0.38565901 0.41469499 0.94 4282269752
0.38787001 0.414327 0.93900001 4281808685
0.39007801 0.41396001 0.93800002 4280821275
0.392701 0.41403499 0.93800002 4281083933
0.39532599 0.414112 0.93800002 4281347359
0.39837801 0.41463199 0.93900001 4281807910
0.40058401 0.414271 0.93800002 4282334768
0.403216 0.414352 0.93800002 4283123768
0.40541801 0.413993 0.93699998 4281939494
0.40805301 0.41407701 0.93699998 4281149978
0.41112801 0.41460499 0.93800002 4281281819
0.41332999 0.41424999 0.93699998 4281150233
0.41597199 0.41433901 0.93699998 4280360462
0.41817099 0.41398701 0.93599999 4280821013
0.420816 0.41407901 0.93599999 4280952599
0.42346299 0.41417301 0.93599999 4280887061
0.42611399 0.41426799 0.93599999 4280623889
0.42968401 0.41525 0.93800002 4280623887
0.43234599 0.41534901 0.93800002 4280294922
0.43686599 0.41722101 0.94199997 4280360717
0.44001299 0.41776699 0.94300002 4280360717
0.44316801 0.41831499 0.94400001 4280558096
0.44585899 0.418421 0.94400001 4281479198
0.44903001 0.418973 0.94499999 4280755475
0.452209 0.41952699 0.94599998 4280426510
0.45587799 0.420526 0.94800001 4280361231
0.45811099 0.42019701 0.94700003 4280163852
