# .PCD v0.7 - Point Cloud Data file format
VERSION 0.7
FIELDS x y z rgb
SIZE 4 4 4 4
TYPE F F F U
COUNT 1 1 1 1
WIDTH 1108
HEIGHT 1
VIEWPOINT 0 0 0 1 0 0 0
POINTS 1108
DATA ascii
0.49928999 0.375976 0.94599998 4280032013
-0.19908901 0.38233799 0.98199999 4288780680
-0.196436 0.38233399 0.98199999 4288583301
-0.19398101 0.38271999 0.98299998 4288649095
-0.19132601 0.38271701 0.98299998 4288715401
-0.188288 0.381935 0.98100001 4288189057
-0.18526 0.38115299 0.97899997 4288452229
-0.182616 0.38115001 0.97899997 4288452229
-0.18052401 0.38231501 0.98199999 4288649095
-0.177873 0.38231301 0.98199999 4288188544
-0.175221 0.38231099 0.98199999 4288320644
-0.17221799 0.38152999 0.98000002 4288188804
-0.169746 0.38191801 0.98100001 4287925632
-0.167097 0.38191599 0.98100001 4288057986
-0.164617 0.38230401 0.98199999 4287991425
-0.162131 0.38269201 0.98299998 4288057218
-0.159477 0.38269001 0.98299998 4288255364
-0.156505 0.38191101 0.98100001 4288255622
-0.15369999 0.38152099 0.98000002 4287992712
-0.150746 0.380741 0.97799999 4288059534
-0.14780401 0.379962 0.97600001 4286875777
-0.145318 0.38035101 0.977 4288783774
-0.142827 0.38073999 0.97799999 4288850081
-0.14018799 0.380739 0.97799999 4288849567
-0.137408 0.38034999 0.977 4288914843
-0.134909 0.380739 0.97799999 4288717719
-0.132404 0.38112801 0.97899997 4288849305
-0.12963 0.380739 0.97799999 4289111963
-0.12712 0.38112801 0.97899997 4288519826
-0.124605 0.38151801 0.98000002 4288913814
-0.121836 0.381129 0.97899997 4288716435
-0.119072 0.38073999 0.97799999 4288454033
-0.116433 0.38073999 0.97799999 4288848791
-0.113794 0.380741 0.97799999 4289244063
-0.111268 0.38113099 0.97899997 4288915098
-0.108404 0.380353 0.977 4288849305
-0.105767 0.38035399 0.977 4288849050
-0.10292 0.379576 0.97500002 4289440928
-0.100186 0.37918699 0.97399998 4289308572
-0.097657204 0.37957701 0.97500002 4289110931
-0.0951235 0.379967 0.97600001 4287729020
-0.092679098 0.38074699 0.97799999 4288320383
-0.090131797 0.38113701 0.97899997 4288123004
-0.087400399 0.380748 0.97799999 4288255104
-0.084587798 0.379971 0.97600001 4288518536
-0.081869803 0.37958199 0.97500002 4288321415
-0.0791573 0.37919399 0.97399998 4288847759
-0.076607302 0.37958401 0.97500002 4288913300
-0.074051902 0.37997401 0.97600001 4288979093
-0.0714911 0.380364 0.977 4288913554
-0.068854302 0.38036501 0.977 4289044881
-0.066149801 0.37997699 0.97600001 4288386436
-0.063450702 0.37958801 0.97500002 4288452229
-0.060757 0.37920001 0.97399998 4288452229
-0.058128301 0.37920001 0.97399998 4288715401
-0.055499598 0.37920099 0.97399998 4288255365
-0.052870899 0.37920201 0.97399998 4288386183
-0.050190601 0.378813 0.97299999 4288189574
-0.0475646 0.37881401 0.97299999 4287992450
-0.044892401 0.37842599 0.972 4289045138
-0.042268999 0.37842599 0.972 4289045138
-0.039604899 0.37803799 0.97100002 4288914068
-0.0370223 0.37842801 0.972 4288387724
-0.034328099 0.37764901 0.97000003 4289176986
-0.0317428 0.378039 0.97100002 4289045917
-0.0290621 0.37726101 0.96899998 4289111710
-0.0264195 0.376872 0.96799999 4289111710
-0.023806799 0.37687299 0.96799999 4288848538
-0.021150401 0.37609401 0.96600002 4288847768
-0.0185623 0.37648401 0.96700001 4289045401
-0.0159194 0.37570599 0.96499997 4288979354
-0.0133148 0.37570599 0.96499997 4288979354
-0.0107103 0.37570599 0.96499997 4289242526
-0.0081224898 0.37648499 0.96700001 4288914331
-0.00551251 0.37648499 0.96700001 4288848538
-0.0029025299 0.37648499 0.96700001 4289045147
-0.000291648 0.37531701 0.96399999 4288913561
0.0023126299 0.37570599 0.96499997 4288980124
0.0049274 0.37648499 0.96700001 4289045917
0.0075373799 0.37648499 0.96700001 4289045915
0.0101473 0.37648499 0.96700001 4289111963
0.0127573 0.37648499 0.96700001 4289046170
0.0153673 0.37648401 0.96700001 4288914584
0.017958701 0.376095 0.96600002 4288913814
0.0205233 0.37531599 0.96399999 4288979607
0.0231252 0.37531501 0.96399999 4288914068
0.0257804 0.37609401 0.96600002 4288519824
0.028387601 0.376093 0.96600002 4289046168
0.030962801 0.37570301 0.96499997 4288848789
0.0335325 0.375314 0.96399999 4288586133
0.036171801 0.37570199 0.96499997 4288980377
0.0388164 0.376091 0.96600002 4288914329
0.0414236 0.37608999 0.96600002 4288453778
0.043939602 0.37531099 0.96399999 4288782228
0.0464448 0.37453201 0.96200001 4288781714
0.049092099 0.37492001 0.963 4288781714
0.0517448 0.37530899 0.96399999 4288453003
0.054346599 0.37530801 0.96399999 4288716173
0.0569483 0.37530699 0.96399999 4288716173
0.0596117 0.375696 0.96499997 4288585101
0.062280599 0.376084 0.96600002 4288519563
0.064954802 0.37647301 0.96700001 4288322698
0.067424797 0.37569299 0.96499997 4288322699
0.070029102 0.37569299 0.96499997 4288388492
0.072633401 0.37569201 0.96499997 4288585871
0.075315699 0.37608001 0.96600002 4288454031
0.077922702 0.37607899 0.96600002 4288454033
0.080613002 0.376468 0.96700001 4288454547
0.083222702 0.37646699 0.96700001 4288586131
0.085743599 0.376077 0.96600002 4288585617
0.088259101 0.375687 0.96499997 4288585871
0.090769202 0.375296 0.96399999 4288585617
0.093564399 0.37607399 0.96600002 4288453778
0.096171297 0.376073 0.96600002 4288453778
0.098676004 0.37568301 0.96499997 4288322192
0.10128 0.37568301 0.96499997 4288651159
0.103884 0.375682 0.96499997 4288388499
0.106489 0.37568101 0.96499997 4288849305
0.109093 0.37568101 0.96499997 4288388754
0.111813 0.37606901 0.96600002 4288519824
0.114538 0.37645799 0.96700001 4288585617
0.117027 0.37606901 0.96600002 4288651410
0.119758 0.37645701 0.96700001 4288454545
0.122494 0.37684599 0.96799999 4288651924
0.12510601 0.37684599 0.96799999 4288323475
0.127719 0.37684599 0.96799999 4288389268
0.12992699 0.375678 0.96499997 4288849819
0.132394 0.37528899 0.96399999 4288520085
0.134996 0.37528899 0.96399999 4288585878
0.13774 0.375678 0.96499997 4288388499
0.14034501 0.375678 0.96499997 4288651671
0.142801 0.37529001 0.96399999 4287993741
0.145403 0.37529001 0.96399999 4288322706
0.148312 0.37606901 0.96600002 4288388499
0.15092 0.37606999 0.96600002 4288191889
0.152891 0.37451401 0.96200001 4287008137
0.155165 0.37373599 0.95999998 4284769912
0.157592 0.373348 0.95899999 4287467427
0.160849 0.37490699 0.963 4287600781
0.163618 0.37529701 0.96399999 4287862925
0.166566 0.37607801 0.96600002 4287993482
0.169173 0.37607899 0.96600002 4287927689
0.17160399 0.37569201 0.96499997 4288387470
0.17402899 0.375305 0.96399999 4287926919
0.176815 0.375696 0.96499997 4288388238
0.17942099 0.37569901 0.96499997 4288059273
0.18183801 0.375312 0.96399999 4287796103
0.184441 0.37531501 0.96399999 4287796617
0.18723799 0.37570801 0.96499997 4288388499
0.19004101 0.37610099 0.96600002 4288388238
0.192651 0.376104 0.96600002 4287598976
0.19526 0.37610799 0.96600002 4287927426
0.198074 0.37650099 0.96700001 4288190084
0.20068701 0.376506 0.96700001 4288124291
0.203089 0.37612101 0.96600002 4287926912
0.205486 0.37573701 0.96499997 4288057986
0.208094 0.37574199 0.96499997 4286413161
0.210702 0.375747 0.96499997 4286806890
0.213531 0.376142 0.96600002 4286543718
0.215918 0.37575901 0.96499997 4286872169
0.218753 0.37615499 0.96600002 4287793271
0.22159401 0.376551 0.96700001 4287530613
0.22444101 0.37694699 0.96799999 4286149474
0.226824 0.37656501 0.96700001 4287596920
0.22943901 0.376573 0.96700001 4287399541
0.231814 0.37619099 0.96600002 4286938990
0.23491301 0.37697899 0.96799999 4287333488
0.237532 0.37698701 0.96799999 4287662453
0.240647 0.377776 0.97000003 4287201902
0.24302199 0.37739599 0.96899998 4287267695
0.245644 0.377406 0.96899998 4287004523
0.24826799 0.37741601 0.96899998 4286676071
0.25115001 0.37781599 0.97000003 4287004522
0.253777 0.37782699 0.97000003 4287201901
0.256668 0.37822899 0.97100002 4286544485
0.25956601 0.37863001 0.972 4287070830
0.26219901 0.37864301 0.972 4287334262
0.264561 0.37826601 0.97100002 4287268469
0.266918 0.37788999 0.97000003 4287136883
0.26982501 0.37829399 0.97100002 4287268469
0.27245799 0.378308 0.97100002 4287071603
0.27480799 0.37793401 0.97000003 4287071856
0.277154 0.37755999 0.96899998 4286874217
0.27978301 0.37757599 0.96899998 4286546269
0.28241301 0.377592 0.96899998 4286809437
0.28592601 0.37877801 0.972 4286545259
0.28856599 0.37879601 0.972 4286611050
0.29150501 0.37920401 0.97299999 4286611045
0.29324201 0.37805399 0.97000003 4286282080
0.29618299 0.378463 0.97100002 4286676839
0.29851499 0.378093 0.97000003 4286807910
0.30115199 0.37811401 0.97000003 4287070840
0.30347699 0.37774599 0.96899998 4287137396
0.30611399 0.377767 0.96899998 4287400308
0.30906999 0.37818 0.97000003 4287268722
0.311389 0.37781301 0.96899998 4286939504
0.31402799 0.377837 0.96899998 4287202930
0.316342 0.37747201 0.96799999 4287137396
0.31898001 0.37749699 0.96799999 4287071603
0.321951 0.377913 0.96899998 4287335028
0.324929 0.37832999 0.97000003 4287137649
0.32690001 0.37757701 0.96799999 4287137649
0.32954201 0.37760499 0.96799999 4287137649
0.33149901 0.376854 0.96600002 4287005550
0.33448401 0.37727401 0.96700001 4287399794
0.33677801 0.37691399 0.96600002 4286939757
0.33941901 0.37694499 0.96600002 4286808171
0.342415 0.377368 0.96700001 4287070829
0.34470499 0.37700999 0.96600002 4287005550
0.34734899 0.37704399 0.96600002 4286544999
0.34999499 0.377078 0.96600002 4287136876
0.35227701 0.37672299 0.96499997 4286611036
0.354188 0.37597901 0.963 4286677851
0.35645899 0.37562501 0.96200001 4286940262
0.359099 0.37566301 0.96200001 4286414187
0.36174101 0.37570199 0.96200001 4286217323
0.364005 0.37535101 0.96100003 4286020204
0.366265 0.37500101 0.95999998 4286020457
0.36852199 0.374652 0.95899999 4286151529
0.370774 0.374304 0.958 4285757529
0.37341201 0.37434801 0.958 4286085483
0.37565899 0.374001 0.95700002 4285361760
0.37869301 0.37443799 0.958 4285822562
0.38054001 0.37370199 0.95599997 4285822564
0.38317999 0.37375 0.95599997 4285822050
0.38541701 0.37340701 0.95499998 4286151015
0.38805699 0.37345701 0.95499998 4285820776
0.390699 0.37350699 0.95499998 4285952615
0.39375499 0.37395 0.95599997 4285755488
0.395574 0.37322101 0.954 4285887074
0.397802 0.37288299 0.95300001 4285360985
0.40002599 0.372547 0.95200002 4285097813
0.40266901 0.372603 0.95200002 4284966227
0.40488899 0.372269 0.95099998 4285032018
0.40667599 0.371544 0.949 4284571467
0.40845501 0.370821 0.94700003 4284768848
0.41196099 0.371665 0.949 4284966227
0.41460699 0.37172699 0.949 4284309326
0.41725501 0.37178999 0.949 4284177740
0.41990501 0.37185499 0.949 4283980107
0.42255801 0.371921 0.949 4283387970
0.42521301 0.371988 0.949 4281348389
0.42787001 0.37205601 0.949 4280164115
0.43007699 0.37173399 0.94800001 4280822043
0.43273699 0.37180501 0.94800001 4280097806
0.43494001 0.37148499 0.94700003 4280163599
0.43806499 0.371952 0.94800001 4279768841
0.440732 0.37202701 0.94800001 4279834380
0.44340301 0.37210399 0.94800001 4279768588
0.44513601 0.37139699 0.94599998 4279768588
0.44733301 0.371084 0.94499999 4279637002
0.44952801 0.37077299 0.94400001 4279637002
0.45219901 0.370855 0.94400001 4279768587
0.454873 0.37093899 0.94400001 4279637255
0.45754999 0.371025 0.94400001 4279768841
0.45974201 0.37071899 0.94300002 4279703048
0.462423 0.37080801 0.94300002 4279768841
0.46412101 0.37011099 0.94099998 4279636487
0.467794 0.37099001 0.94300002 4279702280
0.47098401 0.37147701 0.94400001 4279636484
0.47468501 0.37235999 0.94599998 4279768070
0.477391 0.372457 0.94599998 4279702277
0.47959301 0.372163 0.94499999 4279768325
0.48179299 0.37187001 0.94400001 4279768325
0.484505 0.37197199 0.94400001 4279702532
0.48773599 0.372471 0.94499999 4279702532
0.490978 0.372971 0.94599998 4279899654
0.49318501 0.37268499 0.94499999 4279899911
0.49696401 0.373584 0.94700003 4279702532
0.499176 0.37330201 0.94599998 4279965704
-0.198071 0.377747 0.977 4288123265
-0.19543201 0.37774399 0.977 4288123265
-0.192794 0.37774 0.977 4288386437
-0.189961 0.37735099 0.97600001 4288057472
-0.187133 0.37696099 0.97500002 4287991679
-0.18449999 0.376959 0.97500002 4288123265
-0.18168101 0.376569 0.97399998 4287991678
-0.179419 0.37733999 0.97600001 4288123265
-0.176965 0.37772501 0.977 4288254851
-0.174327 0.37772301 0.977 4288254851
-0.171689 0.37772101 0.977 4288386183
-0.16922501 0.37810701 0.97799999 4287926148
-0.166585 0.37810501 0.97799999 4288255367
-0.163945 0.378104 0.97799999 4288189320
-0.16113999 0.377716 0.977 4288386699
-0.158503 0.37771499 0.977 4288189574
-0.155387 0.376555 0.97399998 4288255624
-0.152601 0.37616801 0.97299999 4288125329
-0.149821 0.375781 0.972 4288125843
-0.147349 0.376167 0.97299999 4287665807
-0.14487199 0.376553 0.97399998 4288653216
-0.142243 0.376553 0.97399998 4288981153
-0.139328 0.37577999 0.972 4289046431
-0.136704 0.37577999 0.972 4289045915
-0.13408101 0.37577999 0.972 4289178015
-0.131593 0.376167 0.97299999 4289243808
-0.128967 0.376167 0.97299999 4288651673
-0.126471 0.37655401 0.97399998 4288980122
-0.123843 0.376555 0.97399998 4289045401
-0.121214 0.376555 0.97399998 4288782228
-0.118342 0.375783 0.972 4288650642
-0.115719 0.375783 0.972 4288782228
-0.113096 0.37578401 0.972 4289572512
-0.110587 0.37617099 0.97299999 4288848789
-0.10785 0.37578601 0.972 4288717719
-0.105119 0.37540001 0.97100002 4289111708
-0.102393 0.37501401 0.97000003 4289177501
-0.099672101 0.37462801 0.96899998 4289045400
-0.097057097 0.37462899 0.96899998 4288321415
-0.094539598 0.37501699 0.97000003 4287926400
-0.092111401 0.37579101 0.972 4288056957
-0.089488298 0.375792 0.972 4288188797
-0.086954497 0.37617999 0.97299999 4288321157
-0.084155403 0.37540701 0.97100002 4288715915
-0.0815349 0.37540901 0.97100002 4288453001
-0.078751899 0.37463599 0.96899998 4288716173
-0.076293997 0.375411 0.97100002 4289045140
-0.073597603 0.375025 0.97000003 4288716175
-0.071052901 0.375413 0.97100002 4288913552
-0.068361901 0.375027 0.97000003 4288847501
-0.065676302 0.374641 0.96899998 4287925885
-0.062996097 0.37425601 0.96799999 4288518022
-0.060321201 0.37386999 0.96700001 4288320643
-0.0577114 0.373871 0.96700001 4288583815
-0.0551016 0.37387201 0.96700001 4288452230
-0.052491799 0.373873 0.96700001 4288255365
-0.049933501 0.37426001 0.96799999 4288189572
-0.047320899 0.37426099 0.96799999 4287992450
-0.0446622 0.37387499 0.96700001 4288058243
-0.041965298 0.37310299 0.96499997 4287597692
-0.039360799 0.37310299 0.96499997 4287927171
-0.036756299 0.37310401 0.96499997 4288190345
-0.034116302 0.37271801 0.96399999 4287795333
-0.031514499 0.37271899 0.96399999 4287269506
-0.0288826 0.37233201 0.963 4287730057
-0.0263108 0.37272 0.96399999 4287861641
-0.0237089 0.37272 0.96399999 4287993227
-0.0210851 0.372334 0.963 4287926920
-0.0184859 0.372334 0.963 4288058505
-0.015853699 0.37156099 0.96100003 4288124299
-0.0132599 0.371562 0.96100003 4288518803
-0.010655 0.37117499 0.95999998 4288321678
-0.0080806296 0.37194899 0.96200001 4288058506
-0.0054841102 0.37194899 0.96200001 4288716436
-0.0028845801 0.371562 0.96100003 4288650643
-0.00029013999 0.37078899 0.95899999 4288716435
0.0022982899 0.37078899 0.95899999 4288979607
0.0048918198 0.37117499 0.95999998 4288585619
0.0074829501 0.37117499 0.95999998 4288980377
0.0100636 0.37078899 0.95899999 4288848791
0.0126652 0.37117499 0.95999998 4288980377
0.0152881 0.371948 0.96200001 4288914584
0.017884601 0.371948 0.96200001 4289242779
0.0204385 0.37117401 0.95999998 4288979607
0.023005599 0.37078699 0.95899999 4288650896
0.025594 0.37078601 0.95899999 4288914068
0.0282118 0.37117299 0.95999998 4288782482
0.030770799 0.370785 0.95899999 4288585619
0.033324301 0.37039801 0.958 4288651673
0.035909999 0.37039801 0.958 4288716950
0.038575999 0.37117001 0.95999998 4288914329
0.041124102 0.370783 0.95899999 4288782743
0.0437124 0.37078199 0.95899999 4288848275
0.046204198 0.37000799 0.95700002 4288519310
0.048889 0.370781 0.95899999 4288716689
0.051477298 0.37077999 0.95899999 4288781968
0.054065499 0.37077901 0.95899999 4288453001
0.0565947 0.37039101 0.958 4288781966
0.059303701 0.37116399 0.95999998 4288716687
0.061894599 0.37116301 0.95999998 4288454285
0.064418301 0.37077501 0.95899999 4288256906
0.066866703 0.37000099 0.95700002 4288520078
0.069449499 0.37 0.95700002 4288388492
0.072107501 0.370386 0.958 4288388238
0.074848801 0.371158 0.95999998 4288388240
0.077358998 0.37077001 0.95899999 4288454033
0.079947099 0.37076899 0.95899999 4288520340
0.082535103 0.37076801 0.95899999 4288586131
0.085123204 0.370767 0.95899999 4288717457
0.087619796 0.37038001 0.958 4288191113
0.090205103 0.370379 0.958 4288388238
0.092887297 0.37076399 0.95899999 4288124813
0.095475301 0.370763 0.95899999 4288585364
0.097961098 0.37037599 0.958 4288519573
0.100441 0.36998799 0.95700002 4288651159
0.103024 0.36998701 0.95700002 4288454547
0.105607 0.36998701 0.95700002 4288454545
0.108415 0.37075901 0.95899999 4288717719
0.111119 0.37114501 0.95999998 4288454545
0.11371 0.371144 0.95999998 4288388752
0.116422 0.37153 0.96100003 4288651924
0.119139 0.371916 0.96200001 4288717717
0.121862 0.372302 0.963 4288389266
0.12446 0.372302 0.963 4288258196
0.12679499 0.371528 0.96100003 4288323989
0.129254 0.37114099 0.95999998 4288455576
0.131708 0.370754 0.95899999 4288389269
0.134436 0.37114099 0.95999998 4288784027
0.137027 0.37114099 0.95999998 4288455062
0.13961799 0.37114099 0.95999998 4288454292
0.14206 0.370754 0.95899999 4289046429
0.144649 0.370754 0.95899999 4288849050
0.147544 0.371528 0.96100003 4288520340
0.15029401 0.37191501 0.96200001 4288191889
0.15241399 0.370756 0.95899999 4287337608
0.15451699 0.36959699 0.95599997 4285891731
0.15676901 0.36882401 0.954 4287600024
0.15984499 0.36998501 0.95700002 4287863953
0.162598 0.37037301 0.958 4287929483
0.165529 0.37114701 0.95999998 4288256654
0.16829599 0.371535 0.96100003 4287927689
0.17071301 0.37114999 0.95999998 4288256138
0.173124 0.37076601 0.95899999 4287796101
0.175713 0.370767 0.95899999 4287730562
0.17811701 0.37038299 0.958 4287730561
0.18051501 0.36999899 0.95700002 4287533443
0.183099 0.37000099 0.95700002 4287862410
0.18607099 0.37077701 0.95899999 4288388754
0.18866099 0.37077999 0.95899999 4287927689
0.19125099 0.37078401 0.95899999 4287532929
0.194043 0.37117401 0.95999998 4287861633
0.196841 0.371564 0.96100003 4287861119
0.19943701 0.37156799 0.96100003 4287926912
0.201823 0.371185 0.95999998 4288190084
0.20420399 0.370803 0.95899999 4288255364
0.207011 0.37119499 0.95999998 4286675818
0.209823 0.37158599 0.96100003 4286674788
0.212641 0.37197801 0.96200001 4286740067
0.215241 0.371984 0.96200001 4287134825
0.218068 0.37237599 0.963 4287332720
0.220671 0.37238199 0.963 4287267442
0.22327401 0.37238899 0.963 4286807405
0.22611301 0.37278199 0.96399999 4287728507
0.228957 0.37317601 0.96499997 4287531642
0.231087 0.37241101 0.963 4286873197
0.233449 0.37203199 0.96200001 4287136369
0.236296 0.37242699 0.963 4287925625
0.23915 0.37282199 0.96399999 4287399795
0.241758 0.37283099 0.96399999 4287070316
0.244367 0.37283999 0.96399999 4287201902
0.247233 0.37323701 0.96499997 4286939244
0.25010401 0.37363401 0.96600002 4286675818
0.25271901 0.37364501 0.96600002 4286741611
0.25560001 0.374042 0.96700001 4286282087
0.258753 0.37482801 0.96899998 4286742383
0.26137799 0.37483999 0.96899998 4286939505
0.26345801 0.37407801 0.96700001 4286742126
0.26580399 0.37370399 0.96600002 4286807919
0.26842201 0.37371799 0.96600002 4286676332
0.27132201 0.374118 0.96700001 4286808172
0.27366 0.37374601 0.96600002 4286939757
0.27570799 0.372987 0.96399999 4286940010
0.27832401 0.37300199 0.96399999 4286808424
0.28123099 0.37340501 0.96499997 4286808424
0.284733 0.37458199 0.96799999 4286874218
0.28736001 0.37459901 0.96799999 4286611046
0.29028901 0.37500399 0.96899998 4286874217
0.29231599 0.374248 0.96700001 4287006057
0.294943 0.37426701 0.96700001 4286743391
0.29726401 0.37389901 0.96600002 4286874722
0.29989001 0.37391901 0.96600002 4287202930
0.302517 0.37393901 0.96600002 4286808429
0.30514401 0.37395999 0.96600002 4286874477
0.308092 0.374369 0.96700001 4286939757
0.31040201 0.37400499 0.96600002 4287005297
0.313032 0.374028 0.96600002 4287005551
0.31501001 0.37327701 0.96399999 4286742125
0.31796601 0.373689 0.96499997 4286807918
0.32092899 0.37410101 0.96600002 4286939757
0.32423201 0.37490201 0.96799999 4286611305
0.32653499 0.37454101 0.96700001 4286611303
0.32883301 0.374181 0.96600002 4287071854
0.33112699 0.37382099 0.96499997 4286939757
0.33376199 0.37384999 0.96499997 4287202929
0.33639899 0.37388 0.96499997 4287202929
0.33903599 0.37391001 0.96499997 4287071344
0.34202901 0.374329 0.96600002 4287137136
0.34431499 0.37397301 0.96499997 4287202676
0.34695601 0.374006 0.96499997 4287268462
0.34923601 0.37365201 0.96399999 4287333740
0.351877 0.373687 0.96399999 4287400551
0.35415101 0.37333399 0.963 4287532644
0.35642201 0.37298301 0.96200001 4286677092
0.359061 0.37301999 0.96200001 4286611045
0.36132601 0.37266999 0.96100003 4286545257
0.36358601 0.37232101 0.95999998 4286413673
0.365843 0.37197301 0.95899999 4286018915
0.36809599 0.37162501 0.958 4286808431
0.37034401 0.371279 0.95700002 4286347880
0.37336901 0.37170899 0.958 4286084448
0.37600699 0.37175301 0.958 4286347621
0.377857 0.371021 0.95599997 4286150248
0.37969801 0.37029001 0.954 4285887327
0.38192999 0.369948 0.95300001 4285953875
0.38456199 0.36999601 0.95300001 4286019166
0.388008 0.37081999 0.95499998 4286149988
0.39024001 0.370482 0.954 4286149988
0.39246801 0.37014401 0.95300001 4286018402
0.394692 0.369807 0.95200002 4285821023
0.39691299 0.36947101 0.95099998 4286084706
0.39997101 0.369914 0.95200002 4286084708
0.40261301 0.36996901 0.95200002 4286084708
0.40483099 0.369636 0.95099998 4286282087
0.40618899 0.368527 0.94800001 4286018913
0.40839499 0.36819699 0.94700003 4285558362
0.41103199 0.368256 0.94700003 4285163604
0.41410801 0.36870599 0.94800001 4285493085
0.41587299 0.36798999 0.94599998 4285427806
0.418513 0.36805299 0.94599998 4284967256
0.41982099 0.36695001 0.94300002 4285033049
0.42290601 0.367405 0.94400001 4285163865
0.42464599 0.36669299 0.94199997 4283979339
0.428193 0.36754 0.94400001 4283847746
0.43083999 0.36760899 0.94400001 4283058230
0.43303099 0.367291 0.94300002 4283255609
0.43660399 0.36814201 0.94499999 4281742370
0.43879801 0.36782601 0.94400001 4281544736
0.44192299 0.36829099 0.94499999 4281676838
0.44317499 0.36719799 0.94199997 4281347619
0.445833 0.36727601 0.94199997 4279769616
0.44754201 0.36657599 0.94 4280624666
0.450679 0.36704701 0.94099998 4280229908
0.453343 0.367129 0.94099998 4280492562
0.45697901 0.367993 0.94300002 4280426771
0.45916799 0.36768901 0.94199997 4280360978
0.462825 0.36855701 0.94400001 4280295185
0.46403 0.36747399 0.94099998 4280557589
0.46671 0.36756399 0.94099998 4280754968
0.469394 0.36765599 0.94099998 4280163085
0.47358501 0.368922 0.94400001 4280163085
0.476789 0.36940899 0.94499999 4280294412
0.478479 0.36872399 0.94300002 4280294924
0.480672 0.36843199 0.94199997 4280623889
0.48388901 0.36892399 0.94300002 4280689680
0.48763201 0.369809 0.94499999 4281150486
0.49087101 0.370305 0.94599998 4280755473
0.493076 0.37002 0.94499999 4281150486
0.495805 0.37012899 0.94499999 4280360717
0.497482 0.36945501 0.94300002 4280952601
-0.199679 0.37318701 0.972 4288255624
-0.197257 0.373568 0.97299999 4288255622
-0.194429 0.37318099 0.972 4288189574
-0.192001 0.37356201 0.97299999 4288254597
-0.18898501 0.37279099 0.97100002 4288254597
-0.186363 0.372789 0.97100002 4288254851
-0.183741 0.372787 0.97100002 4288255367
-0.180933 0.372401 0.97000003 4288189572
-0.178681 0.37316701 0.972 4288057986
-0.176238 0.37354901 0.97299999 4287860607
-0.17378999 0.37393099 0.97399998 4287729023
-0.171161 0.37393001 0.97399998 4287794562
-0.168705 0.374313 0.97500002 4287926149
-0.16607299 0.37431201 0.97500002 4288057735
-0.16310599 0.37354299 0.97299999 4288123531
-0.16031399 0.37315801 0.972 4287926152
-0.157529 0.372774 0.97100002 4288386956
-0.154429 0.371622 0.96799999 4287927436
-0.15166 0.37123701 0.96700001 4287927695
-0.149204 0.37162101 0.96799999 4286875777
-0.147046 0.37277299 0.97100002 4288718495
-0.14427701 0.37238899 0.97000003 4288586909
-0.141513 0.37200499 0.96899998 4288981152
-0.138754 0.37162101 0.96799999 4288980638
-0.13642301 0.37238899 0.97000003 4289111708
-0.13353001 0.371622 0.96799999 4289111708
-0.131053 0.372006 0.96899998 4289243296
-0.128305 0.37162301 0.96799999 4288914331
-0.12569299 0.37162399 0.96799999 4289440673
-0.123208 0.372008 0.96899998 4289176987
-0.120468 0.37162501 0.96799999 4288913814
-0.117856 0.37162599 0.96799999 4289045140
-0.115244 0.371627 0.96799999 4289308826
-0.112515 0.37124401 0.96700001 4289506205
-0.109906 0.371245 0.96700001 4289111961
-0.107074 0.370478 0.96499997 4289309342
-0.10447 0.37047899 0.96499997 4289243294
-0.101866 0.37048 0.96499997 4289374365
-0.099364497 0.37086499 0.96600002 4288781714
-0.0966575 0.370482 0.96499997 4287991679
-0.094150797 0.37086701 0.96600002 4288123264
-0.091543898 0.37086901 0.96600002 4288123264
-0.088844903 0.37048599 0.96499997 4288386436
-0.086329997 0.37087101 0.96600002 4288321670
-0.083636403 0.37048799 0.96499997 4288519049
-0.081116103 0.370873 0.96600002 4289045138
-0.078346603 0.37010601 0.96399999 4288979345
-0.075823598 0.37049201 0.96499997 4288847761
-0.0731434 0.37010899 0.96399999 4288847759
-0.070614897 0.37049401 0.96499997 4288782221
-0.067940101 0.37011099 0.96399999 4288715915
-0.0653385 0.370112 0.96399999 4288123264
-0.062671699 0.36972901 0.963 4288123265
-0.060010299 0.36934599 0.96200001 4288123265
-0.057413999 0.36934701 0.96200001 4288451716
-0.054760601 0.36896399 0.96100003 4287860092
-0.052221201 0.369349 0.96200001 4288386436
-0.049573299 0.36896601 0.96100003 4287662713
-0.046979599 0.368967 0.96100003 4288123778
-0.044339702 0.36858401 0.95999998 4287992705
-0.041705102 0.36820099 0.95899999 4288058243
-0.0391168 0.368202 0.95899999 4287860866
-0.036528401 0.36820301 0.95899999 4288321417
-0.033869199 0.36743501 0.95700002 4287663494
-0.031286199 0.36743599 0.95700002 4287729288
-0.0286732 0.367053 0.95599997 4288453010
-0.0261475 0.36782101 0.958 4288716436
-0.023611 0.36859 0.95999998 4288650643
-0.020997901 0.36820599 0.95899999 4288518542
-0.0183711 0.367439 0.95700002 4288781714
-0.015755 0.366671 0.95499998 4288584335
-0.0131636 0.36628699 0.954 4288715922
-0.0106108 0.36705601 0.95599997 4288715921
-0.00803879 0.36743999 0.95700002 4288781714
-0.00545571 0.36743999 0.95700002 4288584589
-0.00286963 0.36705601 0.95599997 4288255624
-0.00028833101 0.365904 0.95300001 4288255624
0.0022863599 0.36628801 0.954 4288058243
0.0048613399 0.36628801 0.954 4287400829
0.00743633 0.36628801 0.954 4287466622
0.0100113 0.36628801 0.954 4288125066
0.0125995 0.366671 0.95499998 4288190859
0.0152089 0.367439 0.95700002 4288190345
0.017792 0.367439 0.95700002 4288321931
0.0203325 0.36667001 0.95499998 4288321163
0.022886099 0.36628601 0.954 4288255370
0.0254611 0.36628601 0.954 4288123784
0.028036 0.366285 0.954 4288255370
0.030546701 0.36551601 0.95200002 4288255371
0.033151001 0.36590001 0.95300001 4288255885
0.035723198 0.365899 0.95300001 4288387470
0.038335599 0.36628199 0.954 4288585103
0.040867601 0.36589801 0.95300001 4288519310
0.043485299 0.366281 0.954 4288518794
0.046011899 0.36589599 0.95300001 4288847759
0.048634999 0.36627901 0.954 4289242519
0.0511561 0.36589399 0.95300001 4288781968
0.0537282 0.36589301 0.95300001 4288650382
0.056359299 0.366276 0.954 4288584589
0.058995798 0.36665899 0.95499998 4288650896
0.0616377 0.36704201 0.95599997 4288650896
0.064083502 0.36627299 0.954 4288651410
0.066518404 0.365504 0.95200002 4288585871
0.069087699 0.36550301 0.95200002 4288848273
0.071732201 0.365886 0.95300001 4288914066
0.074382097 0.36626899 0.954 4288716689
0.076956697 0.36626801 0.954 4288848275
0.079364598 0.36549899 0.95200002 4288716689
0.081847697 0.36511299 0.95099998 4288848275
0.084502898 0.36549601 0.95200002 4288979859
0.0871635 0.365879 0.95300001 4288848273
0.089923702 0.36664599 0.95499998 4288520078
0.092500903 0.36664501 0.95499998 4288651412
0.095078103 0.36664301 0.95499998 4289111963
0.097553 0.366258 0.954 4288782998
0.099917598 0.36548901 0.95200002 4288716950
0.102379 0.365105 0.95099998 4288454033
0.104945 0.36510301 0.95099998 4288585617
0.107738 0.36587 0.95300001 4288586133
0.110425 0.36625299 0.954 4288651924
0.112881 0.365868 0.95300001 4288717719
0.115695 0.36663499 0.95499998 4288388754
0.11852 0.36740199 0.95700002 4288651926
0.121229 0.36778599 0.958 4288388754
0.123685 0.367401 0.95700002 4288389269
0.125872 0.366249 0.954 4288586648
0.128447 0.36624801 0.954 4288257683
0.13088401 0.36586401 0.95300001 4288520601
0.133596 0.366247 0.954 4288586648
0.13617 0.366247 0.954 4288520085
0.139036 0.36701399 0.95599997 4288585878
0.141468 0.36662999 0.95499998 4288454292
0.144196 0.36701399 0.95599997 4288454547
0.147083 0.367782 0.958 4288191120
0.14998101 0.36855 0.95999998 4288716435
0.15193599 0.367015 0.95599997 4286350460
0.15403201 0.365863 0.95300001 4286087289
0.15644 0.36548001 0.95200002 4287534230
0.159343 0.36624801 0.954 4287797906
0.161918 0.366249 0.954 4287994771
0.164666 0.36663401 0.95499998 4288125580
0.167419 0.367019 0.95599997 4288257166
0.17 0.36702001 0.95599997 4288519310
0.1724 0.366638 0.95499998 4288255884
0.174978 0.36664 0.95499998 4287598206
0.177371 0.36625701 0.954 4287795840
0.179758 0.36587599 0.95300001 4287861894
0.18213999 0.36549401 0.95200002 4287533443
0.18509801 0.36626399 0.954 4288585619
0.187675 0.366267 0.954 4288322447
0.19025099 0.36626899 0.954 4287401343
0.193029 0.36665601 0.95499998 4287992964
0.195814 0.367044 0.95599997 4288059012
0.198396 0.36704701 0.95599997 4288059012
0.20076799 0.366667 0.95499998 4287992450
0.203135 0.36628699 0.954 4287729278
0.205928 0.36667499 0.95499998 4286872683
0.208508 0.36668 0.95499998 4286675294
0.211531 0.36745301 0.95700002 4287003998
0.21411701 0.36745799 0.95700002 4287069032
0.216703 0.36746299 0.95700002 4287727478
0.219061 0.36708501 0.95599997 4287136369
0.222109 0.36785901 0.958 4287531642
0.224933 0.368249 0.95899999 4287729021
0.227763 0.36864001 0.95999998 4287597435
0.230119 0.36826301 0.95899999 4286478954
0.232713 0.36827001 0.95899999 4287662713
0.23530699 0.368278 0.95899999 4287728506
0.238149 0.36866999 0.95999998 4287531381
0.24074601 0.368678 0.95999998 4287465587
0.24334399 0.368687 0.95999998 4287136622
0.246198 0.36908099 0.96100003 4287202416
0.248799 0.36908999 0.96100003 4286938990
0.25140101 0.3691 0.96100003 4286807918
0.25426701 0.369495 0.96200001 4286347880
0.25793999 0.37104201 0.96600002 4286742889
0.260557 0.37105301 0.96600002 4287794310
0.26290101 0.37068099 0.96499997 4287662727
0.264965 0.36992499 0.963 4287400313
0.26785299 0.37032199 0.96399999 4287334520
0.27074701 0.37071899 0.96499997 4287268982
0.27307999 0.37034899 0.96399999 4287137137
0.27512199 0.36959499 0.96200001 4286742378
0.277731 0.36961001 0.96200001 4287137136
0.28063199 0.37000901 0.963 4287202929
0.28383401 0.37079301 0.96499997 4287137649
0.28645301 0.37080899 0.96499997 4286677096
0.28907299 0.37082601 0.96499997 4286742889
0.291693 0.37084401 0.96499997 4287137902
0.29431501 0.37086201 0.96499997 4286677351
0.296321 0.370112 0.963 4286479460
0.29893899 0.37013099 0.963 4286873965
0.301557 0.37015101 0.963 4287005810
0.304492 0.37055501 0.96399999 4287203189
0.30743301 0.37096101 0.96499997 4287268469
0.309416 0.37021399 0.963 4286873969
0.31171301 0.36985099 0.96200001 4287005555
0.31433299 0.369874 0.96200001 4287005810
0.317283 0.37028301 0.963 4286874224
0.32023901 0.370691 0.96399999 4287005550
0.32320201 0.37110099 0.96499997 4287005804
0.32583299 0.37112701 0.96499997 4286940010
0.328125 0.37076899 0.96399999 4287137390
0.33041301 0.37041101 0.963 4287071601
0.33269599 0.37005499 0.96200001 4287005808
0.33567199 0.37046799 0.963 4286742636
0.338303 0.37049699 0.963 4287137649
0.34093601 0.37052801 0.963 4287005804
0.34321299 0.37017399 0.96200001 4286808676
0.34584501 0.370206 0.96200001 4287202668
0.34884 0.37062299 0.963 4286938990
0.35111299 0.37027201 0.96200001 4287005804
0.35338101 0.369921 0.96100003 4286940010
0.355645 0.36957201 0.95999998 4287203693
0.35865101 0.369993 0.96100003 4287006314
0.360912 0.36964399 0.95999998 4286611305
0.36354801 0.36968201 0.95999998 4286545257
0.36542201 0.36895099 0.958 4286150499
0.36728701 0.36822 0.95599997 4286479466
0.36952901 0.36787501 0.95499998 4286479466
0.372547 0.36830199 0.95599997 4286611052
0.375572 0.36873001 0.95700002 4286610539
0.37781301 0.368388 0.95599997 4286676585
0.37965301 0.367661 0.954 4286479460
0.38148299 0.366936 0.95200002 4286741864
0.38411099 0.36698201 0.95200002 4286742378
0.38714701 0.36741501 0.95300001 4286610793
0.389781 0.36746299 0.95300001 4286807918
0.392005 0.367127 0.95200002 4286347367
0.393812 0.36640599 0.94999999 4286741611
0.39644301 0.366458 0.94999999 4286084188
0.399497 0.366896 0.95099998 4286347360
0.401712 0.36656401 0.94999999 4286018141
0.40392399 0.36623299 0.949 4286150495
0.40527499 0.36513099 0.94599998 4285821529
0.40747499 0.364802 0.94499999 4286151256
0.41010499 0.36486 0.94499999 4285887831
0.413174 0.36530599 0.94599998 4285887835
0.415371 0.36498001 0.94499999 4285953373
0.41756499 0.364656 0.94400001 4285492824
0.41886601 0.36355999 0.94099998 4285755996
0.421496 0.36362401 0.94099998 4285624155
0.42367801 0.36330301 0.94 4285689948
0.42721701 0.36414301 0.94199997 4285032273
0.42940101 0.36382401 0.94099998 4285295445
0.431582 0.363507 0.94 4285032273
0.43468401 0.36396399 0.94099998 4284965972
0.4364 0.36326301 0.93900001 4284900434
0.43950999 0.36372301 0.94 4284965974
0.44074699 0.36263701 0.93699998 4284965981
0.444336 0.36348701 0.93900001 4283651150
0.446035 0.362791 0.93699998 4283585610
0.44916201 0.36325699 0.93800002 4281744426
0.45181599 0.36333799 0.93800002 4281677868
0.45495701 0.36380699 0.93900001 4281677606
0.45761999 0.36389101 0.93900001 4281545505
0.46126699 0.36475199 0.94099998 4281809191
0.463449 0.36445099 0.94 4282663733
0.465628 0.36415201 0.93900001 4282729526
0.467307 0.36346701 0.93699998 4282992951
0.47148499 0.36472201 0.94 4283256123
0.47518 0.365592 0.94199997 4283913284
0.47736701 0.36529899 0.94099998 4283584574
0.47955301 0.365008 0.94 4284045123
0.48276201 0.365495 0.94099998 4284045123
0.48752901 0.36715001 0.94499999 4284045627
0.491285 0.36803001 0.94700003 4284242757
0.49296999 0.367358 0.94499999 4284045378
0.49517199 0.36707601 0.94400001 4285097813
0.497372 0.366795 0.94300002 4283913539
-0.19905999 0.369414 0.96899998 4289506466
-0.196646 0.36979201 0.97000003 4289506721
-0.19402599 0.36978999 0.97000003 4289440159
-0.191012 0.36902499 0.96799999 4289505438
-0.18800899 0.36826 0.96600002 4289373851
-0.18559299 0.36863899 0.96700001 4289044887
-0.183171 0.36901799 0.96799999 4289110680
-0.180371 0.368635 0.96700001 4289110679
-0.177761 0.36863399 0.96700001 4288584849
-0.17515001 0.36863199 0.96700001 4288519056
-0.17253999 0.36863101 0.96700001 4288518542
-0.170105 0.36901101 0.96799999 4288189578
-0.167665 0.36939201 0.96899998 4288386703
-0.165391 0.37015301 0.97100002 4288255117
-0.162267 0.36900899 0.96799999 4288386704
-0.15932401 0.36824599 0.96600002 4288057738
-0.15639301 0.367484 0.96399999 4288189578
-0.153631 0.367102 0.963 4287861388
-0.150876 0.366721 0.96200001 4287007363
-0.14874201 0.367865 0.96499997 4288060565
-0.14644 0.36862701 0.96700001 4288981667
-0.14353301 0.367865 0.96499997 4289046946
-0.140783 0.36748499 0.96399999 4289112224
-0.13832501 0.36786601 0.96499997 4289440675
-0.136283 0.36939201 0.96899998 4289440675
-0.13353001 0.36901101 0.96799999 4289177501
-0.13078301 0.36863101 0.96700001 4288980638
-0.127776 0.367488 0.96399999 4289967278
-0.125044 0.367107 0.963 4290032810
-0.122446 0.36710799 0.963 4289177501
-0.120096 0.367872 0.96499997 4289045400
-0.117492 0.36787301 0.96499997 4289045654
-0.114769 0.367493 0.96399999 4289440412
-0.112051 0.36711299 0.963 4289045654
-0.109338 0.36673301 0.96200001 4288980375
-0.106631 0.36635301 0.96100003 4289440928
-0.10393 0.365973 0.95999998 4289505951
-0.10155 0.36673599 0.96200001 4289505437
-0.098954298 0.36673799 0.96200001 4287860607
-0.096458398 0.36712 0.963 4287991679
-0.093664698 0.366359 0.96100003 4288188543
-0.090976499 0.36597899 0.95999998 4287925885
-0.088385798 0.36598 0.95999998 4288321157
-0.0858844 0.36636299 0.96100003 4288715915
-0.083291002 0.366364 0.96100003 4288453001
-0.080781497 0.36674699 0.96200001 4288781714
-0.078103997 0.36636701 0.96100003 4288781968
-0.075431898 0.365987 0.95999998 4288781966
-0.072765201 0.36560699 0.95899999 4288979345
-0.070177101 0.36560801 0.95899999 4288848014
-0.067518398 0.365228 0.958 4288979087
-0.064865097 0.36484799 0.95700002 4288057985
-0.062217198 0.36446801 0.95599997 4288254851
-0.059699502 0.36485001 0.95700002 4288386436
-0.057116602 0.364851 0.95700002 4288583301
-0.054533701 0.36485299 0.95700002 4288189057
-0.051896501 0.364472 0.95599997 4288057471
-0.049264699 0.36409199 0.95499998 4288386436
-0.046638299 0.36371201 0.954 4288781709
-0.0440634 0.363713 0.954 4288321415
-0.041401502 0.36295101 0.95200002 4288321417
-0.038872801 0.36333299 0.95300001 4288189577
-0.0363006 0.363334 0.95300001 4288386956
-0.033657599 0.36257201 0.95099998 4288452750
-0.031058 0.362192 0.94999999 4288189838
-0.0284639 0.36181101 0.949 4288189838
-0.0259843 0.36295599 0.95200002 4288453264
-0.023439299 0.36333701 0.95300001 4288189577
-0.020866999 0.36333799 0.95300001 4288321163
-0.018237101 0.362194 0.94999999 4288321160
-0.0156564 0.36181399 0.949 4288255367
-0.0131086 0.36219499 0.94999999 4288255367
-0.0105444 0.36219499 0.94999999 4288058245
-0.0079717701 0.36181399 0.949 4288321415
-0.0054045198 0.361433 0.94800001 4288518794
-0.0028456701 0.361433 0.94800001 4288321415
-0.000286522 0.36105201 0.94700003 4288321415
0.0022720301 0.361433 0.94800001 4288189829
0.0048257802 0.36105201 0.94700003 4288321417
0.0073897201 0.361433 0.94800001 4288387722
0.0099380696 0.36105201 0.94700003 4288519308
0.0125206 0.36181399 0.949 4288387722
0.015098 0.36219499 0.94999999 4288518794
0.017643601 0.36181301 0.949 4288453001
0.0201839 0.36143199 0.94800001 4288518796
0.0227427 0.361431 0.94800001 4288321163
0.0252748 0.361049 0.94700003 4288321163
0.027801501 0.360668 0.94599998 4288255370
0.0303549 0.36066699 0.94599998 4288321163
0.032942999 0.361047 0.94700003 4288453263
0.0354991 0.361047 0.94700003 4288518794
0.038095299 0.36142701 0.94800001 4288453256
0.040654 0.361426 0.94800001 4287926657
0.043258298 0.36180699 0.949 4288190084
0.045771401 0.36142501 0.94800001 4288124291
0.048381001 0.36180499 0.949 4287531901
0.050834998 0.36104101 0.94700003 4287531899
0.053447299 0.361422 0.94800001 4287663485
0.055946801 0.36103901 0.94700003 4287400313
0.058564499 0.36141899 0.94800001 4287729280
0.061058499 0.36103699 0.94700003 4287598208
0.063547201 0.36065501 0.94599998 4287795587
0.066030398 0.36027199 0.94499999 4287861378
0.068726003 0.36103299 0.94700003 4288058243
0.071281798 0.36103201 0.94700003 4288255622
0.073915496 0.36141199 0.94800001 4287992452
0.076393202 0.36103001 0.94700003 4288584589
0.078865603 0.36064699 0.94599998 4288519310
0.081418604 0.36064601 0.94599998 4288453517
0.084060296 0.36102599 0.94700003 4288585103
0.086707398 0.361406 0.94800001 4288782480
0.089359902 0.36178601 0.949 4288650894
0.091824099 0.36140299 0.94800001 4288519824
0.094382398 0.361402 0.94800001 4288782996
0.096940704 0.36140099 0.94800001 4288782998
0.099394001 0.361018 0.94700003 4288782228
0.101842 0.360636 0.94599998 4288585617
0.104395 0.36063501 0.94599998 4288454031
0.106948 0.36063299 0.94599998 4288454545
0.1095 0.360632 0.94599998 4288454545
0.111935 0.36025 0.94499999 4288586133
0.114606 0.36063001 0.94599998 4288717205
0.117283 0.36100999 0.94700003 4288782996
0.119965 0.36138999 0.94800001 4288651412
0.122652 0.36177099 0.949 4288651671
0.125081 0.36138901 0.94800001 4288652441
0.12763999 0.361388 0.94800001 4288455062
0.13006 0.36100599 0.94700003 4288783259
0.13289601 0.36176801 0.949 4288520085
0.13545699 0.36176699 0.949 4288586133
0.138164 0.36214799 0.94999999 4288651926
0.140727 0.362147 0.94999999 4288651412
0.143442 0.362528 0.95099998 4288651412
0.146162 0.36290899 0.95200002 4288716950
0.14873099 0.36290899 0.95200002 4288388246
0.150665 0.361384 0.94800001 4286613379
0.152577 0.35986 0.94400001 4286152071
0.155453 0.36062199 0.94599998 4287468437
0.15817399 0.36100399 0.94700003 4287798159
0.16106901 0.36176699 0.949 4288190859
0.16363101 0.36176699 0.949 4288519826
0.16636699 0.362149 0.94999999 4288322445
0.16893201 0.36215001 0.94999999 4288453263
0.171316 0.36177 0.949 4287927689
0.173694 0.36138999 0.94800001 4288255632
0.17606799 0.361011 0.94700003 4288058757
0.178624 0.36101201 0.94700003 4287731067
0.18099 0.36063299 0.94599998 4287862147
0.18373799 0.36101601 0.94700003 4288585871
0.186492 0.36140001 0.94800001 4288651410
0.18945 0.36216399 0.94999999 4287861896
0.19221801 0.36254799 0.95099998 4287861894
0.194786 0.362551 0.95099998 4288124552
0.19694 0.361792 0.949 4288124552
0.19971301 0.362176 0.94999999 4288452750
0.202279 0.36217999 0.94999999 4288321163
0.205061 0.36256501 0.95099998 4286938737
0.207849 0.36295 0.95200002 4286741611
0.210642 0.363336 0.95300001 4287004269
0.21321701 0.363341 0.95300001 4287136109
0.215792 0.36334601 0.95300001 4287136623
0.21791001 0.36258799 0.95099998 4286807918
0.220944 0.36335701 0.95300001 4286940017
0.223754 0.36374399 0.954 4287663740
0.227045 0.364894 0.95700002 4287795326
0.22939301 0.364519 0.95599997 4287268470
0.231978 0.364526 0.95599997 4287202677
0.23456299 0.36453301 0.95599997 4287531641
0.237645 0.36530301 0.958 4287729020
0.240236 0.365311 0.958 4287531895
0.242828 0.36531901 0.958 4287005550
0.24567699 0.36570999 0.95899999 4287202930
0.248013 0.36533701 0.958 4287071090
0.25034401 0.36496499 0.95700002 4286939758
0.25319901 0.36535701 0.958 4286676332
0.256327 0.36612999 0.95999998 4286742638
0.25892699 0.36614099 0.95999998 4287531901
0.261255 0.36577001 0.95899999 4287992452
0.263578 0.365401 0.958 4287992712
0.26617301 0.36541301 0.958 4288190091
0.26905 0.365807 0.95899999 4288058243
0.27164999 0.36581999 0.95899999 4288124036
0.27396399 0.36545199 0.958 4288058498
0.27656201 0.365466 0.958 4287795326
0.27945101 0.36586201 0.95899999 4288124291
0.28234699 0.366258 0.95999998 4287926912
0.284953 0.366274 0.95999998 4287861633
0.28725901 0.36590901 0.95899999 4288058496
0.29016501 0.36630699 0.95999998 4287992703
0.292467 0.36594301 0.95899999 4287795324
0.29507199 0.36596 0.95899999 4287861119
0.29736799 0.36559701 0.958 4287926912
0.30028501 0.365998 0.95899999 4287334775
0.30352399 0.366781 0.96100003 4286874224
0.306456 0.367183 0.96200001 4286874224
0.30842999 0.36644 0.95999998 4286940017
0.31071901 0.36607999 0.95899999 4286874224
0.313003 0.36572 0.958 4287005810
0.31627101 0.36650699 0.95999998 4287071601
0.31921801 0.36691201 0.96100003 4287071856
0.32183701 0.366936 0.96100003 4286742889
0.32479501 0.36734301 0.96200001 4286742631
0.327418 0.367369 0.96200001 4286874728
0.33004299 0.36739501 0.96200001 4286874224
0.331631 0.366276 0.95899999 4286742638
0.334598 0.36668599 0.95999998 4286676845
0.336869 0.36633301 0.95899999 4287006063
0.33984399 0.36674401 0.95999998 4286873964
0.34211099 0.36639199 0.95899999 4286873964
0.34473401 0.36642301 0.95899999 4287070829
0.347359 0.36645499 0.95899999 4287071083
0.349619 0.36610499 0.958 4286742378
0.35261101 0.366521 0.95899999 4286874218
0.354498 0.36579001 0.95700002 4287072109
0.35749501 0.36620799 0.958 4286743144
0.36012301 0.36624399 0.958 4286874475
0.36237401 0.36589801 0.95700002 4286677096
0.36385801 0.36478901 0.954 4286940011
0.365711 0.36406201 0.95200002 4287202929
0.36832801 0.36410201 0.95200002 4286808171
0.370947 0.364142 0.95200002 4287070576
0.37435201 0.364948 0.954 4286873450
0.37658399 0.36460799 0.95300001 4286807911
0.37921101 0.36465099 0.95300001 4286873703
0.381037 0.36392999 0.95099998 4286807394
0.384065 0.36435801 0.95200002 4286873703
0.386693 0.36440399 0.95200002 4286084448
0.38932401 0.364452 0.95200002 4286281828
0.39113301 0.36373401 0.94999999 4286346863
0.392932 0.36301801 0.94800001 4285755231
0.39555699 0.36306801 0.94800001 4286149980
0.39902401 0.363886 0.94999999 4287202669
0.40081301 0.36317199 0.94800001 4286873450
0.40344301 0.363226 0.94800001 4287005290
0.40522 0.36251399 0.94599998 4287071082
0.40784901 0.36256999 0.94599998 4286940010
0.41004699 0.36224401 0.94499999 4286019162
0.41311401 0.36268499 0.94599998 4285952601
0.41487101 0.36197799 0.94400001 4283979065
0.417061 0.361655 0.94300002 4284176958
0.41791299 0.360183 0.93900001 4285163339
0.42053601 0.36024499 0.93900001 4285689944
0.42361301 0.36069301 0.94 4285558611
0.42669699 0.36114201 0.94099998 4284966474
0.428877 0.360825 0.94 4285361736
0.43151301 0.36089301 0.94 4285427782
0.43322799 0.36019501 0.93800002 4285361232
0.435399 0.35988101 0.93699998 4285624150
0.437567 0.35956901 0.93599999 4285558617
0.43973199 0.359258 0.935 4285098317
0.44189399 0.35894799 0.93400002 4284440648
0.444529 0.35902399 0.93400002 4283850845
0.448125 0.359871 0.93599999 4285626737
0.451253 0.36033499 0.93699998 4286218351
0.45342201 0.36003101 0.93599999 4286678387
0.45704901 0.36088201 0.93800002 4286217826
0.46118101 0.36212 0.94099998 4286743664
0.46336201 0.361821 0.94 4287006838
0.46504399 0.36113799 0.93800002 4287401597
0.467217 0.36084199 0.93699998 4286217322
0.47139299 0.36208799 0.94 4286677873
0.474581 0.36256501 0.94099998 4286216808
0.47676501 0.36227301 0.94 4284572495
0.478946 0.361983 0.93900001 4283914820
0.48163801 0.36208001 0.93900001 4283980358
0.485365 0.36295101 0.94099998 4284440911
0.48910701 0.363823 0.94300002 4284967002
0.491822 0.36392599 0.94300002 4284769874
0.49401599 0.36364499 0.94199997 4284835922
0.496209 0.36336499 0.94099998 4285427292
0.49998999 0.364245 0.94300002 4285361499
-0.19802999 0.36490101 0.96399999 4289704359
-0.195427 0.364898 0.96399999 4289441187
-0.19282299 0.364896 0.96399999 4289638054
-0.19002301 0.36451501 0.963 4289242780
-0.187618 0.36489201 0.96399999 4289308573
-0.18501499 0.36489001 0.96399999 4289505698
-0.182413 0.36488801 0.96399999 4289242526
-0.179437 0.36412999 0.96200001 4289637538
-0.17684001 0.36412901 0.96200001 4289243296
-0.17442501 0.36450601 0.963 4289243296
-0.17182501 0.36450499 0.963 4289308319
-0.16922601 0.36450499 0.963 4289242526
-0.16680001 0.36488301 0.96399999 4289110940
-0.164538 0.365639 0.96600002 4289045148
-0.161428 0.36450401 0.963 4288847769
-0.1585 0.36374599 0.96100003 4288979869
-0.155257 0.362232 0.95700002 4288321939
-0.152834 0.362611 0.958 4288059281
-0.150562 0.363368 0.95999998 4285691503
-0.14827999 0.364126 0.96200001 4288784288
-0.145532 0.36374801 0.96100003 4288849567
-0.142492 0.36261299 0.958 4289111969
-0.139907 0.36261299 0.958 4289046431
-0.137609 0.36337101 0.95999998 4289177503
-0.13544001 0.36450699 0.963 4289572261
-0.13270301 0.36412999 0.96200001 4289111708
-0.129972 0.36375201 0.96100003 4289440673
-0.127114 0.36299601 0.95899999 4289440673
