# .PCD v0.7 - Point Cloud Data file format
VERSION 0.7
FIELDS x y z rgb
SIZE 4 4 4 4
TYPE F F F U
COUNT 1 1 1 1
WIDTH 1099
HEIGHT 1
VIEWPOINT 0 0 0 1 0 0 0
POINTS 1099
DATA ascii
-0.148531 -0.183808 0.60399997 4289834907
-0.147146 -0.18411399 0.60500002 4289966493
-0.14575499 -0.184421 0.60600001 4290098081
-0.14412101 -0.184423 0.60600001 4289703323
-0.14201701 -0.183817 0.60399997 4289637528
-0.140156 -0.183515 0.60299999 4289703323
-0.138071 -0.182908 0.60100001 4289506197
-0.13645101 -0.18291099 0.60100001 4289637270
-0.135279 -0.183522 0.60299999 4289374099
-0.13409699 -0.18413401 0.60500002 4289242259
-0.132247 -0.183832 0.60399997 4289505171
-0.13061801 -0.183835 0.60399997 4289374099
-0.12898999 -0.18383799 0.60399997 4289439891
-0.127572 -0.184145 0.60500002 4289374098
-0.12594099 -0.184149 0.60500002 4289308305
-0.12431 -0.18415201 0.60500002 4289703063
-0.122679 -0.184155 0.60500002 4289571477
-0.121048 -0.184158 0.60500002 4289308306
-0.119417 -0.18416201 0.60500002 4289571478
-0.117786 -0.184165 0.60500002 4289505431
-0.116347 -0.18447299 0.60600001 4289308565
-0.114713 -0.184476 0.60600001 4289769116
-0.112892 -0.184176 0.60500002 4289505944
-0.111261 -0.18417899 0.60500002 4289637528
-0.109629 -0.184183 0.60500002 4289308818
-0.108176 -0.18449099 0.60600001 4289768856
-0.106542 -0.184494 0.60600001 4289505684
-0.104735 -0.184194 0.60500002 4289374098
-0.103103 -0.18419699 0.60500002 4289242770
-0.101472 -0.184201 0.60500002 4289242770
-0.100005 -0.18450899 0.60600001 4289242770
-0.098370798 -0.184513 0.60600001 4289242770
-0.096736297 -0.184517 0.60600001 4289373594
-0.095101699 -0.184521 0.60600001 4289637017
-0.093467101 -0.184524 0.60600001 4289241999
-0.091832399 -0.18452799 0.60600001 4289307792
-0.090048797 -0.184227 0.60500002 4289110927
-0.088562801 -0.184535 0.60600001 4288847501
-0.086927898 -0.18453901 0.60600001 4287334775
-0.085433602 -0.184847 0.60699999 4288584329
-0.083381698 -0.183937 0.60399997 4288979341
-0.081887297 -0.184246 0.60500002 4288979340
-0.080254801 -0.184249 0.60500002 4288848007
-0.078882098 -0.184862 0.60699999 4289045386
-0.077244103 -0.184865 0.60699999 4288913800
-0.0754814 -0.18456399 0.60600001 4289243278
-0.073967703 -0.184872 0.60699999 4288979851
-0.072567701 -0.18548501 0.60900003 4289243023
-0.071040399 -0.185793 0.61000001 4289440657
-0.069507599 -0.186101 0.611 4289637781
-0.067636199 -0.185495 0.60900003 4289571990
-0.066100597 -0.185803 0.61000001 4289506197
-0.064242497 -0.185197 0.60799998 4289440149
-0.062498 -0.18489601 0.60699999 4289374358
-0.060658701 -0.18428899 0.60500002 4289176979
-0.059122801 -0.184597 0.60600001 4289242770
-0.057581302 -0.18490499 0.60699999 4289505942
-0.055942301 -0.184908 0.60699999 4289374358
-0.054392599 -0.185215 0.60799998 4289243025
-0.052664001 -0.18491299 0.60699999 4289177232
-0.0511088 -0.185221 0.60799998 4289242772
-0.0494668 -0.185223 0.60799998 4289308565
-0.0479034 -0.18553101 0.60900003 4289440151
-0.046182599 -0.18522801 0.60799998 4289440665
-0.044467099 -0.184926 0.60699999 4289177493
-0.042757001 -0.184624 0.60600001 4289243284
-0.04112 -0.184626 0.60600001 4289440149
-0.0394179 -0.184324 0.60500002 4289177493
-0.037845999 -0.184631 0.60600001 4289176979
-0.036208902 -0.184633 0.60600001 4289309079
-0.034514699 -0.18433 0.60500002 4289046422
-0.032934599 -0.184637 0.60600001 4288914836
-0.031349 -0.18494301 0.60699999 4288848789
-0.0297579 -0.185249 0.60799998 4288716950
-0.0281152 -0.185251 0.60799998 4288651418
-0.026472401 -0.18525299 0.60799998 4283125080
-0.024952101 -0.186168 0.611 4282993242
-0.0233774 -0.18677901 0.61299998 4281480505
-0.021614701 -0.185866 0.61000001 4280822316
-0.019933701 -0.185563 0.60900003 4285953899
-0.018288 -0.185564 0.60900003 4288782219
-0.0166423 -0.18556499 0.60900003 4288848012
-0.0149474 -0.184956 0.60699999 4288716681
-0.0132851 -0.184652 0.60600001 4289241998
-0.0116475 -0.184653 0.60600001 4288847494
-0.0100098 -0.184654 0.60600001 4287071336
-0.0083582997 -0.18435 0.60500002 4288255608
-0.0067233099 -0.18435 0.60500002 4288781954
-0.0050967201 -0.184655 0.60600001 4288716421
-0.0034704199 -0.185265 0.60799998 4288650886
-0.0018272999 -0.185265 0.60799998 4288519302
-0.00018418 -0.185265 0.60799998 4288716942
0.00145655 -0.18495999 0.60699999 4288520077
0.00310207 -0.185265 0.60799998 4288191112
0.0047529899 -0.185569 0.60900003 4288190598
0.0063987998 -0.185569 0.60900003 4288453770
0.0080445996 -0.185568 0.60900003 4288322184
0.00969039 -0.185568 0.60900003 4288387461
0.0112989 -0.184958 0.60699999 4288716681
0.012918 -0.184653 0.60600001 4288519043
0.0145556 -0.184652 0.60600001 4287926905
0.016246701 -0.18526 0.60799998 4288123771
0.0178896 -0.185259 0.60799998 4288518275
0.019564699 -0.185563 0.60900003 4288255364
0.0212104 -0.185562 0.60900003 4288189571
0.0228935 -0.185865 0.61000001 4288123778
0.024582 -0.186168 0.611 4287400566
0.026275899 -0.186472 0.61199999 4288387463
0.0279295 -0.18647 0.61199999 4288255877
0.029534699 -0.18616401 0.611 4288386957
0.031134401 -0.185857 0.61000001 4287992450
0.032728799 -0.185551 0.60900003 4288255877
0.034374099 -0.18554901 0.60900003 4288255875
0.035960201 -0.185242 0.60799998 4288058238
0.0376027 -0.18524 0.60799998 4287268462
0.039374299 -0.185848 0.61000001 4285952087
0.0410893 -0.18615 0.611 4286873433
0.042739801 -0.186148 0.611 4287004513
0.044317499 -0.18584099 0.61000001 4286675810
0.045965102 -0.185838 0.61000001 4286939243
0.047612701 -0.185836 0.61000001 4286544485
0.0493409 -0.186138 0.611 4286347874
0.050907601 -0.185831 0.61000001 4286676325
0.052468799 -0.185523 0.60900003 4287268461
0.054113399 -0.18551999 0.60900003 4286939234
0.0558495 -0.185822 0.61000001 4286347097
0.0574967 -0.185819 0.61000001 4287661929
0.0591438 -0.185816 0.61000001 4286675034
0.0606911 -0.185509 0.60900003 4285819725
0.062233001 -0.185201 0.60799998 4286017104
0.063874498 -0.18519799 0.60799998 4284306486
0.065515898 -0.185194 0.60799998 4286017104
0.067157201 -0.18519101 0.60799998 4287596398
0.0687984 -0.185188 0.60799998 4287465326
0.070555396 -0.185489 0.60900003 4287662703
0.072199203 -0.185486 0.60900003 4287202922
0.073964201 -0.18578701 0.61000001 4287531887
0.075610504 -0.185783 0.61000001 4287334508
0.077130102 -0.18547501 0.60900003 4287202406
0.078902997 -0.185776 0.61000001 4287071334
0.0806811 -0.186077 0.611 4286280797
0.082329802 -0.186074 0.611 4286150234
0.083978496 -0.18607 0.611 4286544990
0.085346803 -0.18545701 0.60900003 4285821789
0.0871327 -0.18575799 0.61000001 4285624155
0.088778399 -0.185754 0.61000001 4283848260
0.090868801 -0.186664 0.61299998 4282532155
0.0920697 -0.185747 0.61000001 4285887853
0.093407899 -0.18513399 0.60799998 4286875244
0.0948916 -0.184826 0.60699999 4286151003
0.096687898 -0.185127 0.60799998 4286544999
0.098327801 -0.185123 0.60799998 4286347873
0.099803202 -0.184815 0.60699999 4286347613
0.10144 -0.184811 0.60699999 4286413404
0.103077 -0.184807 0.60699999 4286216025
0.104887 -0.18510801 0.60799998 4286216027
0.106351 -0.1848 0.60699999 4286215773
0.108166 -0.185101 0.60799998 4286282081
0.109625 -0.184792 0.60699999 4286216034
0.111445 -0.185093 0.60799998 4286413153
0.113084 -0.18509001 0.60799998 4286084187
0.114724 -0.185086 0.60799998 4286084441
0.11598 -0.18447401 0.60600001 4286544476
0.117808 -0.18477499 0.60699999 4287005027
0.119445 -0.184771 0.60699999 4286544222
0.12148 -0.185377 0.60900003 4286741601
0.12292 -0.18506899 0.60799998 4286807394
0.124354 -0.184761 0.60699999 4286610532
0.125783 -0.18445399 0.60600001 4286873441
0.127417 -0.18445 0.60600001 4286872937
0.129051 -0.18444701 0.60600001 4286675808
0.130684 -0.184444 0.60600001 4286544224
0.132318 -0.184441 0.60600001 4286675558
0.13417301 -0.184743 0.60699999 4286610278
0.135809 -0.18474001 0.60699999 4286347620
0.13767201 -0.18504199 0.60799998 4286216288
0.139312 -0.185039 0.60799998 4286676838
0.14095099 -0.185037 0.60799998 4286216541
0.142355 -0.18472999 0.60699999 4286479197
0.14399201 -0.184728 0.60699999 4286807647
0.145629 -0.184726 0.60699999 4286413659
0.147265 -0.184724 0.60699999 4286150485
0.148902 -0.18472201 0.60699999 4286611552
0.150539 -0.18471999 0.60699999 4286348125
0.151925 -0.184414 0.60600001 4286084701
0.15330601 -0.184108 0.60500002 4286478692
0.154938 -0.18410601 0.60500002 4286412900
0.157087 -0.184714 0.60699999 4286478693
0.158724 -0.18471301 0.60699999 4286675819
0.16062599 -0.18501601 0.60799998 4286610278
0.161732 -0.184407 0.60600001 4286742371
0.16309801 -0.184102 0.60500002 4286742371
0.16445801 -0.183797 0.60399997 4286610531
0.166363 -0.184101 0.60500002 4286544224
0.16771799 -0.183796 0.60399997 4286675808
0.169348 -0.183796 0.60399997 4286610015
0.17097799 -0.183797 0.60399997 4286413404
0.172894 -0.184101 0.60500002 4286676576
0.174528 -0.184102 0.60500002 4286282332
0.17616101 -0.184103 0.60500002 4286281820
0.17779499 -0.184104 0.60500002 4286281820
0.180022 -0.184714 0.60699999 4286149466
0.181961 -0.18502 0.60799998 4286478429
0.183604 -0.185021 0.60799998 4286676062
0.184637 -0.184414 0.60600001 4286610783
0.185968 -0.184112 0.60500002 4286413659
0.18729299 -0.18381 0.60399997 4286282073
0.188926 -0.18381301 0.60399997 4286348368
0.19087499 -0.18412 0.60500002 4286479450
0.192829 -0.18442801 0.60600001 4286479703
0.19414701 -0.184127 0.60500002 4286610521
0.195784 -0.18413 0.60500002 4286478672
0.19774801 -0.184439 0.60600001 4286741593
0.199717 -0.184747 0.60699999 4286609503
0.201361 -0.184752 0.60699999 4286543708
0.203005 -0.18475699 0.60699999 4286412122
0.204649 -0.184762 0.60699999 4286543708
0.205954 -0.18446299 0.60600001 4286215257
0.20725399 -0.184164 0.60500002 4286346845
0.208894 -0.18416999 0.60500002 4286084187
0.21053401 -0.184176 0.60500002 4285886809
0.21252599 -0.184487 0.60600001 4285886808
0.21417101 -0.184494 0.60600001 4286215773
0.21581499 -0.18450201 0.60600001 4286412383
0.21710201 -0.184205 0.60500002 4285951832
0.21874499 -0.184213 0.60500002 4285689429
0.22038899 -0.184221 0.60500002 4285755737
0.22166599 -0.183926 0.60399997 4285887322
0.224048 -0.184544 0.60600001 4286019162
0.225324 -0.184249 0.60500002 4285887060
0.227346 -0.184563 0.60600001 4286347097
0.227862 -0.18366 0.60299999 4286412375
0.229123 -0.183366 0.602 4286149203
0.23153 -0.18398599 0.60399997 4286215511
0.23317599 -0.18399701 0.60399997 4286412890
0.235212 -0.184314 0.60500002 4286149718
0.23608001 -0.183717 0.60299999 4286216027
0.237725 -0.18373001 0.60299999 4286084701
0.239372 -0.183743 0.60299999 4286347873
0.241419 -0.18406101 0.60399997 4286150748
0.24347299 -0.18437999 0.60500002 4286479459
0.24512701 -0.184394 0.60500002 4286347611
0.247191 -0.184714 0.60600001 4286281818
0.24885 -0.18472999 0.60600001 4286412890
0.25009701 -0.184441 0.60500002 4286741601
0.25133899 -0.18415301 0.60399997 4286543708
0.25341401 -0.18447401 0.60500002 4286610015
0.25423101 -0.183882 0.60299999 4286216025
0.255887 -0.1839 0.60299999 4286413404
0.25754401 -0.183918 0.60299999 4286479452
0.259202 -0.183937 0.60299999 4286282073
0.26042801 -0.183652 0.602 4286150232
0.262521 -0.18397699 0.60299999 4286150232
0.264182 -0.18399701 0.60299999 4286216025
0.26628599 -0.184324 0.60399997 4286216025
0.267508 -0.18404 0.60299999 4286084178
0.269173 -0.184063 0.60299999 4286149709
0.27083901 -0.18408599 0.60299999 4286346583
0.272055 -0.18380401 0.602 4286412376
0.274176 -0.18413299 0.60299999 4286346583
0.275846 -0.184158 0.60299999 4286083925
0.27797699 -0.184489 0.60399997 4286346836
0.27919 -0.184209 0.60299999 4286282061
0.27993301 -0.183625 0.60100001 4286412124
0.28160301 -0.183652 0.60100001 4286609503
0.28327399 -0.18368 0.60100001 4286477917
0.285896 -0.184319 0.60299999 4286740827
0.28805301 -0.184654 0.60399997 4286149447
0.29021701 -0.18499 0.60500002 4286148940
0.29142401 -0.184715 0.60399997 4286610007
0.29311201 -0.184746 0.60399997 4285426248
0.29382601 -0.184166 0.602 4286282332
0.29502001 -0.183893 0.60100001 4286479970
0.29670501 -0.183926 0.60100001 4286874475
0.298392 -0.18396001 0.60100001 4286808684
0.30008 -0.18399499 0.60100001 4287532407
0.30227199 -0.18433701 0.602 4287335026
0.303462 -0.184067 0.60100001 4287335281
0.30515599 -0.184104 0.60100001 4286874471
0.30634201 -0.183836 0.60000002 4287466608
0.309064 -0.184487 0.602 4287335281
0.31076699 -0.18452699 0.602 4286940270
0.31195199 -0.18426099 0.60100001 4287401335
0.313135 -0.18399499 0.60000002 4287072370
0.31483799 -0.184037 0.60000002 4287006577
0.316544 -0.18408 0.60000002 4287598973
0.318252 -0.18412399 0.60000002 4287335801
0.32049599 -0.184475 0.60100001 4288058496
0.32221201 -0.184521 0.60100001 4286940521
0.324469 -0.184874 0.602 4286941025
0.32619199 -0.18492199 0.602 4287335277
0.328462 -0.185277 0.60299999 4287137898
0.32964599 -0.185019 0.602 4287270000
0.33082601 -0.184762 0.60100001 4287204207
0.33255699 -0.18481299 0.60100001 4287203691
0.33484599 -0.185173 0.602 4287269484
0.33658499 -0.18522599 0.602 4287532137
0.33776501 -0.184972 0.60100001 4286413649
0.339506 -0.185027 0.60100001 4285952591
0.34125099 -0.185083 0.60100001 4286807386
0.34242699 -0.18483201 0.60000002 4286544214
0.34417501 -0.184891 0.60000002 4286478422
0.345925 -0.18494999 0.60000002 4286938203
0.34767899 -0.18501 0.60000002 4286280273
0.34885299 -0.184763 0.59899998 4286478422
0.35060999 -0.184825 0.59899998 4286938205
0.35237101 -0.184889 0.59899998 4286609238
0.35413399 -0.184953 0.59899998 4286741594
0.355901 -0.185019 0.59899998 4286676062
0.35767099 -0.185086 0.59899998 4286939234
0.358845 -0.184845 0.59799999 4287466092
0.36122301 -0.185224 0.59899998 4287202405
0.36360899 -0.18560299 0.60000002 4287333730
0.366615 -0.186294 0.602 4287135835
0.368413 -0.186368 0.602 4285819977
0.36898401 -0.18582299 0.60000002 4287202144
0.370783 -0.185899 0.60000002 4287203172
0.37196499 -0.18566599 0.59899998 4286874975
0.37376899 -0.185744 0.59899998 4287005793
0.37620401 -0.186134 0.60000002 4286808668
0.37928 -0.186836 0.602 4286676578
0.38047299 -0.186608 0.60100001 4286939234
0.38166299 -0.186381 0.60000002 4286610017
0.382853 -0.186156 0.59899998 4286412889
0.38596699 -0.186864 0.60100001 4285295439
0.38780701 -0.18695199 0.60100001 4280689682
0.38900399 -0.186731 0.60000002 4284440648
0.39019999 -0.186511 0.59899998 4287928446
0.392048 -0.18660299 0.59899998 4288125825
0.39390099 -0.18669701 0.59899998 4287993725
0.39576 -0.186793 0.59899998 4288322435
0.397623 -0.18689001 0.59899998 4288190849
0.399492 -0.18698899 0.59899998 4288190608
0.40203601 -0.187402 0.60000002 4287730562
0.403918 -0.18750399 0.60000002 4287993219
0.40580601 -0.187608 0.60000002 4287730047
0.40769899 -0.187713 0.60000002 4287730047
0.40959799 -0.187821 0.60000002 4287993219
0.411502 -0.18793 0.60000002 4287927940
0.41341299 -0.18804 0.60000002 4288125319
0.41532901 -0.188153 0.60000002 4287664768
0.41725099 -0.18826699 0.60000002 4288191112
0.41848099 -0.18807 0.59899998 4287730561
0.42041299 -0.188188 0.59899998 4288190598
-0.198743 -0.183632 0.59799999 4288123778
-0.19745301 -0.183934 0.59899998 4288321157
-0.195831 -0.18392999 0.59899998 4288255364
-0.19420999 -0.183926 0.59899998 4289242259
-0.192911 -0.184229 0.60000002 4289374358
-0.191287 -0.18422499 0.60000002 4289834654
-0.189348 -0.183915 0.59899998 4289966240
-0.188041 -0.184219 0.60000002 4290163619
-0.186419 -0.18421599 0.60000002 4290295207
-0.185105 -0.18452001 0.60100001 4290492586
-0.18287 -0.18390401 0.59899998 4290361000
-0.181251 -0.183901 0.59899998 4290361000
-0.17963199 -0.183899 0.59899998 4290229414
-0.17831101 -0.184205 0.60000002 4290558377
-0.176985 -0.18450999 0.60100001 4290427305
-0.17507 -0.184202 0.60000002 4290493098
-0.17316 -0.18389399 0.59899998 4290362028
-0.171257 -0.183586 0.59799999 4290427823
-0.169642 -0.183585 0.59799999 4290098603
-0.168309 -0.183892 0.59899998 4290230189
-0.16697 -0.18419901 0.60000002 4290230444
-0.165351 -0.18419901 0.60000002 4290033063
-0.16373099 -0.18419901 0.60000002 4290099109
-0.162112 -0.18419901 0.60000002 4289967523
-0.160226 -0.183892 0.59899998 4290033316
-0.158875 -0.1842 0.60000002 4290033316
-0.157518 -0.184508 0.60100001 4289901731
-0.156156 -0.184816 0.602 4289704351
-0.154276 -0.18450999 0.60100001 4290164388
-0.15265401 -0.18451101 0.60100001 4290032288
-0.150782 -0.184205 0.60000002 4289966493
-0.149413 -0.184514 0.60100001 4290032288
-0.148038 -0.18482199 0.602 4290098081
-0.146414 -0.184824 0.602 4289900702
-0.145032 -0.185133 0.60299999 4289966495
-0.143168 -0.184828 0.602 4289966495
-0.14178 -0.185137 0.60299999 4289966495
-0.13992099 -0.18483201 0.602 4290032288
-0.138298 -0.184834 0.602 4289966495
-0.13622101 -0.184223 0.60000002 4289769116
-0.13460299 -0.18422499 0.60000002 4289768603
-0.13298599 -0.184228 0.60000002 4289769116
-0.131368 -0.18423 0.60000002 4289965982
-0.12975 -0.18423299 0.60000002 4289900443
-0.128133 -0.184236 0.60000002 4289506197
-0.126515 -0.184239 0.60000002 4289440404
-0.12510601 -0.184549 0.60100001 4289505942
-0.12328 -0.18424501 0.60000002 4289505944
-0.121865 -0.18455499 0.60100001 4289703323
-0.120044 -0.184251 0.60000002 4289374358
-0.118624 -0.184561 0.60100001 4289505944
-0.116809 -0.184258 0.60000002 4289637530
-0.115383 -0.184568 0.60100001 4289505944
-0.113763 -0.184571 0.60100001 4289440151
-0.112142 -0.18457501 0.60100001 4289505944
-0.110522 -0.184578 0.60100001 4289505942
-0.109082 -0.184889 0.602 4289439892
-0.107459 -0.184892 0.602 4289308305
-0.105836 -0.18489601 0.602 4289374098
-0.104039 -0.18459199 0.60100001 4289308563
-0.102759 -0.18521 0.60299999 4289374356
-0.101133 -0.185214 0.60299999 4289505942
-0.099671498 -0.185525 0.60399997 4289374356
-0.097880103 -0.185221 0.60299999 4289045393
-0.096253701 -0.185225 0.60299999 4289570973
-0.094627298 -0.18522801 0.60299999 4289176466
-0.093154997 -0.18553901 0.60399997 4289242251
-0.091525704 -0.185543 0.60399997 4289373838
-0.089598604 -0.18493199 0.602 4289439377
-0.087828398 -0.18462799 0.60100001 4289110926
-0.086207002 -0.184632 0.60100001 4288913548
-0.084444799 -0.184328 0.60000002 4289045134
-0.082825899 -0.184332 0.60000002 4288321411
-0.081342399 -0.184643 0.60100001 4288913547
-0.079985999 -0.185261 0.60299999 4288913800
-0.078488797 -0.185571 0.60399997 4289242765
-0.0767316 -0.185267 0.60299999 4289308812
-0.0749797 -0.184964 0.602 4289111692
-0.073354997 -0.184967 0.602 4289111437
-0.071730301 -0.18497001 0.602 4289177485
-0.070105404 -0.184974 0.602 4289111437
-0.068594299 -0.185284 0.60299999 4289045644
-0.066966601 -0.185288 0.60299999 4288979851
-0.065338798 -0.18529101 0.60299999 4289177232
-0.063605398 -0.18498699 0.602 4289242770
-0.062083099 -0.185297 0.60299999 4289111186
-0.0602546 -0.18468501 0.60100001 4288979600
-0.0587295 -0.18499599 0.602 4289308563
-0.057009298 -0.184691 0.60100001 4289111184
-0.055386499 -0.18469401 0.60100001 4289111184
-0.053942502 -0.185312 0.60299999 4289308818
-0.0523142 -0.185314 0.60299999 4289571735
-0.050769899 -0.185624 0.60399997 4289242772
-0.049138799 -0.185627 0.60399997 4289374358
-0.047586199 -0.185937 0.60500002 4289111700
-0.045952201 -0.185939 0.60500002 4289243286
-0.0442449 -0.185634 0.60399997 4289374872
-0.0424724 -0.185022 0.602 4289308565
-0.0408464 -0.18502399 0.602 4289505944
-0.0391551 -0.184719 0.60100001 4289505689
-0.037656602 -0.18533599 0.60299999 4289505689
-0.035967901 -0.18503 0.602 4289308824
-0.0343417 -0.185032 0.602 4289177238
-0.032715399 -0.18503401 0.602 4289243033
-0.031192301 -0.185651 0.60399997 4289243547
-0.029560501 -0.185652 0.60399997 4288914584
-0.0279286 -0.185654 0.60399997 4288520602
-0.0262968 -0.185656 0.60399997 4287928725
-0.024705701 -0.185964 0.60500002 4287533967
-0.023071 -0.185966 0.60500002 4288586908
-0.0214363 -0.185967 0.60500002 4288389519
-0.0198016 -0.185968 0.60500002 4288980629
-0.018196899 -0.186277 0.60600001 4289045393
-0.0165594 -0.186278 0.60600001 4288519049
-0.0148726 -0.185664 0.60399997 4288848012
-0.0132186 -0.185357 0.60299999 4289307791
-0.0115891 -0.185358 0.60299999 4288913287
-0.00994315 -0.18505099 0.602 4286939750
-0.0083163697 -0.18505201 0.602 4288650366
-0.0066895802 -0.18505201 0.602 4289045126
-0.0050711902 -0.18536 0.60299999 4288584835
-0.00344168 -0.18536 0.60299999 4288650633
-0.0018151799 -0.18566801 0.60399997 4288387975
-0.000182957 -0.18566801 0.60399997 4288453515
0.00144926 -0.18566801 0.60399997 4287993734
0.00308658 -0.185975 0.60500002 4288125320
0.0047292998 -0.18628199 0.60600001 4288387977
0.0063564 -0.185974 0.60500002 4288651149
0.0079780901 -0.18566599 0.60399997 4288387977
0.0095943697 -0.185359 0.60299999 4288190084
0.0112238 -0.185358 0.60299999 4288124291
0.0128533 -0.185357 0.60299999 4288124031
0.0144827 -0.185357 0.60299999 4288255356
0.016138799 -0.185663 0.60399997 4288255356
0.017800299 -0.185969 0.60500002 4288452482
0.0194351 -0.185968 0.60500002 4288255618
0.0210698 -0.185967 0.60500002 4288584329
0.022704501 -0.185966 0.60500002 4288123778
0.024379401 -0.186272 0.60600001 4287729533
0.0260597 -0.18657801 0.60699999 4288584842
0.0276997 -0.18657599 0.60699999 4288321670
0.0292913 -0.186268 0.60600001 4288255622
0.0309285 -0.18626601 0.60600001 4288255877
0.032458201 -0.18564899 0.60399997 4288321670
0.034090001 -0.18564799 0.60399997 4288124291
0.035662498 -0.18533801 0.60299999 4288189825
0.0373533 -0.185644 0.60399997 4287268208
0.039049398 -0.185949 0.60500002 4286872422
0.040885299 -0.186869 0.60799998 4287201640
0.042597499 -0.18717401 0.60900003 4287069540
0.044169798 -0.186864 0.60799998 4286215257
0.0457366 -0.186554 0.60699999 4287202668
0.047375999 -0.186552 0.60699999 4286347360
0.048934601 -0.186242 0.60600001 4286807911
0.050487701 -0.185932 0.60500002 4286544739
0.052121501 -0.185929 0.60500002 4287004773
0.053666402 -0.185619 0.60399997 4287465326
0.055388901 -0.18592399 0.60500002 4286346845
0.057022501 -0.185921 0.60500002 4287464810
0.058656 -0.185918 0.60500002 4284767297
0.060189798 -0.185608 0.60399997 4286477915
0.0618205 -0.185605 0.60399997 4287530089
0.063451096 -0.18560199 0.60399997 4285490506
0.065081701 -0.185599 0.60399997 4284898369
0.066712096 -0.185596 0.60399997 4285687632
0.0682294 -0.185285 0.60299999 4287004006
0.069972903 -0.185589 0.60399997 4287728498
0.071603097 -0.18558601 0.60399997 4287465840
0.073233299 -0.185582 0.60399997 4287203436
0.0751113 -0.186193 0.60600001 4287597426
0.076746702 -0.18618999 0.60600001 4286873703
0.078511402 -0.18649399 0.60699999 4287005543
0.080281399 -0.18679699 0.60799998 4286216025
0.081922002 -0.186794 0.60799998 4286347866
0.083700001 -0.187098 0.60900003 4286874200
0.085062899 -0.18648 0.60699999 4286413659
0.086843401 -0.186783 0.60799998 4285690956
0.088483699 -0.18678001 0.60799998 4282926644
0.090123899 -0.186776 0.60799998 4281742125
0.091462202 -0.186158 0.60600001 4286414693
0.093096897 -0.18615399 0.60600001 4286940523
0.094575301 -0.18584301 0.60500002 4286018395
0.096366197 -0.186147 0.60600001 4286281566
0.097677298 -0.18552899 0.60399997 4286083925
0.0993063 -0.185525 0.60399997 4286215511
0.100768 -0.185215 0.60299999 4286018131
0.102394 -0.185211 0.60299999 4286083925
0.104021 -0.18520699 0.60299999 4286150234
0.105647 -0.185204 0.60299999 4286281566
0.107273 -0.18520001 0.60299999 4286018142
0.10908 -0.185504 0.60399997 4286083935
0.110708 -0.1855 0.60399997 4286281567
0.112523 -0.18580399 0.60500002 4285755223
0.114154 -0.185801 0.60500002 4286149980
0.115594 -0.18549 0.60399997 4286347097
0.117223 -0.185487 0.60399997 4286610015
0.119048 -0.185791 0.60500002 4286412638
0.12048 -0.18548 0.60399997 4286148950
0.121906 -0.18516999 0.60299999 4286609503
0.123327 -0.18486001 0.602 4286346329
0.124742 -0.18455 0.60100001 4286675548
0.126573 -0.184854 0.602 4286346069
0.127983 -0.184544 0.60100001 4287069789
0.129603 -0.184541 0.60100001 4286806880
0.13122401 -0.18453801 0.60100001 4286543969
0.133286 -0.185149 0.60299999 4286609762
0.134912 -0.185147 0.60299999 4286281566
0.136764 -0.185451 0.60399997 4286478945
0.138163 -0.185142 0.60299999 4286807910
0.139789 -0.18514 0.60299999 4286873703
0.14118101 -0.18483 0.602 4286479199
0.143041 -0.18513501 0.60299999 4286544990
0.144907 -0.18544 0.60399997 4286347611
0.146293 -0.185131 0.60299999 4286150487
0.148164 -0.18543699 0.60399997 4286347866
0.149793 -0.185435 0.60399997 4286018646
0.15142199 -0.185433 0.60399997 4286676578
0.152798 -0.18512499 0.60299999 4286676324
0.154424 -0.18512399 0.60299999 4286347874
0.15631001 -0.18543001 0.60399997 4286610532
0.15767699 -0.185122 0.60299999 4286610532
0.15904 -0.18481401 0.602 4286939750
0.16039699 -0.184506 0.60100001 4286873957
0.16174901 -0.18419901 0.60000002 4286742118
0.16364101 -0.184506 0.60100001 4286873703
0.165263 -0.184506 0.60100001 4286676324
0.16744 -0.18512 0.60299999 4286150748
0.16906799 -0.18512 0.60299999 4286677345
0.17069501 -0.18512 0.60299999 4286676831
0.172038 -0.18481401 0.602 4286479966
0.17366301 -0.184815 0.602 4286348125
0.17528901 -0.184816 0.602 4286742369
0.176915 -0.184817 0.602 4287136622
0.178837 -0.18512499 0.60299999 4286610785
0.18046699 -0.185127 0.60299999 4286413910
0.182096 -0.185129 0.60299999 4286611288
0.183116 -0.184517 0.60100001 4286676829
0.18474101 -0.18451899 0.60100001 4286939748
0.186055 -0.18421499 0.60000002 4286545245
0.187365 -0.183911 0.59899998 4286676831
0.18898501 -0.18391401 0.59899998 4286611036
0.19092301 -0.18422399 0.60000002 4286282071
0.19254699 -0.184228 0.60000002 4286413143
0.19417 -0.184232 0.60000002 4286544475
0.196447 -0.18485001 0.602 4286413143
0.19774801 -0.18454801 0.60100001 4286018131
0.199707 -0.18485899 0.602 4286149718
0.20133699 -0.184864 0.602 4286347097
0.203306 -0.185177 0.60299999 4286479197
0.20460001 -0.184875 0.602 4286478946
0.206232 -0.184881 0.602 4286610532
0.207864 -0.18488801 0.602 4286216288
0.209497 -0.184894 0.602 4286412899
0.211481 -0.18520799 0.60299999 4286544739
0.21276399 -0.184908 0.602 4286215773
0.214399 -0.184916 0.602 4286281052
0.216033 -0.18492401 0.602 4286346329
0.217669 -0.18493199 0.602 4286412122
0.219669 -0.185248 0.60299999 4286149466
0.22057401 -0.184643 0.60100001 4286346843
0.222948 -0.185267 0.60299999 4286149718
0.22384401 -0.184662 0.60100001 4286347097
0.22585499 -0.18497901 0.602 4286281304
0.22673801 -0.184375 0.60000002 4286412376
0.227992 -0.18407901 0.59899998 4286478683
0.229625 -0.18409 0.59899998 4286544990
0.231644 -0.18440901 0.60000002 4286347611
0.23328 -0.184421 0.60000002 4286544990
0.23452599 -0.184127 0.59899998 4286018648
0.23616201 -0.18414 0.59899998 4286084955
0.23779801 -0.18415301 0.59899998 4285887322
0.239834 -0.18447401 0.60000002 4285623644
0.241877 -0.18479601 0.60100001 4285689944
0.24311601 -0.184504 0.60000002 4285821781
0.24475899 -0.18451899 0.60000002 4286282332
0.246402 -0.184535 0.60000002 4286413656
0.248459 -0.18485899 0.60100001 4286479197
0.25010699 -0.184875 0.60100001 4286412646
0.25175601 -0.184893 0.60100001 4286215520
0.252563 -0.184295 0.59899998 4286413404
0.254208 -0.184313 0.59899998 4285952853
0.25585401 -0.184332 0.59899998 4286478682
0.25793201 -0.184659 0.60000002 4286479452
0.259583 -0.184679 0.60000002 4286478683
0.2608 -0.18439201 0.59899998 4286544476
0.26245099 -0.184413 0.59899998 4286807648
0.264103 -0.184434 0.59899998 4286610268
0.26620001 -0.184764 0.60000002 4286741340
0.26741001 -0.184479 0.59899998 4286675294
0.26951501 -0.18481 0.60000002 4286543962
0.27072299 -0.184526 0.59899998 4286543457
0.272836 -0.18485899 0.60000002 4286543455
0.274041 -0.184576 0.59899998 4286806620
0.275702 -0.18460099 0.59899998 4286741077
0.27736399 -0.18462799 0.59899998 4286150466
0.279028 -0.184655 0.59899998 4286740824
0.28022501 -0.184374 0.59799999 4286806368
0.28188899 -0.184402 0.59799999 4286477401
0.28355399 -0.184431 0.59799999 4286543690
0.28522101 -0.184461 0.59799999 4286543437
0.28832901 -0.185416 0.60100001 4286412367
0.29000801 -0.18544701 0.60100001 4286675284
0.29120299 -0.18517099 0.60000002 4285886798
0.29239401 -0.184894 0.59899998 4286873694
0.29308999 -0.18431 0.597 4286939748
0.29525799 -0.184653 0.59799999 4287006061
0.29693699 -0.184687 0.59799999 4286874477
0.29961601 -0.18534 0.60000002 4286545512
0.30080199 -0.185067 0.59899998 4287072109
0.30248901 -0.185104 0.59899998 4287269484
0.30417901 -0.185142 0.59899998 4286743140
0.30535901 -0.184871 0.59799999 4287203691
0.30704901 -0.184911 0.59799999 4287401072
0.30822501 -0.184641 0.597 4287269233
0.31043601 -0.184991 0.59799999 4287335026
0.311611 -0.184724 0.597 4287006061
0.31383201 -0.185076 0.59799999 4287006577
0.315005 -0.184809 0.597 4286940784
0.31617501 -0.184544 0.59600002 4287532921
0.31840801 -0.184899 0.597 4287927163
0.320113 -0.184945 0.597 4286743646
0.32289901 -0.18561099 0.59899998 4286808933
0.325156 -0.185969 0.60000002 4286677347
0.326877 -0.18601801 0.60000002 4286940519
0.32750499 -0.18544801 0.59799999 4287203693
0.32812399 -0.18487801 0.59600002 4287532658
0.33094901 -0.18555 0.59799999 4287401072
0.332674 -0.18560299 0.59799999 4287401066
0.33496201 -0.185967 0.59899998 4287466606
0.33613399 -0.185711 0.59799999 4286940001
0.33786699 -0.18576699 0.59799999 4286018385
0.33960399 -0.18582401 0.59799999 4287267433
0.341344 -0.185882 0.59799999 4286347096
0.34308699 -0.18594 0.59799999 4286150224
0.34540901 -0.18631101 0.59899998 4286609755
0.34658101 -0.18606099 0.59799999 4286149457
0.348333 -0.186124 0.59799999 4287136098
0.34950301 -0.185875 0.597 4286740824
0.35184699 -0.186251 0.59799999 4286740824
0.35242599 -0.18569399 0.59600002 4286807133
0.35418499 -0.18576001 0.59600002 4287136613
0.355948 -0.185828 0.59600002 4286741855
0.35831401 -0.18620799 0.597 4287334506
0.359483 -0.185967 0.59600002 4287333477
0.36186299 -0.18635 0.597 4287399524
0.364252 -0.186735 0.59799999 4287662181
0.36603901 -0.186809 0.59799999 4286148942
0.36721399 -0.186572 0.597 4287267423
0.36900601 -0.186648 0.597 4287267937
0.370801 -0.186726 0.597 4286939487
0.373225 -0.18711799 0.59799999 4286939748
0.37503099 -0.187199 0.59799999 4287268199
0.37747201 -0.187594 0.59899998 4286544476
0.37865701 -0.187364 0.59799999 4287004512
0.380476 -0.18744899 0.59799999 4287005026
0.38229999 -0.187536 0.59799999 4286808405
0.38477001 -0.18793701 0.59899998 4285755988
0.387252 -0.18833999 0.60000002 4284769352
0.38844699 -0.188117 0.59899998 4281084440
0.38964 -0.187895 0.59799999 4285954403
0.39083299 -0.187675 0.597 4287928191
0.392681 -0.18776999 0.597 4288190598
0.39453501 -0.187866 0.597 4288387463
0.39639401 -0.18796501 0.597 4288256128
0.39759099 -0.18775 0.59600002 4288255370
0.40012699 -0.18816601 0.597 4287795840
0.40200201 -0.188269 0.597 4287400568
0.40523499 -0.189005 0.59899998 4287663740
0.40644699 -0.188796 0.59799999 4287729533
0.40765801 -0.18858901 0.597 4288058496
0.40955499 -0.18869901 0.597 4288321670
0.41145799 -0.188811 0.597 4287730047
0.41336599 -0.188925 0.597 4287993219
0.415281 -0.18904001 0.597 4287796354
0.416502 -0.188841 0.59600002 4288191113
0.41702199 -0.188326 0.59399998 4288124805
-0.199745 -0.18618099 0.60100001 4289241482
-0.197788 -0.185866 0.60000002 4289504654
-0.19583599 -0.185551 0.59899998 4289307530
-0.194214 -0.18554699 0.59899998 4289241735
-0.19291399 -0.18585201 0.60000002 4289504395
-0.191291 -0.185848 0.60000002 4289307275
-0.18935101 -0.185535 0.59899998 4289438863
-0.187731 -0.18553101 0.59899998 4288913034
-0.186111 -0.185528 0.59899998 4288978573
-0.18449099 -0.185525 0.59899998 4288649608
-0.182567 -0.185213 0.59799999 4288649608
-0.18095 -0.185211 0.59799999 4288386185
-0.17903399 -0.184899 0.597 4288123264
-0.177718 -0.18520699 0.59799999 4288518790
-0.176397 -0.185514 0.59899998 4288716169
-0.175071 -0.18582299 0.60000002 4288387461
-0.17344999 -0.185821 0.60000002 4289308565
-0.17183 -0.18582 0.60000002 4289505944
-0.169926 -0.18550999 0.59899998 4290361253
-0.168309 -0.185509 0.59899998 4290229667
-0.16641399 -0.18519901 0.59799999 4290229667
-0.165075 -0.185508 0.59899998 4290360998
-0.163458 -0.185508 0.59899998 4290427046
-0.162112 -0.185818 0.60000002 4290361253
-0.160225 -0.185508 0.59899998 4290230181
-0.15887401 -0.185819 0.60000002 4290032802
-0.157517 -0.186129 0.60100001 4290098595
-0.15615501 -0.18643899 0.602 4290558632
-0.154018 -0.185821 0.60000002 4290098081
-0.152399 -0.185822 0.60000002 4290031775
-0.15078101 -0.18582299 0.60000002 4290229154
-0.14966001 -0.186444 0.602 4290097826
-0.148036 -0.186445 0.602 4290032033
-0.145926 -0.185827 0.60000002 4289834656
-0.144068 -0.18551899 0.59899998 4289966240
-0.142452 -0.18552101 0.59899998 4290163619
-0.14107201 -0.18583301 0.60000002 4289834909
-0.13945401 -0.185835 0.60000002 4289834909
-0.13760699 -0.185527 0.59899998 4290032288
-0.135537 -0.18491 0.597 4290032033
-0.133928 -0.184912 0.597 4289966240
-0.13254 -0.185224 0.59799999 4289703584
-0.131146 -0.185537 0.59899998 4289703582
-0.129531 -0.18553901 0.59899998 4289769375
-0.12791599 -0.185542 0.59899998 4289966495
-0.12651201 -0.185854 0.60000002 4289703323
-0.124894 -0.185857 0.60000002 4289703323
-0.123071 -0.18555 0.59899998 4289571737
-0.121659 -0.185863 0.60000002 4289966495
-0.120041 -0.185866 0.60000002 4289571996
-0.118423 -0.18586899 0.60000002 4289243031
-0.116806 -0.185872 0.60000002 4289571482
-0.11538 -0.186185 0.60100001 4289505689
-0.113949 -0.186498 0.602 4289374358
-0.112139 -0.18619201 0.60100001 4289571737
-0.110702 -0.186505 0.602 4289571735
-0.109079 -0.186508 0.602 4289440149
-0.107455 -0.18651199 0.602 4289637528
-0.105656 -0.186205 0.60100001 4289505942
-0.104035 -0.18620899 0.60100001 4289703321
-0.102585 -0.18652201 0.602 4289111184
-0.100962 -0.186526 0.602 4289309079
-0.099502899 -0.186839 0.60299999 4289111698
-0.097876497 -0.18684199 0.60299999 4289243023
-0.096090503 -0.186536 0.602 4289111437
-0.094466798 -0.18653999 0.602 4289045386
-0.092997096 -0.18685301 0.60299999 4289176458
-0.091370501 -0.186857 0.60299999 4289045126
-0.089446202 -0.18624 0.60100001 4289242251
-0.087824903 -0.186244 0.60100001 4289242251
-0.086060099 -0.185938 0.60000002 4289439630
-0.084722802 -0.186561 0.602 4289242251
-0.082960501 -0.18625399 0.60100001 4289374352
-0.081338897 -0.186258 0.60100001 4289308559
-0.079717197 -0.186261 0.60100001 4289111439
-0.078225397 -0.186575 0.602 4289111439
-0.076728202 -0.18688799 0.60299999 4289440402
-0.075100899 -0.186891 0.60299999 4289374609
-0.073351704 -0.18658499 0.602 4289506195
-0.071607798 -0.186278 0.60100001 4289177485
-0.0701022 -0.186591 0.602 4289309071
-0.068591103 -0.186904 0.60299999 4289177485
-0.0670745 -0.187217 0.60399997 4289045899
-0.065444 -0.18722101 0.60399997 4288848520
-0.063707903 -0.186914 0.60299999 4289045386
-0.0620801 -0.18691701 0.60299999 4288979340
-0.060251702 -0.18629999 0.60100001 4289176719
-0.058726601 -0.18661299 0.602 4288979340
-0.056911599 -0.185996 0.60000002 4289110926
-0.055383701 -0.186308 0.60100001 4289111439
-0.053850301 -0.186621 0.602 4289243025
-0.0522248 -0.18662401 0.602 4289243025
-0.0506832 -0.18693601 0.60299999 4289374356
-0.049054898 -0.186939 0.60299999 4289242770
-0.047505099 -0.187251 0.60399997 4289045905
-0.045873899 -0.187254 0.60399997 4288914321
-0.0441694 -0.186946 0.60299999 4289045652
-0.042470202 -0.186639 0.602 4289243286
-0.040776402 -0.186331 0.60100001 4289045652
-0.039087899 -0.186023 0.60000002 4288979861
-0.0375297 -0.186335 0.60100001 4289506203
-0.035846502 -0.18602701 0.60000002 4289243033
-0.034282699 -0.18633901 0.60100001 4288848275
-0.0327136 -0.18665101 0.602 4289243033
-0.031138901 -0.18696199 0.60299999 4289440410
-0.0295099 -0.18696401 0.60299999 4289045652
-0.027788401 -0.18634599 0.60100001 4289112215
-0.026121199 -0.186037 0.60000002 4288980889
-0.024541 -0.18634801 0.60100001 4288586131
-0.0229172 -0.18635 0.60100001 4288848789
-0.0213643 -0.18697099 0.60299999 4288979859
-0.019734999 -0.18697201 0.60299999 4288585356
-0.018165801 -0.187593 0.60500002 4288716173
-0.0165311 -0.187594 0.60500002 4288913552
-0.0148718 -0.18728501 0.60399997 4288715922
-0.0132178 -0.186976 0.60299999 4289175952
-0.0115885 -0.186977 0.60299999 4288649861
-0.0099756103 -0.187287 0.60399997 4286478945
-0.00832971 -0.186978 0.60299999 4288386942
-0.00667809 -0.186358 0.60100001 4288979853
-0.0050456701 -0.186048 0.60000002 4288584840
-0.00342437 -0.186049 0.60000002 4288322184
-0.00180906 -0.18666901 0.602 4288782735
-0.000182644 -0.186979 0.60299999 4288585103
0.0014467801 -0.186979 0.60299999 4288454031
0.0030711 -0.18666901 0.602 4287533183
0.0047134198 -0.187289 0.60399997 4287401597
0.0063350298 -0.186978 0.60299999 4287927171
0.0079644304 -0.186978 0.60299999 4288059012
0.0095779104 -0.186667 0.602 4288848014
0.0112046 -0.186667 0.602 4288255877
0.0128525 -0.186976 0.60299999 4288190082
0.0144819 -0.186975 0.60299999 4288650368
0.016164601 -0.18759499 0.60500002 4288452735
0.017769899 -0.18728399 0.60399997 4288386943
0.0194019 -0.18728299 0.60399997 4288321410
0.020998999 -0.18697099 0.60299999 4288255364
0.0226657 -0.18728 0.60399997 4288386950
0.024297601 -0.187279 0.60399997 4287795326
0.0260153 -0.187898 0.60600001 4288387463
0.0275613 -0.18727601 0.60399997 4288453001
0.029193001 -0.18727399 0.60399997 4287992450
0.030773699 -0.18696301 0.60299999 4288255877
0.032402702 -0.186961 0.60299999 4288453256
0.033975199 -0.18664899 0.602 4288058496
0.0356014 -0.186647 0.602 4287861117
0.0372894 -0.186955 0.60299999 4287202929
0.038982701 -0.187263 0.60399997 4286937970
0.040681399 -0.187571 0.60500002 4287069801
0.042385399 -0.187879 0.60600001 4287004259
0.044022199 -0.187877 0.60600001 4286083411
0.045658801 -0.187874 0.60600001 4286676062
0.0472955 -0.18787199 0.60600001 4287268199
0.0488513 -0.18756001 0.60500002 4287268461
0.050485101 -0.187557 0.60500002 4286873703
0.052032702 -0.187244 0.60399997 4286873187
0.0535748 -0.186932 0.60299999 4287728496
0.055202998 -0.186929 0.60299999 4287267945
0.056831099 -0.18692601 0.60299999 4286412890
0.0584592 -0.186923 0.60299999 4286412376
0.0600872 -0.18692 0.60299999 4287728750
0.061817501 -0.187227 0.60399997 4287793775
0.063553102 -0.187534 0.60500002 4287661929
0.065078497 -0.18722101 0.60399997 4285556048
0.066488102 -0.186598 0.602 4286279518
0.068226203 -0.186905 0.60299999 4285161037
0.069737896 -0.186592 0.602 4286347097
0.071599796 -0.187209 0.60399997 4287728496
0.073108703 -0.186895 0.60299999 4287466092
0.074859999 -0.18720201 0.60399997 4287466092
0.0763634 -0.18688899 0.60299999 4287137129
0.078249298 -0.18750501 0.60500002 4287202920
0.079881802 -0.187502 0.60500002 4286544224
0.081648998 -0.18780801 0.60600001 4287005027
0.083284102 -0.187805 0.60600001 4286676821
0.084779002 -0.187491 0.60500002 4286545245
0.086554103 -0.18779799 0.60600001 4285822542
0.088188998 -0.187794 0.60600001 4283913539
0.089823902 -0.187791 0.60600001 4281478439
0.0913077 -0.18747699 0.60500002 4286939764
0.092786103 -0.18716399 0.60399997 4287203189
0.094571702 -0.18747 0.60500002 4286478439
0.096203603 -0.18746699 0.60500002 4286280546
0.097835399 -0.187463 0.60500002 4286543962
0.099302702 -0.18715 0.60399997 4286280789
0.100932 -0.18714599 0.60399997 4286675801
0.102391 -0.18683299 0.60299999 4286478682
0.104017 -0.186829 0.60299999 4286544992
0.105643 -0.18682601 0.60299999 4286478945
0.107447 -0.187132 0.60399997 4286347106
0.109257 -0.18743899 0.60500002 4286412385
0.111071 -0.187745 0.60600001 4286280797
0.112891 -0.188051 0.60699999 4286281052
0.114339 -0.187738 0.60600001 4286215257
0.115782 -0.187425 0.60500002 4286281304
0.117413 -0.18742201 0.60500002 4286609501
0.119045 -0.187419 0.60500002 4286346329
0.120676 -0.187416 0.60500002 4286346329
0.121903 -0.186793 0.60299999 4286280538
0.123529 -0.18679 0.60299999 4286346329
0.124947 -0.18647701 0.602 4286017617
0.12678 -0.186784 0.60299999 4286280273
0.12819301 -0.186472 0.602 4286345817
0.129816 -0.186469 0.602 4286411102
0.13100301 -0.185847 0.60000002 4286674529
0.13306201 -0.186464 0.602 4286346329
0.13468599 -0.186461 0.602 4286806880
0.136309 -0.186459 0.602 4286281050
0.137932 -0.18645699 0.602 4286544222
0.13955501 -0.186455 0.602 4286610785
0.141179 -0.186452 0.602 4286479197
0.142802 -0.18645 0.602 4286413404
0.144665 -0.186758 0.60299999 4286216025
0.14604899 -0.18644699 0.602 4286741854
0.147672 -0.186445 0.602 4286544475
0.149544 -0.186754 0.60299999 4286478683
0.15117 -0.18675201 0.60299999 4286347611
0.152797 -0.18675099 0.60299999 4286676829
0.154167 -0.18644001 0.602 4286610783
0.15605 -0.186749 0.60299999 4286742371
0.15715399 -0.186129 0.60100001 4286742371
0.158511 -0.185819 0.60000002 4286610783
0.16012999 -0.185818 0.60000002 4286413404
0.161479 -0.185508 0.59899998 4286873957
0.16364101 -0.18612801 0.60100001 4286676578
0.165263 -0.18612801 0.60100001 4286939750
0.167163 -0.18643799 0.602 4286808676
0.16850699 -0.18612801 0.60100001 4286676831
0.17013 -0.186129 0.60100001 4286676829
0.172038 -0.18644001 0.602 4286545759
0.17337599 -0.186131 0.60100001 4286479711
0.17529 -0.186442 0.602 4286544990
0.176622 -0.186134 0.60100001 4286479711
0.178543 -0.186445 0.602 4286611297
0.180169 -0.18644699 0.602 4287071334
0.182098 -0.186759 0.60299999 4286808162
0.183423 -0.186451 0.602 4287070820
0.184743 -0.18614399 0.60100001 4287136613
0.186058 -0.185837 0.60000002 4286544990
0.187681 -0.18584 0.60000002 4286873957
0.18930399 -0.185844 0.60000002 4286808415
0.190927 -0.185847 0.60000002 4286611038
0.19255 -0.18585099 0.60000002 4286610268
0.19417401 -0.185855 0.60000002 4286610268
0.19579899 -0.18585999 0.60000002 4286807647
0.197423 -0.185865 0.60000002 4287136612
0.19938 -0.186179 0.60100001 4286807647
0.20100801 -0.186185 0.60100001 4286742369
0.20297401 -0.1865 0.602 4287071336
0.203926 -0.185886 0.60000002 4287071336
0.205553 -0.185893 0.60000002 4286874218
0.20717999 -0.185899 0.60000002 4286544999
0.20950399 -0.186526 0.602 4286742118
0.211138 -0.186533 0.602 4286676324
0.212418 -0.186231 0.60100001 4286478683
0.21369401 -0.185929 0.60000002 4286807134
0.215683 -0.18624701 0.60100001 4286675548
0.217678 -0.186565 0.602 4286478169
0.21931399 -0.186574 0.602 4286412376
0.22058401 -0.18627401 0.60100001 4286018132
0.22221901 -0.18628301 0.60100001 4286215511
0.22385401 -0.186294 0.60100001 4286807648
0.225866 -0.18661401 0.602 4286610269
0.226749 -0.186005 0.60000002 4286609755
0.228384 -0.18601599 0.60000002 4286478683
0.23002 -0.186028 0.60000002 4286281818
0.231656 -0.18604 0.60000002 4286544990
0.232904 -0.185743 0.59899998 4286019160
0.234539 -0.185756 0.59899998 4286150748
0.235781 -0.185459 0.59799999 4286150748
0.237415 -0.185473 0.59799999 4285822040
0.23944899 -0.18579701 0.59899998 4286085210
0.241892 -0.186432 0.60100001 4285887576
0.24353699 -0.18644799 0.60100001 4286151001
0.24436601 -0.18584301 0.59899998 4285821781
0.246007 -0.18585899 0.59899998 4286281820
0.247649 -0.185876 0.59899998 4286281820
0.249708 -0.186203 0.60000002 4286676578
0.250936 -0.185911 0.59899998 4286478945
0.252581 -0.185929 0.59899998 4286479197
0.253802 -0.185637 0.59799999 4286347611
0.25587401 -0.185967 0.59899998 4286347611
0.25752199 -0.185987 0.59899998 4286412636
0.25917101 -0.18600699 0.59899998 4286412636
0.26038501 -0.185717 0.59799999 4286478429
0.262034 -0.185739 0.59799999 4285886808
0.263684 -0.185761 0.59799999 4286413406
0.26577899 -0.186094 0.59899998 4286215511
0.267434 -0.18611699 0.59899998 4286675808
0.26909 -0.186141 0.59899998 4286280790
0.27074701 -0.186165 0.59899998 4286412376
0.272861 -0.186501 0.60000002 4285952582
0.27406701 -0.186216 0.59899998 4286413125
0.27572799 -0.186242 0.59899998 4286609746
0.27692801 -0.185958 0.59799999 4286214733
0.27858999 -0.185985 0.59799999 4286412112
0.28025299 -0.186013 0.59799999 4286741330
0.28191799 -0.186042 0.59799999 4286675537
0.28310901 -0.18576001 0.597 4286215754
0.28477401 -0.185791 0.597 4286281547
0.28740099 -0.186444 0.59899998 4286544467
0.28955701 -0.18678699 0.60000002 4286413396
0.29026401 -0.186196 0.59799999 4286939487
0.29193899 -0.18622901 0.59799999 4285623373
0.292633 -0.18564001 0.59600002 4286873955
0.294305 -0.185674 0.59600002 4287597947
0.29597899 -0.18571 0.59600002 4287137394
0.29865301 -0.186369 0.59799999 4287006061
0.30033699 -0.186405 0.59799999 4286413924
0.30202201 -0.186443 0.59799999 4286808935
0.303709 -0.186481 0.59799999 4287335277
0.304887 -0.18620799 0.597 4287269486
0.30657601 -0.186248 0.597 4287269488
0.30774999 -0.185977 0.59600002 4287071854
0.309439 -0.18601801 0.59600002 4286874475
0.311131 -0.18606099 0.59600002 4287466612
0.31334999 -0.186416 0.597 4286940270
0.31504899 -0.18646 0.597 4286677098
0.31674999 -0.186505 0.597 4287401074
0.31898701 -0.186864 0.59799999 4288321921
0.32016 -0.186598 0.597 4287400562
0.32240701 -0.186958 0.59799999 4287006057
0.324121 -0.187007 0.59799999 4286874471
0.32529199 -0.186744 0.597 4287269488
0.32591301 -0.186169 0.59500003 4287203440
0.32762501 -0.18622001 0.59500003 4287137902
0.32989401 -0.18658499 0.59600002 4287598453
0.331615 -0.186639 0.59600002 4287401074
0.33333799 -0.186693 0.59600002 4287795066
0.33506501 -0.186748 0.59600002 4287203434
0.33735901 -0.18711799 0.597 4286874210
0.33909401 -0.187176 0.597 4286478936
0.33969 -0.186607 0.59500003 4286676315
0.34199899 -0.18697999 0.59600002 4286873694
0.34373999 -0.187041 0.59600002 4286478422
0.34490401 -0.18678901 0.59500003 4286544215
0.34664899 -0.18685199 0.59500003 4287003996
0.34898201 -0.18723001 0.59600002 4286806872
0.35073501 -0.187295 0.59600002 4286544468
0.351309 -0.18673301 0.59399998 4287004766
0.353064 -0.1868 0.59399998 4286939233
0.35541901 -0.18718299 0.59500003 4286807647
0.357784 -0.18756799 0.59600002 4287531624
0.35955501 -0.187639 0.59600002 4287202144
0.36132899 -0.187711 0.59600002 4284965182
0.36310801 -0.187785 0.59600002 4286148942
0.36489001 -0.18786 0.59600002 4286346321
0.36667499 -0.18793599 0.59600002 4285819977
0.36846501 -0.188014 0.59600002 4287531109
0.37088001 -0.188408 0.597 4287399784
0.37205699 -0.188173 0.59600002 4286610783
0.37323099 -0.187938 0.59500003 4287268199
0.37566501 -0.188337 0.59600002 4287202659
0.37810799 -0.188738 0.597 4286478421
0.37929001 -0.18850701 0.59600002 4287005019
0.38046899 -0.188278 0.59500003 4286676062
0.38164699 -0.18805 0.59399998 4286413918
0.38411501 -0.188457 0.59500003 4285493073
0.38659301 -0.18886501 0.59600002 4282664237
0.38843101 -0.188959 0.59600002 4281019414
0.390273 -0.189053 0.59600002 4287927679
0.39212 -0.18915001 0.59600002 4287335281
0.39331099 -0.18893 0.59500003 4286677853
0.39516601 -0.18902899 0.59500003 4286742622
0.39568999 -0.188495 0.59299999 4286742371
0.39821899 -0.188915 0.59399998 4286610785
0.40008599 -0.18901899 0.59399998 4287005550
0.40331101 -0.189762 0.59600002 4287071344
0.405195 -0.18987 0.59600002 4286807657
0.40640199 -0.189661 0.59500003 4286610539
0.40692201 -0.189134 0.59299999 4286742126
0.40950301 -0.189566 0.59399998 4286479464
0.41140401 -0.18968099 0.59399998 4287137394
0.41330999 -0.189797 0.59399998 4287006316
0.41452399 -0.189596 0.59299999 4286808684
0.41573799 -0.18939599 0.59200001 4286940268
-0.19970401 -0.186251 0.59600002 4289767826
-0.19775601 -0.18593299 0.59500003 4289833874
-0.195815 -0.185615 0.59399998 4289965460
