# .PCD v0.7 - Point Cloud Data file format
VERSION 0.7
FIELDS x y z rgb
SIZE 4 4 4 4
TYPE F F F U
COUNT 1 1 1 1
WIDTH 1135
HEIGHT 1
VIEWPOINT 0 0 0 1 0 0 0
POINTS 1135
DATA ascii
0.13530301 0.106271 0.68599999 4286084201
0.136952 0.106111 0.685 4285821543
0.138798 0.106105 0.685 4285953130
0.14084899 0.106254 0.68599999 4285887853
0.142906 0.106403 0.68699998 4285822574
0.144756 0.106397 0.68699998 4286019951
0.146607 0.106392 0.68699998 4286151023
0.14845701 0.106386 0.68699998 4285624164
0.150526 0.106535 0.68800002 4285229399
0.15193599 0.106219 0.68599999 4285097811
0.15333501 0.105904 0.68400002 4285426519
0.15494899 0.105743 0.68300003 4285558364
0.15724701 0.106047 0.685 4285624157
0.159091 0.106042 0.685 4285623902
0.16069999 0.105881 0.68400002 4285689443
0.16254 0.105876 0.68400002 4285755490
0.164381 0.10587 0.68400002 4285755743
0.165979 0.10571 0.68300003 4285821536
0.16756999 0.105549 0.68199998 4286149988
0.169405 0.105544 0.68199998 4285030993
0.17174201 0.105848 0.68400002 4285688417
0.17383599 0.105997 0.685 4286017384
0.175678 0.105991 0.685 4285426523
0.17726099 0.105831 0.68400002 4285953122
0.178839 0.105671 0.68300003 4285953122
0.180676 0.105666 0.68300003 4285953122
0.18278 0.105815 0.68400002 4285624157
0.184889 0.105965 0.685 4285821276
0.186731 0.10596 0.685 4285887323
0.188297 0.1058 0.68400002 4285623637
0.189858 0.10564 0.68300003 4286083934
0.191414 0.10548 0.68199998 4285557590
0.19324701 0.105476 0.68199998 4285754969
0.195081 0.105471 0.68199998 4285557591
0.196914 0.105466 0.68199998 4285229140
0.19874801 0.105461 0.68199998 4286216294
0.200581 0.105457 0.68199998 4286808431
0.202415 0.105452 0.68199998 4286545006
0.204548 0.105602 0.68300003 4286413680
0.206384 0.105598 0.68300003 4286413680
0.20791499 0.105439 0.68199998 4286348141
0.209749 0.105435 0.68199998 4286479725
0.211272 0.105276 0.68099999 4286413673
0.213416 0.105427 0.68199998 4286216292
0.21525 0.105423 0.68199998 4286216294
0.21708401 0.10542 0.68199998 4286676590
0.218918 0.105416 0.68199998 4286348139
0.220752 0.105412 0.68199998 4286216553
0.222912 0.105564 0.68300003 4286347627
0.22442 0.105406 0.68199998 4286347625
0.225923 0.105248 0.68099999 4286216294
0.227755 0.105245 0.68099999 4286216294
0.230261 0.105551 0.68300003 4285886823
0.232099 0.105549 0.68300003 4285295199
0.233937 0.105546 0.68300003 4285624418
0.23577499 0.105544 0.68300003 4286018662
0.237266 0.105387 0.68199998 4285953122
0.23875099 0.10523 0.68099999 4286611052
0.240585 0.105228 0.68099999 4286216294
0.242419 0.105226 0.68099999 4286347621
0.243894 0.10507 0.68000001 4286347621
0.245726 0.105069 0.68000001 4286149988
0.247922 0.105222 0.68099999 4286347367
0.24975701 0.105221 0.68099999 4286347625
0.25159299 0.10522 0.68099999 4285755743
0.253057 0.105064 0.68000001 4286347878
0.25564 0.105373 0.68199998 4286150241
0.25748 0.105372 0.68199998 4285689944
0.25931999 0.105372 0.68199998 4285689944
0.260777 0.105217 0.68099999 4286018141
0.26261601 0.105218 0.68099999 4285886555
0.26484299 0.105372 0.68199998 4285820763
0.26707599 0.105527 0.68300003 4285294418
0.268527 0.105374 0.68199998 4285820246
0.26957801 0.105066 0.68000001 4285557844
0.27061799 0.104758 0.67799997 4285689430
0.27325499 0.105068 0.68000001 4285623637
0.275094 0.10507 0.68000001 4285492565
0.27693501 0.105072 0.68000001 4285492565
0.27836499 0.104919 0.67900002 4285558357
0.280617 0.105076 0.68000001 4285886808
0.28245899 0.105079 0.68000001 4285557844
0.284302 0.105082 0.68000001 4285557074
0.28614599 0.105085 0.68000001 4285753939
0.28756699 0.104933 0.67900002 4285687895
0.28941 0.104937 0.67900002 4285491788
0.29082501 0.104786 0.67799997 4285688913
0.292667 0.10479 0.67799997 4285624141
0.29450899 0.104795 0.67799997 4285623890
0.29635301 0.104799 0.67799997 4285689683
0.298637 0.104959 0.67900002 4285492050
0.300486 0.104964 0.67900002 4285754708
0.30278 0.105124 0.68000001 4285688915
0.304185 0.104975 0.67900002 4285754706
0.30693799 0.10529 0.68099999 4285754706
0.30788901 0.104988 0.67900002 4285427025
0.309742 0.104994 0.67900002 4285821781
0.311138 0.104847 0.67799997 4285558609
0.31391501 0.105163 0.68000001 4285887827
0.316239 0.105325 0.68099999 4285690195
0.317635 0.105179 0.68000001 4285229650
0.31902799 0.105032 0.67900002 4285689690
0.320889 0.105041 0.67900002 4285032271
0.32275099 0.10505 0.67900002 4285163857
0.324615 0.105059 0.67900002 4285689943
0.32648 0.105069 0.67900002 4286216025
0.32931301 0.105388 0.68099999 4285755726
0.33021399 0.105089 0.67900002 4285952592
0.33159399 0.104945 0.67799997 4286214996
0.33395401 0.105111 0.67900002 4286347097
0.33632201 0.105277 0.68000001 4286018648
0.338696 0.105444 0.68099999 4286018648
0.34057701 0.105456 0.68099999 4286281050
0.341957 0.105313 0.68000001 4286018132
0.34383899 0.105326 0.68000001 4286214997
0.34521499 0.105185 0.67900002 4286542678
0.34863099 0.105664 0.68199998 4286411092
0.35001001 0.105523 0.68099999 4286477401
0.35190201 0.105537 0.68099999 4286346331
0.35327601 0.105397 0.68000001 4286280797
0.355169 0.105413 0.68000001 4285951832
0.35758999 0.105584 0.68099999 4286478682
0.358962 0.105445 0.68000001 4286413143
0.36032999 0.105307 0.67900002 4286675801
0.36222899 0.105324 0.67900002 4286347097
0.36412901 0.105342 0.67900002 4286741087
0.36657199 0.105515 0.68000001 4286478178
0.36848 0.105533 0.68000001 4286215006
0.37093499 0.105708 0.68099999 4286412385
0.37230301 0.105572 0.68000001 4286478693
0.373667 0.105437 0.67900002 4286478176
0.375029 0.105302 0.67799997 4286872675
0.37805501 0.105634 0.68000001 4286346331
0.379419 0.1055 0.67900002 4286412638
0.38134199 0.105522 0.67900002 4286281566
0.38326699 0.105544 0.67900002 4286018908
0.38576201 0.105723 0.68000001 4286084701
0.38712499 0.105591 0.67900002 4285887322
0.389631 0.105771 0.68000001 4285755737
0.39099401 0.10564 0.67900002 4286215774
0.39351201 0.105821 0.68000001 4286281827
0.395457 0.105846 0.68000001 4285624661
0.397405 0.105873 0.68000001 4284637260
0.39935601 0.1059 0.68000001 4282927673
0.40131 0.105927 0.68000001 4287270525
0.40386099 0.106111 0.68099999 4287533696
0.40522799 0.105984 0.68000001 4287466875
0.40779099 0.106169 0.68099999 4287795585
0.41036299 0.106355 0.68199998 4287598208
0.41294399 0.106542 0.68300003 4287729540
0.415535 0.106729 0.68400002 4287269243
0.41691399 0.106605 0.68300003 4287663487
0.41890401 0.106638 0.68300003 4287466106
0.42089799 0.106671 0.68300003 4287005304
0.422896 0.106705 0.68300003 4287466361
0.424898 0.10674 0.68300003 4287268469
0.42627901 0.106619 0.68199998 4287137396
0.428285 0.106655 0.68199998 4287466361
0.430296 0.106691 0.68199998 4287137396
0.43294501 0.106885 0.68300003 4287532668
0.43432999 0.106767 0.68199998 4287795840
0.43699399 0.106962 0.68300003 4287597947
0.43902501 0.107002 0.68300003 4287597692
0.441706 0.107199 0.68400002 4287400313
0.44374901 0.10724 0.68400002 4287335034
0.445797 0.107282 0.68400002 4287663999
0.44784901 0.107325 0.68400002 4287598461
0.44990599 0.107368 0.68400002 4286940015
0.45394999 0.107884 0.68699998 4286216292
0.456027 0.107929 0.68699998 4286874218
0.45810801 0.107975 0.68699998 4286544990
0.45952401 0.107865 0.68599999 4286808668
0.46094 0.107756 0.685 4286939750
0.46167901 0.10749 0.68300003 4287400819
0.46376899 0.107539 0.68300003 4286676843
0.46586499 0.107589 0.68300003 4287268980
0.47002199 0.108113 0.68599999 4287399808
0.47145101 0.108008 0.685 4287334268
0.47426099 0.108218 0.68599999 4287203183
0.47500101 0.107957 0.68400002 4287400308
-0.19863901 0.102401 0.67400002 4288716182
-0.197119 0.102557 0.67500001 4288913300
-0.195305 0.102562 0.67500001 4288979093
-0.19349 0.102566 0.67500001 4289308058
-0.19167601 0.102571 0.67500001 4289571230
-0.19014201 0.102728 0.676 4289505437
-0.18804599 0.102581 0.67500001 4289768609
-0.186232 0.102586 0.67500001 4289768609
-0.18441699 0.102591 0.67500001 4289900449
-0.182602 0.102596 0.67500001 4289966240
-0.180787 0.102601 0.67500001 4289966495
-0.17897201 0.102606 0.67500001 4289440663
-0.17741901 0.102763 0.676 4289769628
-0.17560101 0.102768 0.676 4289901216
-0.173526 0.102622 0.67500001 4289704351
-0.17145599 0.102475 0.67400002 4289638559
-0.169643 0.10248 0.67400002 4289704352
-0.168079 0.102638 0.67500001 4289703584
-0.166263 0.102643 0.67500001 4289900963
-0.16444699 0.102649 0.67500001 4289835170
-0.16263101 0.102654 0.67500001 4289505951
-0.160576 0.102508 0.67400002 4289637537
-0.158998 0.102665 0.67500001 4289637791
-0.157414 0.102823 0.676 4289505951
-0.156055 0.103133 0.67799997 4289506205
-0.15377501 0.102834 0.676 4289703070
-0.15218 0.102992 0.67699999 4289505689
-0.150135 0.102845 0.676 4289439896
-0.148753 0.103155 0.67799997 4289111447
-0.146927 0.103161 0.67799997 4289571744
-0.145101 0.103167 0.67799997 4289242779
-0.14327499 0.103172 0.67799997 4289308058
-0.141449 0.103178 0.67799997 4289373851
-0.13941599 0.103031 0.67699999 4289570977
-0.137592 0.103037 0.67699999 4289505691
-0.135767 0.103043 0.67699999 4289505689
-0.134141 0.1032 0.67799997 4289439896
-0.132118 0.103054 0.67699999 4289111445
-0.130293 0.103059 0.67699999 4289374617
-0.128657 0.103217 0.67799997 4289571484
-0.126829 0.103223 0.67799997 4289308312
-0.125001 0.103228 0.67799997 4289308312
-0.12299 0.103081 0.67699999 4289571484
-0.121343 0.103239 0.67799997 4289439898
-0.11969 0.103397 0.67900002 4289703070
-0.117858 0.103402 0.67900002 4289374103
-0.115684 0.103103 0.67699999 4289242772
-0.113689 0.102956 0.676 4289571737
-0.112029 0.103113 0.67699999 4289242772
-0.110527 0.103423 0.67900002 4289374358
-0.108854 0.103581 0.68000001 4289242772
-0.106861 0.103434 0.67900002 4289308565
-0.104872 0.103286 0.67799997 4289374358
-0.102737 0.102987 0.676 4289242517
-0.10121 0.103296 0.67799997 4289243031
-0.099231198 0.103149 0.67699999 4289703584
-0.097401999 0.103154 0.67699999 4289834917
-0.095713802 0.103311 0.67799997 4289768870
-0.093881398 0.103316 0.67799997 4289834663
-0.092184603 0.103473 0.67900002 4289834663
-0.090216003 0.103325 0.67799997 4289637284
-0.0883829 0.10333 0.67799997 4289242780
-0.086677298 0.103486 0.67900002 4289111194
-0.084966101 0.103643 0.68000001 4288913815
-0.083371498 0.103952 0.68199998 4288979608
-0.081407197 0.103804 0.68099999 4289045400
-0.079681903 0.103961 0.68199998 4289176986
-0.077722602 0.103813 0.68099999 4289045400
-0.075879999 0.103817 0.68099999 4289176987
-0.073928401 0.103668 0.68000001 4289045147
-0.071982101 0.10352 0.67900002 4289110940
-0.070041001 0.103371 0.67799997 4288979354
-0.068406902 0.10368 0.68000001 4289045147
-0.066761799 0.103988 0.68199998 4289176986
-0.065010399 0.104145 0.68300003 4289242779
-0.063161097 0.104148 0.68300003 4289242265
-0.0614013 0.104304 0.68400002 4289439644
-0.059548799 0.104307 0.68400002 4289439645
-0.057611901 0.104158 0.68300003 4288979354
-0.055761799 0.104161 0.68300003 4289242526
-0.0539116 0.104164 0.68300003 4289440673
-0.0520612 0.104167 0.68300003 4289177756
-0.050284199 0.104323 0.68400002 4289111447
-0.0485016 0.104478 0.685 4289308826
-0.046713501 0.104633 0.68599999 4288979345
-0.044789001 0.104483 0.685 4288979345
-0.042932499 0.104486 0.685 4289045140
-0.041015901 0.104336 0.68400002 4288913554
-0.0392191 0.104491 0.685 4288453517
-0.037307698 0.10434 0.68400002 4288519056
-0.035557099 0.104647 0.68599999 4288322447
-0.033746399 0.104802 0.68699998 4288519571
-0.0318374 0.104651 0.68599999 4288190606
-0.0299337 0.1045 0.685 4288387732
-0.0280763 0.104502 0.685 4288387987
-0.026295399 0.104809 0.68699998 4287993488
-0.0244679 0.104963 0.68800002 4288059281
-0.022602201 0.104964 0.68800002 4287927950
-0.020676101 0.10466 0.68599999 4287796362
-0.018815599 0.104662 0.68599999 4287861643
-0.0169551 0.104663 0.68599999 4287861641
-0.0151165 0.104816 0.68699998 4287861896
-0.0132338 0.104664 0.68599999 4287730310
-0.0114063 0.10497 0.68800002 4287664517
-0.00952633 0.104818 0.68699998 4287861126
-0.00767403 0.104971 0.68800002 4287531647
-0.0058162799 0.105124 0.68900001 4287531647
-0.0039588199 0.10543 0.69099998 4287400061
-0.00207843 0.105125 0.68900001 4286939510
-0.000209491 0.105125 0.68900001 4286281580
0.0016546299 0.10482 0.68699998 4286742645
0.0035181399 0.104819 0.68699998 4286545781
0.0053738002 0.104667 0.68599999 4287006332
0.0072345701 0.104666 0.68599999 4286677367
0.0091085704 0.104818 0.68699998 4286545781
0.010956 0.104665 0.68599999 4286282864
0.012798 0.104512 0.685 4286413418
0.0146774 0.104664 0.68599999 4286216039
0.0165621 0.104815 0.68699998 4286347880
0.018505801 0.105272 0.69 4285953122
0.0203771 0.105271 0.69 4286216039
0.0222161 0.105117 0.68900001 4286150246
0.0240846 0.105116 0.68900001 4285689443
0.025915399 0.104962 0.68800002 4285886822
0.027821399 0.105113 0.68900001 4286215787
0.029689601 0.105111 0.68900001 4286084201
0.031512 0.104957 0.68800002 4286018662
0.033425901 0.105107 0.68900001 4286150248
0.035293799 0.105105 0.68900001 4286084455
0.037215602 0.105256 0.69 4286544752
0.0390861 0.105254 0.69 4286676592
0.0410158 0.105404 0.69099998 4286545518
0.0427646 0.105096 0.68900001 4286150760
0.0445024 0.104789 0.68699998 4286348139
0.046229199 0.104481 0.685 4286216301
0.048225898 0.104784 0.68699998 4286479474
0.0500875 0.104781 0.68699998 4286479220
0.051948901 0.104778 0.68699998 4286479220
0.053810101 0.104775 0.68699998 4286347634
0.055752199 0.104924 0.68800002 4286610545
0.057699598 0.105074 0.68900001 4286478959
0.059565801 0.105071 0.68900001 4286676592
0.061342701 0.104915 0.68800002 4286610797
0.063113898 0.104759 0.68699998 4286413420
0.064974204 0.104755 0.68699998 4286281580
0.066931501 0.104904 0.68800002 4286347373
0.068894103 0.105053 0.68900001 4286215787
0.0707592 0.105049 0.68900001 4286215788
0.072518699 0.104893 0.68800002 4286413166
0.074597001 0.105194 0.69 4286347373
0.076353401 0.105037 0.68900001 4285953129
0.0782177 0.105033 0.68900001 4286084715
0.079965599 0.104877 0.68800002 4285887337
0.081826799 0.104872 0.68800002 4286018922
0.083687797 0.104868 0.68800002 4286282094
0.0856729 0.105016 0.68900001 4285689957
0.087536201 0.105012 0.68900001 4286084967
0.089529 0.105159 0.69 4285822050
0.091262102 0.105002 0.68900001 4285821795
0.092989497 0.104845 0.68800002 4285427037
0.094849199 0.104841 0.68800002 4285098335
0.096708603 0.104836 0.68800002 4283781707
0.098567903 0.104831 0.68800002 4282335029
0.100573 0.104978 0.68900001 4285624681
0.102286 0.104821 0.68800002 4286151023
0.104144 0.104816 0.68800002 4286085485
0.105848 0.104658 0.68699998 4286216555
0.10786 0.104806 0.68800002 4286216555
0.109718 0.1048 0.68800002 4285887590
0.111576 0.104795 0.68800002 4286019176
0.113433 0.10479 0.68800002 4286084969
0.11529 0.104785 0.68800002 4286611829
0.117147 0.104779 0.68800002 4285756520
0.119004 0.104774 0.68800002 4286217071
0.121036 0.104921 0.68900001 4286809208
0.122895 0.104915 0.68900001 4286546036
0.124754 0.10491 0.68900001 4285756520
0.12642799 0.104752 0.68800002 4285756518
0.12828401 0.104746 0.68800002 4286019176
0.13013899 0.104741 0.68800002 4286347887
0.13199399 0.104735 0.68800002 4285624418
0.133654 0.104577 0.68699998 4285887076
0.135112 0.104267 0.685 4286018662
0.136758 0.104109 0.68400002 4285821797
0.138399 0.103951 0.68300003 4286084716
0.14065 0.10425 0.685 4286019437
0.142703 0.104397 0.68599999 4286151537
0.14455099 0.104391 0.68599999 4286085230
0.14618599 0.104233 0.685 4286151023
0.148031 0.104227 0.685 4285624416
0.149876 0.104222 0.685 4285624157
0.151499 0.104064 0.68400002 4285624157
0.15289199 0.103754 0.68199998 4285426776
0.154955 0.1039 0.68300003 4285295192
0.157023 0.104047 0.68400002 4285689950
0.15886401 0.104041 0.68400002 4285623902
0.160235 0.103731 0.68199998 4285952869
0.16230799 0.103878 0.68300003 4285755490
0.16414601 0.103872 0.68300003 4285689695
0.165984 0.103866 0.68300003 4285952609
0.167576 0.103709 0.68199998 4286018402
0.169411 0.103703 0.68199998 4285360473
0.171497 0.10385 0.68300003 4285689438
0.17358699 0.103997 0.68400002 4285821024
0.175427 0.103991 0.68400002 4285163351
0.177008 0.103834 0.68300003 4285887074
0.178844 0.103828 0.68300003 4286216292
0.18068101 0.103823 0.68300003 4286084708
0.182785 0.10397 0.68400002 4285887329
0.184624 0.103965 0.68400002 4285821534
0.186463 0.10396 0.68400002 4286018655
0.18775199 0.103651 0.68199998 4285689690
0.189307 0.103494 0.68099999 4285754969
0.191138 0.103489 0.68099999 4285689177
0.19268601 0.103332 0.68000001 4285820762
0.19451401 0.103327 0.68000001 4285820762
0.19634201 0.103322 0.68000001 4285294933
0.198461 0.10347 0.68099999 4286413414
0.19999801 0.103313 0.68000001 4287071344
0.201529 0.103157 0.67900002 4286939762
0.203953 0.103456 0.68099999 4286742385
0.20608599 0.103604 0.68199998 4286742131
0.207615 0.103448 0.68099999 4286282348
0.209445 0.103444 0.68099999 4286348139
0.21096601 0.103288 0.68000001 4286610797
0.213107 0.103436 0.68099999 4286545259
0.214938 0.103432 0.68099999 4286677359
0.216451 0.103276 0.68000001 4286611313
0.218279 0.103273 0.68000001 4286479727
0.220108 0.103269 0.68000001 4286610797
0.222589 0.103569 0.68199998 4286479211
0.224094 0.103414 0.68099999 4286413418
0.225594 0.103259 0.68000001 4286085465
0.227423 0.103256 0.68000001 4286677098
0.22959 0.103405 0.68099999 4286149994
0.23142201 0.103403 0.68099999 4286216302
0.233255 0.1034 0.68099999 4286545266
0.234742 0.103246 0.68000001 4285953383
0.236224 0.103091 0.67900002 4286084453
0.238052 0.103089 0.67900002 4286347880
0.239527 0.102935 0.67799997 4286413673
0.240997 0.102782 0.67699999 4285952867
0.24281999 0.10278 0.67699999 4286413418
0.244643 0.102779 0.67699999 4286216039
0.246831 0.102929 0.67799997 4286281832
0.249025 0.10308 0.67900002 4286347880
0.250855 0.103078 0.67900002 4286216294
0.25268599 0.103078 0.67900002 4286479466
0.25414199 0.102925 0.67799997 4286150499
0.25597 0.102925 0.67799997 4285822048
0.25741899 0.102772 0.67699999 4286216547
0.25924599 0.102772 0.67699999 4286413926
0.26145899 0.102924 0.67799997 4286348133
0.26406601 0.103228 0.68000001 4286084448
0.266684 0.103532 0.68199998 4286610278
0.267739 0.103229 0.68000001 4286872936
0.26878399 0.102926 0.67799997 4286215521
0.270217 0.102776 0.67699999 4286150242
0.272048 0.102777 0.67699999 4286347621
0.27428401 0.10293 0.67799997 4286347620
0.275711 0.10278 0.67699999 4286084448
0.27754301 0.102782 0.67699999 4286216035
0.279789 0.102936 0.67799997 4286216035
0.28121099 0.102787 0.67699999 4286149988
0.28304499 0.102789 0.67699999 4285952609
0.284881 0.102792 0.67699999 4286018142
0.287141 0.102947 0.67799997 4285754969
0.28898001 0.102951 0.67799997 4285952601
0.29082099 0.102954 0.67799997 4285755222
0.29223099 0.102807 0.67699999 4286149980
0.29407099 0.102811 0.67699999 4285952095
0.29634801 0.102967 0.67799997 4285887069
0.298632 0.103124 0.67900002 4285557590
0.30048001 0.103129 0.67900002 4285754970
0.302329 0.103134 0.67900002 4285689176
0.30373099 0.102988 0.67799997 4285953116
0.30512899 0.102842 0.67699999 4285624151
0.30697599 0.102848 0.67699999 4285821783
0.30882299 0.102854 0.67699999 4285690195
0.310213 0.102709 0.676 4285887062
0.31252199 0.102868 0.67699999 4285821269
0.31483799 0.103027 0.67799997 4286084188
0.31669301 0.103035 0.67799997 4285953116
0.31902 0.103195 0.67900002 4285886555
0.32088 0.103203 0.67900002 4285163600
0.322267 0.10306 0.67799997 4285229132
0.32364899 0.102917 0.67699999 4285820499
0.32550901 0.102926 0.67699999 4286149204
0.328336 0.10324 0.67900002 4285951825
0.32971701 0.103098 0.67799997 4286149204
0.33158401 0.103108 0.67799997 4286609241
0.33345199 0.103119 0.67799997 4286214997
0.335816 0.103282 0.67900002 4286215257
0.33768901 0.103294 0.67900002 4286149718
0.33856499 0.103001 0.67699999 4286215257
0.34093899 0.103166 0.67799997 4286412386
0.342309 0.103026 0.67699999 4286477925
0.34469301 0.103191 0.67799997 4286411608
0.34759501 0.103509 0.68000001 4286345815
0.348968 0.103371 0.67900002 4286477403
0.350337 0.103233 0.67799997 4286477662
0.35170299 0.103095 0.67699999 4286083671
0.35410899 0.103262 0.67799997 4286412890
0.35652301 0.10343 0.67900002 4286215510
0.35789001 0.103294 0.67799997 4286281050
0.35978299 0.10331 0.67799997 4286149203
0.36114499 0.103174 0.67699999 4286347097
0.36357599 0.103344 0.67799997 4286280536
0.365475 0.103362 0.67799997 4286478178
0.36737701 0.10338 0.67799997 4286478178
0.36982599 0.103551 0.67900002 4286346076
0.37064099 0.103265 0.67699999 4286346331
0.372547 0.103284 0.67699999 4286609755
0.37390199 0.103152 0.676 4286938720
0.377478 0.10363 0.67900002 4286610017
0.37883899 0.103498 0.67799997 4286873189
0.37963501 0.103215 0.676 4286544739
0.38098601 0.103084 0.67500001 4286413667
0.38346899 0.103259 0.676 4286545253
0.385391 0.103282 0.676 4286216288
0.38788801 0.103458 0.67699999 4286018655
0.38981801 0.103482 0.67699999 4286347620
0.39290801 0.103813 0.67900002 4286215520
0.39426801 0.103685 0.67799997 4286215781
0.39679399 0.103864 0.67900002 4285689950
0.39874199 0.10389 0.67900002 4281940263
0.40010199 0.103764 0.67799997 4286283629
0.40264601 0.103944 0.67900002 4287599489
0.40519899 0.104126 0.68000001 4287533182
0.40716299 0.104154 0.68000001 4287663999
0.40913001 0.104184 0.68000001 4287729540
0.411704 0.104367 0.68099999 4287795334
0.41428801 0.104551 0.68199998 4287532931
0.41627201 0.104582 0.68199998 4287532415
0.41764501 0.10446 0.68099999 4287466622
0.419633 0.104493 0.68099999 4287401082
0.421624 0.104526 0.68099999 4287268980
0.423619 0.10456 0.68099999 4287400566
0.42499301 0.104441 0.68000001 4287203187
0.426994 0.104476 0.68000001 4287203187
0.42899799 0.104511 0.68000001 4287334773
0.43164 0.104702 0.68099999 4287269494
0.43365601 0.104739 0.68099999 4287598461
0.43567601 0.104777 0.68099999 4287466875
0.43834299 0.104969 0.68199998 4287072117
0.44037399 0.105009 0.68199998 4287400313
0.44240999 0.105049 0.68199998 4287663999
0.4438 0.104936 0.68099999 4287466620
0.445842 0.104978 0.68099999 4287401082
0.44854701 0.105174 0.68199998 4287400568
0.45126301 0.105372 0.68300003 4286808431
0.45399001 0.10557 0.68400002 4286742378
0.45672801 0.10577 0.685 4286544233
0.45813799 0.105661 0.68400002 4286807657
0.45887399 0.105399 0.68199998 4286676839
0.46027899 0.105292 0.68099999 4287268980
0.46304101 0.105495 0.68199998 4287203187
0.46581501 0.105698 0.68300003 4287203442
0.46791601 0.105748 0.68300003 4287138406
0.46933401 0.105645 0.68199998 4287203695
0.471443 0.105696 0.68199998 4287466614
0.472864 0.105594 0.68099999 4287137649
-0.199563 0.10013 0.671 4288848022
-0.198349 0.100433 0.67299998 4288979094
-0.196832 0.100587 0.67400002 4289110679
-0.19502001 0.100591 0.67400002 4289110679
-0.192922 0.100447 0.67299998 4289242519
-0.191112 0.100451 0.67299998 4289373848
-0.189303 0.100456 0.67299998 4289505434
-0.18749399 0.100461 0.67299998 4289242008
-0.18540899 0.100317 0.67199999 4288913043
-0.18360201 0.100322 0.67199999 4288781711
-0.181795 0.100327 0.67199999 4288781966
-0.18025599 0.100481 0.67299998 4288255622
-0.17844699 0.100486 0.67299998 4288453256
-0.17716201 0.10079 0.67500001 4288519047
-0.175087 0.100646 0.67400002 4288519049
-0.173017 0.100502 0.67299998 4288387977
-0.170698 0.100208 0.671 4289177238
-0.169145 0.100363 0.67199999 4289243033
-0.167586 0.100518 0.67299998 4289308572
-0.166022 0.100672 0.67400002 4289900709
-0.163965 0.100528 0.67299998 4289965989
-0.162154 0.100534 0.67299998 4290097574
-0.160344 0.100539 0.67299998 4289900195
-0.15853199 0.100545 0.67299998 4289769123
-0.15695401 0.1007 0.67400002 4289768609
-0.15537 0.100855 0.67500001 4289900449
-0.15332501 0.100711 0.67400002 4289834656
-0.151511 0.100716 0.67400002 4289505689
-0.14969601 0.100722 0.67400002 4289834654
-0.14832 0.101026 0.676 4289637277
-0.146283 0.100882 0.67500001 4289834402
-0.144465 0.100888 0.67500001 4289571745
-0.142647 0.100894 0.67500001 4289571231
-0.140828 0.100899 0.67500001 4289571231
-0.13921601 0.101054 0.676 4289373852
-0.13759699 0.101209 0.67699999 4289439644
-0.135372 0.100916 0.67500001 4289505691
-0.133553 0.100921 0.67500001 4289308312
-0.131733 0.100927 0.67500001 4289111445
-0.129913 0.100932 0.67500001 4289440412
-0.12828299 0.101087 0.676 4289111447
-0.12646 0.101093 0.676 4289440412
-0.124822 0.101248 0.67699999 4289111193
-0.122814 0.101104 0.676 4289176473
-0.121169 0.101258 0.67699999 4289308058
-0.119519 0.101413 0.67799997 4289176472
-0.117516 0.101269 0.67699999 4289110679
-0.115689 0.101274 0.67699999 4289374105
-0.113694 0.10113 0.676 4289242517
-0.1122 0.101434 0.67799997 4289308310
-0.11037 0.10144 0.67799997 4289439896
-0.108539 0.101445 0.67799997 4289703068
-0.106551 0.1013 0.67699999 4289703323
-0.104568 0.101156 0.676 4289703323
-0.10259 0.101011 0.67500001 4289505689
-0.100916 0.101165 0.676 4289242772
-0.099089503 0.10117 0.676 4289308310
-0.097406797 0.101325 0.67699999 4289242265
-0.0954362 0.10118 0.676 4289242265
-0.093609102 0.101185 0.676 4289110679
-0.091917701 0.101339 0.67699999 4289242266
-0.090087503 0.101343 0.67699999 4289242265
-0.088257097 0.101348 0.67699999 4289439644
-0.0864264 0.101352 0.67699999 4289571484
-0.084720597 0.101506 0.67799997 4289637023
-0.083131298 0.10181 0.68000001 4289834656
-0.081052803 0.101515 0.67799997 4289637277
-0.079335503 0.101669 0.67900002 4289243033
-0.077384301 0.101523 0.67799997 4289176726
-0.0756611 0.101677 0.67900002 4289176726
-0.073714897 0.101531 0.67799997 4288979094
-0.0719859 0.101685 0.67900002 4289176987
-0.070147999 0.101689 0.67900002 4289045401
-0.068410598 0.101842 0.68000001 4289111194
-0.066569597 0.101846 0.68000001 4289111193
-0.064823598 0.101999 0.68099999 4289111193
-0.062979601 0.102003 0.68099999 4288979608
-0.061225101 0.102156 0.68199998 4288913301
-0.059378002 0.102159 0.68199998 4288913300
-0.057530701 0.102162 0.68199998 4288913301
-0.055764899 0.102315 0.68300003 4288715922
-0.053914599 0.102318 0.68300003 4288913814
-0.052064098 0.102321 0.68300003 4288914068
-0.050287001 0.102474 0.68400002 4288453515
-0.048504401 0.102626 0.685 4288387208
-0.046647999 0.102629 0.685 4288321929
-0.0447262 0.102482 0.68400002 4287992964
-0.042809598 0.102334 0.68300003 4288059275
-0.040898301 0.102187 0.68199998 4287927689
-0.039106801 0.102339 0.68300003 4288322447
-0.037255298 0.102341 0.68300003 4288585364
-0.035507299 0.102643 0.685 4288453778
-0.0336992 0.102795 0.68599999 4288453778
-0.031839199 0.102797 0.68599999 4288519573
-0.029935399 0.102649 0.685 4288387987
-0.0280779 0.10265 0.685 4288387987
-0.026258601 0.102802 0.68599999 4288453778
-0.0243982 0.102803 0.68599999 4288125068
-0.0225378 0.102804 0.68599999 4288190861
-0.020647099 0.102656 0.685 4288125068
-0.0188167 0.102807 0.68599999 4288124813
-0.016956 0.102808 0.68599999 4288059020
-0.0150733 0.102659 0.685 4288125068
-0.013196 0.10251 0.68400002 4287861896
-0.0113573 0.10266 0.685 4287993480
-0.0095130103 0.102811 0.68599999 4287664515
-0.00765217 0.102811 0.68599999 4288058759
-0.0058081802 0.103112 0.68800002 4287861126
-0.00394759 0.103262 0.68900001 4287729540
-0.0020695 0.102812 0.68599999 4285953129
-0.00020828701 0.102662 0.685 4287268989
0.00164991 0.102662 0.685 4287137404
0.0035081001 0.102662 0.685 4287268736
0.0053662802 0.102662 0.685 4287268736
0.0072244499 0.102662 0.685 4287269506
0.0090958504 0.102811 0.68599999 4287006334
0.0109407 0.102661 0.685 4287400829
0.0127988 0.10266 0.685 4287005555
0.0146568 0.102659 0.685 4286939762
0.016563 0.102958 0.68699998 4286808431
0.018453199 0.103107 0.68800002 4286940017
0.0203488 0.103256 0.68900001 4286808176
0.0222174 0.103254 0.68900001 4287137141
0.0240511 0.103103 0.68800002 4286610799
0.0259169 0.103102 0.68800002 4286676592
0.0278634 0.1034 0.69 4287005557
0.0297345 0.103398 0.69 4286742131
0.031559601 0.103247 0.68900001 4286413166
0.033330798 0.102945 0.68699998 4286281580
0.035193399 0.102943 0.68699998 4286347887
0.0371099 0.103091 0.68800002 4286216041
0.038975 0.103089 0.68800002 4286150246
0.04084 0.103086 0.68800002 4286019429
0.042766999 0.103234 0.68900001 4285756257
0.044569701 0.103082 0.68800002 4286019174
0.0463668 0.102929 0.68699998 4285953383
0.048228599 0.102927 0.68699998 4286150509
0.050163198 0.103074 0.68800002 4286281841
0.052027401 0.103071 0.68800002 4286545013
0.0538131 0.102918 0.68699998 4286413427
0.055755299 0.103065 0.68800002 4286347373
0.057619099 0.103062 0.68800002 4286281580
0.059569102 0.103208 0.68900001 4286610797
0.0614352 0.103205 0.68900001 4286611052
0.0631174 0.102902 0.68699998 4286479211
0.064883098 0.102749 0.68599999 4286413418
0.066837899 0.102895 0.68699998 4286413163
0.068797797 0.103041 0.68800002 4286413166
0.070660301 0.103037 0.68800002 4286347373
0.0724172 0.102884 0.68699998 4286413166
0.074492797 0.103179 0.68900001 4286215787
0.076357402 0.103175 0.68900001 4286478959
0.078221798 0.103171 0.68900001 4286216555
0.079969801 0.103017 0.68800002 4285953130
0.081712097 0.102864 0.68699998 4286216301
0.083570503 0.102859 0.68699998 4286216301
0.085304298 0.102705 0.68599999 4285756004
0.087413602 0.103 0.68800002 4286019174
0.089403801 0.103145 0.68900001 4286151015
0.0913992 0.103291 0.69 4286084967
0.093129396 0.103136 0.68900001 4285953381
0.0948539 0.102982 0.68800002 4285164128
0.096713498 0.102977 0.68800002 4283190338
0.098572701 0.102972 0.68800002 4281611561
0.100578 0.103117 0.68900001 4285362276
0.102439 0.103112 0.68900001 4286217583
0.104301 0.103107 0.68900001 4286019690
0.106162 0.103102 0.68900001 4286283116
0.107866 0.102947 0.68800002 4286282348
0.109405 0.102643 0.68599999 4285953129
0.111257 0.102638 0.68599999 4286347887
0.113109 0.102633 0.68599999 4286742646
0.114961 0.102627 0.68599999 4286414195
0.116812 0.102622 0.68599999 4285822058
0.11849 0.102467 0.685 4286611574
0.120514 0.102611 0.68599999 4286743415
0.122544 0.102755 0.68699998 4286875001
0.124216 0.1026 0.68599999 4286151023
0.126066 0.102595 0.68599999 4286216301
0.12791599 0.102589 0.68599999 4286216301
0.12995499 0.102733 0.68699998 4286545520
0.131616 0.102578 0.68599999 4286018660
0.13327099 0.102423 0.685 4286018915
0.13511699 0.102418 0.685 4286413418
0.136764 0.102263 0.68400002 4285821797
0.138607 0.102257 0.68400002 4286150508
0.14045 0.102251 0.68400002 4286216816
0.142709 0.102545 0.68599999 4286085744
0.144136 0.10224 0.68400002 4286217330
0.14576501 0.102085 0.68300003 4286151278
0.147388 0.10193 0.68199998 4286019174
0.149444 0.102074 0.68300003 4285426778
0.151061 0.101919 0.68199998 4285689948
0.15267301 0.101764 0.68099999 4285624155
0.154507 0.101758 0.68099999 4285426778
0.15657 0.101902 0.68199998 4285624157
0.15817299 0.101747 0.68099999 4285755488
0.159771 0.101592 0.68000001 4286150248
0.16183899 0.101736 0.68099999 4286150246
0.163671 0.10173 0.68099999 4285755743
0.16550399 0.101725 0.68099999 4286347367
0.167336 0.101719 0.68099999 4286215781
0.169168 0.101714 0.68099999 4285887323
0.17150199 0.102007 0.68300003 4285755231
0.172832 0.101703 0.68099999 4285952610
0.17466301 0.101697 0.68099999 4285294939
0.176495 0.101692 0.68099999 4286150246
0.178326 0.101687 0.68099999 4286216035
0.18015701 0.101682 0.68099999 4286282087
0.182256 0.101826 0.68199998 4285755743
0.184089 0.101821 0.68199998 4285755741
0.185923 0.101816 0.68199998 4286149738
0.187206 0.101512 0.68000001 4285952609
0.188756 0.101358 0.67900002 4285887070
0.19058201 0.101353 0.67900002 4285689691
0.192407 0.101348 0.67900002 4286018655
0.194232 0.101343 0.67900002 4285755484
0.195769 0.101189 0.67799997 4285887327
0.197883 0.101334 0.67900002 4286084706
0.199708 0.101329 0.67900002 4286216294
0.20123599 0.101176 0.67799997 4286413418
0.20335899 0.101321 0.67900002 4286939764
0.204882 0.101167 0.67799997 4286742646
0.207009 0.101312 0.67900002 4286742645
0.208527 0.101159 0.67799997 4286150508
0.21066 0.101304 0.67900002 4286479727
0.212485 0.1013 0.67900002 4286282348
0.21399499 0.101147 0.67799997 4286348139
0.215818 0.101143 0.67799997 4286545520
0.21732 0.100991 0.67699999 4286479727
0.219464 0.101136 0.67799997 4286611052
0.221613 0.101282 0.67900002 4286479466
0.222781 0.100981 0.67699999 4286151511
0.224602 0.100977 0.67699999 4286480727
0.226423 0.100974 0.67699999 4286544499
0.228918 0.10127 0.67900002 4286610806
0.230745 0.101267 0.67900002 4286610806
0.231887 0.100966 0.67699999 4286150509
0.23370899 0.100964 0.67699999 4286545004
0.235531 0.100961 0.67699999 4286742383
0.23770399 0.101108 0.67799997 4286216039
0.23917601 0.100957 0.67699999 4286479211
0.240642 0.100806 0.676 4286413420
0.24246299 0.100804 0.676 4286676590
0.244284 0.100803 0.676 4286545004
0.246833 0.1011 0.67799997 4286413673
0.24866 0.101098 0.67799997 4286413673
0.25085601 0.101246 0.67900002 4286545259
0.252314 0.101096 0.67799997 4286151015
0.25376701 0.100946 0.67699999 4286348394
0.25521499 0.100797 0.676 4286151013
0.25703901 0.100796 0.676 4286348392
0.25848001 0.100647 0.67500001 4286414185
0.26068699 0.100796 0.676 4286545512
0.263289 0.101095 0.67799997 4286347878
0.26590201 0.101393 0.68000001 4286479207
0.26695099 0.101095 0.67799997 4286478693
0.26798999 0.100798 0.676 4286281574
0.26981699 0.100799 0.676 4286347367
0.272046 0.100949 0.67699999 4286413414
0.27387699 0.100951 0.67699999 4286150754
0.27530199 0.100803 0.676 4286282340
0.27713099 0.100805 0.676 4286545000
0.27896199 0.100807 0.676 4286281828
0.280377 0.10066 0.67500001 4286742125
0.282206 0.100663 0.67500001 4286742125
0.28403601 0.100666 0.67500001 4286676332
0.28628999 0.100818 0.676 4286610793
0.288124 0.100821 0.676 4286611045
0.28995901 0.100825 0.676 4286084701
0.29179499 0.100828 0.676 4286150495
0.29319799 0.100683 0.67500001 4286216035
0.29503199 0.100687 0.67500001 4286216292
0.297308 0.100841 0.676 4286216035
0.29958999 0.100995 0.67699999 4286479207
0.30098799 0.100851 0.676 4286479464
0.30238199 0.100707 0.67500001 4286479719
0.30331999 0.100414 0.67299998 4286544999
0.30515599 0.10042 0.67299998 4286413667
0.307448 0.100576 0.67400002 4286084701
0.30928901 0.100582 0.67400002 4286347359
0.31112999 0.100589 0.67400002 4286347359
0.31390199 0.100895 0.676 4286017888
0.31575099 0.100902 0.676 4286150242
0.31760201 0.10091 0.676 4286281567
0.31898201 0.100769 0.67500001 4286149981
0.32083201 0.100777 0.67500001 4285886808
0.32268399 0.100786 0.67500001 4285754706
0.32453799 0.100795 0.67500001 4285951571
0.32639199 0.100804 0.67500001 4286280538
0.32824901 0.100814 0.67500001 4286280536
0.33010599 0.100824 0.67500001 4286280536
0.331965 0.100834 0.67500001 4286609755
0.33382601 0.100845 0.67500001 4286347097
0.33568901 0.100856 0.67500001 4286149204
0.33655199 0.100569 0.67299998 4286215511
0.33891499 0.10073 0.67400002 4286412890
0.34128499 0.100892 0.67500001 4286083925
0.343155 0.100905 0.67500001 4286741341
0.346048 0.101217 0.67699999 4286478169
0.34741199 0.10108 0.676 4286083671
0.34980601 0.101244 0.67699999 4286083673
0.35116899 0.101109 0.676 4286215006
0.35304999 0.101123 0.676 4286610015
0.35545799 0.101288 0.67699999 4286412376
0.35681799 0.101154 0.676 4286478169
0.358174 0.10102 0.67500001 4286280790
0.36006099 0.101036 0.67500001 4286149464
0.36195001 0.101053 0.67500001 4286149211
0.36438 0.10122 0.676 4286149214
0.36627501 0.101237 0.676 4286280799
0.36817399 0.101255 0.676 4286149466
0.36952701 0.101124 0.67500001 4285951571
0.371427 0.101143 0.67500001 4286018385
0.372776 0.101013 0.67400002 4286018132
0.37634599 0.101482 0.67699999 4286215257
0.3777 0.101353 0.676 4286149980
0.37961301 0.101374 0.676 4286347359
0.3804 0.101095 0.67400002 4286479199
0.38288 0.101267 0.67500001 4286282334
0.38536799 0.10144 0.676 4286282080
0.38786501 0.101613 0.67699999 4286282080
0.389218 0.101486 0.676 4286347874
0.39172599 0.10166 0.67699999 4286413153
0.39308 0.101535 0.676 4286215520
0.39559999 0.10171 0.67699999 4285887327
0.396954 0.101585 0.676 4284045123
0.398305 0.101461 0.67500001 4283454016
0.40024701 0.101488 0.67500001 4287467903
0.40278801 0.101666 0.676 4287993733
0.40533799 0.101844 0.67699999 4287400827
0.40729499 0.101873 0.67699999 4287729540
0.40865201 0.101751 0.676 4287269504
0.411221 0.101931 0.67699999 4287335552
0.41379899 0.102112 0.67799997 4285888104
0.41638699 0.102294 0.67900002 4286743413
0.41836801 0.102326 0.67900002 4287664254
0.419734 0.102207 0.67799997 4287203189
0.42171901 0.10224 0.67799997 4287663740
0.42433399 0.102425 0.67900002 4287532152
0.42633101 0.102459 0.67900002 4287071603
0.42833099 0.102494 0.67900002 4287268982
0.430336 0.10253 0.67900002 4287203701
0.43170801 0.102415 0.67799997 4287203703
0.43371901 0.102452 0.67799997 4287729531
0.43637601 0.102641 0.67900002 4287401082
0.43904299 0.10283 0.68000001 4287137396
0.441073 0.10287 0.68000001 4287466875
0.44245499 0.102758 0.67900002 4287532413
0.444491 0.102799 0.67900002 4287598216
0.447189 0.102992 0.68000001 4287467379
0.449238 0.103034 0.68000001 4287532656
0.45129099 0.103077 0.68000001 4286083428
0.45468301 0.103424 0.68199998 4286412646
0.45541301 0.103166 0.68000001 4286412900
0.45680901 0.103059 0.67900002 4286939758
0.458204 0.102954 0.67799997 4286611052
0.46095601 0.103153 0.67900002 4287071601
0.46440199 0.103504 0.68099999 4286940270
0.46649599 0.103553 0.68099999 4287071854
0.46790701 0.103451 0.68000001 4287335026
0.4707 0.103654 0.68099999 4287335026
0.47281101 0.103705 0.68099999 4287334773
-0.19867501 0.097880401 0.66799998 4288781715
-0.197469 0.098177798 0.67000002 4288715921
-0.19596 0.098328799 0.671 4288978322
-0.194157 0.098333299 0.671 4288649355
-0.192066 0.098191299 0.67000002 4289109646
-0.189981 0.098049402 0.66900003 4288846474
-0.187902 0.097907603 0.66799998 4289044367
-0.186106 0.097912297 0.66799998 4288715148
-0.18431 0.097917102 0.66799998 4288781457
-0.183061 0.0982152 0.67000002 4288781457
-0.18153 0.0983667 0.671 4288584078
-0.179726 0.098371699 0.671 4288584330
-0.17765599 0.098230198 0.67000002 4288650123
-0.175855 0.098235302 0.67000002 4288715915
-0.174053 0.098240398 0.67000002 4288847501
-0.172251 0.098245598 0.67000002 4288518796
-0.170449 0.098250799 0.67000002 4288584589
-0.16864701 0.098256104 0.67000002 4288781715
-0.16709401 0.098407999 0.671 4288453003
-0.165535 0.098559998 0.67199999 4288584842
-0.163727 0.0985654 0.67199999 4288518794
-0.161678 0.098424003 0.671 4288518539
-0.160111 0.098576203 0.67199999 4288518542
-0.15830199 0.098581597 0.67199999 4288452749
-0.156727 0.098733701 0.67299998 4288452749
-0.154915 0.098739199 0.67299998 4288650128
-0.152876 0.098597899 0.67199999 4288913297
-0.151292 0.098750196 0.67299998 4289110676
-0.149702 0.098902397 0.67400002 4289242260
-0.14810599 0.099054597 0.67500001 4289439896
-0.146072 0.098913401 0.67400002 4289374105
-0.143828 0.098625399 0.67199999 4289439644
-0.14201801 0.098630898 0.67199999 4289439644
-0.14041699 0.098783202 0.67299998 4289439644
-0.139015 0.099082202 0.67500001 4289702816
-0.137196 0.0990877 0.67500001 4289308058
-0.134976 0.098799601 0.67299998 4289637023
-0.132964 0.098658197 0.67199999 4289768863
-0.13095801 0.0985168 0.671 4289308312
-0.12934101 0.098669097 0.67199999 4289505691
-0.127719 0.098821297 0.67299998 4289505691
-0.12590399 0.098826602 0.67299998 4289374105
-0.124274 0.098978899 0.67400002 4289505437
-0.122456 0.098984197 0.67400002 4289373852
-0.120817 0.0991363 0.67500001 4289308059
-0.118996 0.099141598 0.67500001 4289373852
-0.117001 0.098999999 0.67400002 4289374366
-0.115182 0.0990052 0.67400002 4289242779
-0.113363 0.099010304 0.67400002 4289308312
-0.111709 0.0991624 0.67500001 4289242517
-0.109724 0.099020503 0.67400002 4289242517
-0.107904 0.0990256 0.67400002 4289439896
-0.106084 0.099030599 0.67400002 4289440151
-0.104109 0.098888598 0.67299998 4289242772
-0.102443 0.099040397 0.67400002 4289308310
-0.100771 0.099192202 0.67500001 4289242517
-0.098947696 0.099197 0.67500001 4289505689
-0.097123802 0.099201702 0.67500001 4289176726
-0.095158502 0.099059403 0.67400002 4289505437
-0.093336798 0.099064097 0.67400002 4289571230
-0.091650702 0.099215597 0.67500001 4289308058
-0.089825802 0.099220097 0.67500001 4289439644
-0.087870397 0.099077597 0.67400002 4289308058
-0.086303197 0.099375904 0.676 4289439644
-0.084599897 0.099527299 0.67699999 4289176726
-0.083013304 0.099825598 0.67900002 4289110933
-0.080937497 0.099535704 0.67699999 4289242519
-0.079105899 0.099539801 0.67699999 4289505689
-0.077160001 0.099396802 0.676 4289637275
-0.075442202 0.099547803 0.67699999 4289505437
-0.073501296 0.0994047 0.676 4289439644
-0.071777701 0.0995555 0.67699999 4289440159
-0.070048399 0.0997063 0.67799997 4289505952
-0.068213001 0.099710003 0.67799997 4289374366
-0.066377297 0.099713497 0.67799997 4289045654
-0.0646367 0.099864103 0.67900002 4288848275
-0.062798001 0.0998675 0.67900002 4288848021
-0.060959101 0.099870898 0.67900002 4288913300
-0.059119999 0.099874102 0.67900002 4288584849
-0.057365101 0.100024 0.68000001 4288519057
-0.055686299 0.100322 0.68199998 4288650128
-0.053759702 0.100178 0.68099999 4288913300
-0.051914599 0.10018 0.68099999 4288781966
-0.050142799 0.10033 0.68199998 4288781966
-0.048365399 0.10048 0.68300003 4288650380
-0.046514399 0.100483 0.68300003 4288913552
-0.044597901 0.100338 0.68199998 4289045652
-0.042812001 0.100488 0.68300003 4289046168
-0.040960599 0.10049 0.68300003 4289309342
-0.039108999 0.100492 0.68300003 4289046170
-0.037257399 0.100494 0.68300003 4288914329
-0.035457499 0.100644 0.68400002 4288387987
-0.033602901 0.100646 0.68400002 4288256401
-0.031701799 0.1005 0.68300003 4288453010
-0.029849701 0.100502 0.68300003 4288387987
-0.027997499 0.100504 0.68300003 4288453263
-0.026183501 0.100652 0.68400002 4288190091
-0.0243285 0.100654 0.68400002 4288124552
-0.022440501 0.100508 0.68300003 4287992966
-0.020587999 0.100509 0.68300003 4287861380
-0.018790299 0.100805 0.685 4287992966
-0.016932299 0.100806 0.685 4288124298
-0.0150302 0.100512 0.68300003 4287861641
-0.0131582 0.100366 0.68199998 4287861896
-0.0113247 0.100514 0.68300003 4287927173
-0.0094858296 0.100662 0.68400002 4287992966
-0.00764145 0.100809 0.685 4288190345
-0.00578319 0.10081 0.685 4288058505
-0.0039306302 0.100957 0.68599999 4287926919
-0.0020605701 0.100516 0.68300003 4286413681
-0.000207691 0.100516 0.68300003 4287400062
0.0016451899 0.100516 0.68300003 4287597955
0.0034980599 0.100516 0.68300003 4287531909
0.0053509199 0.100515 0.68300003 4287729288
0.0072037699 0.100515 0.68300003 4287532678
0.0090831099 0.100809 0.685 4287466885
0.0109413 0.100808 0.685 4287400829
0.0127995 0.100808 0.685 4287400568
0.0146577 0.100807 0.685 4286940017
0.016564 0.1011 0.68699998 4287005810
0.018427501 0.101099 0.68699998 4287334775
0.020320401 0.101245 0.68800002 4287071348
0.022154201 0.101097 0.68699998 4287466361
0.0240175 0.101096 0.68699998 4286808431
0.0258807 0.101094 0.68699998 4286676590
0.0277842 0.10124 0.68800002 4287202677
0.029650001 0.101238 0.68800002 4286939764
0.0314698 0.101089 0.68699998 4286939510
0.033235598 0.100793 0.685 4286807924
0.035092901 0.100791 0.685 4286874231
0.037058 0.101083 0.68699998 4286808438
0.0389206 0.101081 0.68699998 4286611311
0.040782999 0.101079 0.68699998 4286742897
0.042645201 0.101077 0.68699998 4286413934
0.044636998 0.101369 0.68900001 4286676592
0.046571899 0.101513 0.69 4285426019
0.048371699 0.101363 0.68900001 4285952869
0.050166 0.101214 0.68800002 4286084455
0.052030299 0.101211 0.68800002 4286084201
0.053816099 0.101061 0.68699998 4286281580
0.055758402 0.101205 0.68800002 4286084453
0.057538498 0.101055 0.68699998 4286018660
0.059572302 0.101346 0.68900001 4285689437
0.061349399 0.101195 0.68800002 4285952863
0.063028902 0.100898 0.68599999 4285821023
0.0648866 0.100894 0.68599999 4285755230
0.066744201 0.100891 0.68599999 4285952867
0.068701498 0.101034 0.68699998 4285886822
0.0706641 0.101178 0.68800002 4286545006
0.072420999 0.101027 0.68699998 4286413420
0.074388601 0.10117 0.68800002 4286544749
0.076250598 0.101166 0.68800002 4286544749
0.078112401 0.101162 0.68800002 4286807919
0.0798577 0.101011 0.68699998 4287071350
0.081716403 0.101007 0.68699998 4286281834
0.083453096 0.100856 0.68599999 4286216041
0.085432999 0.100998 0.68699998 4286216039
0.087291002 0.100994 0.68699998 4286413418
0.089148797 0.10099 0.68699998 4286610797
0.091006301 0.100985 0.68699998 4286150508
0.092863701 0.10098 0.68699998 4285755750
0.094720803 0.100976 0.68699998 4285361509
0.0965776 0.100971 0.68699998 4283256131
0.098291002 0.100819 0.68599999 4282006317
0.100145 0.100815 0.68599999 4285559907
0.101849 0.100663 0.685 4286414702
0.103851 0.100805 0.68599999 4286283116
0.105704 0.1008 0.68599999 4286348655
0.107557 0.100795 0.68599999 4286611059
0.10941 0.10079 0.68599999 4286479220
0.1111 0.100638 0.685 4286479220
0.112949 0.100633 0.685 4286743162
0.114798 0.100627 0.685 4286348918
0.116647 0.100622 0.685 4286348657
0.118496 0.100617 0.685 4286809208
0.12052 0.100758 0.68599999 4286611829
0.122549 0.1009 0.68699998 4286874746
0.124402 0.100895 0.68699998 4286940025
0.126072 0.100742 0.68599999 4286084715
0.127922 0.100737 0.68599999 4285887590
0.129961 0.100878 0.68699998 4286545004
0.131238 0.100432 0.68400002 4286611052
0.13288701 0.10028 0.68300003 4286019429
0.134728 0.100274 0.68300003 4286282346
0.13656899 0.100269 0.68300003 4286150508
0.138612 0.10041 0.68400002 4286151278
0.14045601 0.100405 0.68400002 4286480243
0.142299 0.100399 0.68400002 4286151792
0.143931 0.100247 0.68300003 4286349171
0.14534301 0.099947497 0.68099999 4286546036
0.147394 0.100089 0.68199998 4286216553
0.149012 0.099936403 0.68099999 4285558109
0.15062401 0.099784099 0.68000001 4285426778
0.152455 0.099778503 0.68000001 4285558364
0.154286 0.099772997 0.68000001 4285755743
0.15588699 0.0996207 0.67900002 4285492571
0.157482 0.099468499 0.67799997 4285887329
0.159307 0.099463001 0.67799997 4285821023
0.161607 0.099750899 0.68000001 4286478953
0.16367701 0.099892102 0.68099999 4286149474
0.16526601 0.099739999 0.68000001 4286478439
0.167096 0.0997345 0.68000001 4286412646
0.168925 0.099729098 0.68000001 4286215267
0.171005 0.099870399 0.68099999 4286149728
0.172837 0.099865101 0.68099999 4286281314
0.174668 0.099859796 0.68099999 4286281574
0.176241 0.099707901 0.68000001 4286215267
0.178069 0.099702597 0.68000001 4286675558
0.17989799 0.0996975 0.68000001 4286413153
0.18172599 0.0996923 0.68000001 4286019668
0.183285 0.099540599 0.67900002 4286216287
0.18538301 0.099682197 0.68000001 4286084195
0.18693601 0.0995306 0.67900002 4285952863
0.188761 0.099525698 0.67900002 4286083934
0.19030599 0.099374302 0.67799997 4286544739
0.192128 0.099369504 0.67799997 4285821529
0.193951 0.099364802 0.67799997 4285821530
0.195485 0.0992136 0.67699999 4285821789
0.197887 0.099502102 0.67900002 4286216547
0.19971301 0.099497601 0.67900002 4286545257
0.201241 0.0993466 0.67799997 4286545259
0.202764 0.099195801 0.67699999 4286743152
0.204584 0.099191502 0.67699999 4286677104
0.206708 0.099333897 0.67799997 4286479725
0.208223 0.099183299 0.67699999 4286413932
0.210043 0.099179298 0.67699999 4286677106
0.21155 0.0990289 0.676 4286742899
0.213052 0.0988786 0.67500001 4286545520
0.21454801 0.0987285 0.67400002 4286742385
0.216681 0.098871402 0.67500001 4286939764
