# .PCD v0.7 - Point Cloud Data file format
VERSION 0.7
FIELDS x y z rgb
SIZE 4 4 4 4
TYPE F F F U
COUNT 1 1 1 1
WIDTH 1118
HEIGHT 1
VIEWPOINT 0 0 0 1 0 0 0
POINTS 1118
DATA ascii
-0.0408534 0.222166 0.68400002 4288518543
-0.035299499 0.201056 0.61900002 4288518289
-0.032704201 0.195536 0.602 4287467668
-0.0306654 0.192939 0.59399998 4284771704
-0.028963299 0.19229101 0.59200001 4291154657
-0.027225699 0.19131801 0.58899999 4289707470
-0.025591301 0.19099399 0.588 4289115592
-0.023921501 0.190346 0.58600003 4288984006
-0.0223387 0.190347 0.58600003 4289115846
-0.0207559 0.190348 0.58600003 4288590016
-0.019205701 0.19067401 0.58700001 4288326844
-0.0176201 0.19067501 0.58700001 4288063672
-0.0160072 0.19035099 0.58600003 4287800500
-0.0143997 0.190027 0.58499998 4287932086
-0.0128414 0.19035199 0.58600003 4288128951
-0.0112968 0.191002 0.588 4287734193
-0.0097084697 0.19100299 0.588 4287997365
-0.0081062699 0.190679 0.58700001 4288128691
-0.0064983601 0.190029 0.58499998 4287799980
-0.0049264701 0.190354 0.58600003 4288128431
-0.00333776 0.19002999 0.58499998 4287602087
-0.0017574501 0.19002999 0.58499998 4287996591
-0.00017713899 0.19002999 0.58499998 4288062384
0.0014031701 0.19002999 0.58499998 4287865521
0.00298348 0.19002999 0.58499998 4287799728
0.00455599 0.189705 0.58399999 4287536556
0.0061545898 0.190354 0.58600003 4287930800
0.0077243801 0.190029 0.58499998 4287536040
0.0092887599 0.189704 0.58399999 4287535526
0.0108105 0.188729 0.58099997 4287995047
0.01238 0.188728 0.58099997 4288060069
0.0139734 0.189052 0.58200002 4285953664
0.0156257 0.190026 0.58499998 4287334803
0.0172059 0.190025 0.58499998 4287399826
0.018753899 0.18969899 0.58399999 4287400594
0.0202269 0.188724 0.58099997 4287334801
0.0218338 0.18904801 0.58200002 4288255389
0.023445999 0.189371 0.583 4286676357
0.0250636 0.189695 0.58399999 4286610050
0.026640899 0.189694 0.58399999 4286083706
0.028218299 0.18969201 0.58399999 4286873736
0.0297955 0.18969101 0.58399999 4287202447
0.0312653 0.18904001 0.58200002 4287795099
0.0328371 0.18903799 0.58200002 4286742413
0.034408901 0.189037 0.58200002 4286674565
0.0360424 0.18935999 0.583 4287266961
0.037616801 0.189358 0.583 4287397520
0.039191201 0.189356 0.583 4287662748
0.040905301 0.19000401 0.58499998 4287203224
0.042557601 0.190327 0.58600003 4287532443
0.044215199 0.190649 0.58700001 4287071892
0.045722101 0.190322 0.58600003 4286939792
0.047223601 0.18999501 0.58499998 4287532441
0.048636202 0.189344 0.583 4287467164
0.0502102 0.18934099 0.583 4287797417
0.051961798 0.189989 0.58499998 4287600551
0.053541102 0.18998601 0.58499998 4287404456
0.055120401 0.18998399 0.58499998 4287404970
0.056602702 0.189657 0.58399999 4287536040
0.058278698 0.189979 0.58499998 4287536040
0.0596531 0.189327 0.583 4287602087
0.0612268 0.18932401 0.583 4287404707
0.062692598 0.188997 0.58200002 4287338914
0.064484298 0.18964399 0.58399999 4287535779
0.066286698 0.19029 0.58600003 4287733156
0.067752399 0.189963 0.58499998 4287535779
0.069212601 0.18963499 0.58399999 4287270809
0.070424899 0.188659 0.58099997 4287598234
0.072116703 0.18898 0.58200002 4287992992
0.073940396 0.18962701 0.58399999 4287862176
0.075516202 0.189624 0.58399999 4288191141
0.077224001 0.189946 0.58499998 4288126119
0.078533001 0.189294 0.583 4288125862
0.080518201 0.190265 0.58600003 4287796897
0.082099199 0.190262 0.58600003 4287796645
0.083680101 0.19025899 0.58600003 4288125867
0.0851155 0.18993101 0.58499998 4287994281
0.086693697 0.18992899 0.58499998 4287731109
0.088271797 0.189926 0.58499998 4287534244
0.089849897 0.189923 0.58499998 4287402658
0.0914279 0.18991999 0.58499998 4287863463
0.093005903 0.189917 0.58499998 4287731877
0.094583802 0.189914 0.58499998 4287535012
0.096326098 0.190236 0.58600003 4287337633
0.098073699 0.190558 0.58700001 4287535526
0.099826701 0.190879 0.588 4287600805
0.10124 0.190552 0.58700001 4287732389
0.102473 0.1899 0.58499998 4287534496
0.104051 0.189897 0.58499998 4287469472
0.105628 0.189895 0.58499998 4287469984
0.107389 0.190217 0.58600003 4287535779
0.109156 0.190538 0.58700001 4287536293
0.110361 0.189887 0.58499998 4286484119
0.111748 0.18956 0.58399999 4287404961
0.113129 0.18923301 0.583 4287469725
0.114701 0.18923 0.583 4286482830
0.116473 0.18955299 0.58399999 4286153351
0.118452 0.1902 0.58600003 4285955202
0.120237 0.190522 0.58700001 4286811281
0.122028 0.190844 0.588 4287009174
0.124034 0.19149099 0.58999997 4287337884
0.125412 0.191165 0.58899999 4286943128
0.127432 0.19181199 0.59100002 4286549399
0.128589 0.19116101 0.58899999 4287206561
0.130399 0.191484 0.58999997 4287009696
0.13199 0.19148301 0.58999997 4286878110
0.134261 0.19245499 0.59299999 4286746778
0.136318 0.193103 0.59500003 4286220947
0.141169 0.19764499 0.60900003 4286220947
0.15195701 0.210301 0.648 4286746778
0.19911499 0.269364 0.82999998 4286746263
0.20450801 0.27358201 0.84299999 4286615192
0.20727301 0.27423 0.84500003 4287075489
0.210297 0.27520299 0.84799999 4287009696
0.213588 0.276501 0.852 4286878110
0.217154 0.27812299 0.85699999 4286746778
0.219979 0.27877301 0.85900003 4286220947
0.222298 0.27877301 0.85900003 4286155408
0.224878 0.279098 0.86000001 4286351242
0.227199 0.27909899 0.86000001 4285692797
0.230055 0.27974901 0.86199999 4287336842
0.232922 0.28039899 0.86400002 4287730571
0.234983 0.280076 0.86299998 4288585619
0.237588 0.280402 0.86400002 4289046170
0.239922 0.280404 0.86400002 4288980636
0.24309701 0.28138 0.86699998 4288849820
0.24515601 0.281059 0.866 4288849052
0.24749599 0.28106201 0.866 4288585625
0.25012499 0.28139001 0.86699998 4288388501
0.25275999 0.28171799 0.86799997 4288651673
0.255694 0.28237101 0.87 4288256915
0.25863901 0.28302401 0.87199998 4288454292
0.260997 0.28302899 0.87199998 4288519571
0.26365799 0.28335899 0.87300003 4288388499
0.26601899 0.283364 0.87300003 4288125327
0.268381 0.28336999 0.87300003 4288454292
0.27043399 0.283052 0.87199998 4288520085
0.27310699 0.28338301 0.87300003 4288651157
0.27546999 0.28338999 0.87300003 4288782998
0.277834 0.283398 0.87300003 4288717717
0.27987799 0.283081 0.87199998 4288520338
0.282888 0.28373799 0.87400001 4288651924
0.28558299 0.28407201 0.875 4288848791
0.287954 0.28408101 0.875 4288585619
0.29032701 0.284091 0.875 4288650643
0.29236501 0.28377599 0.87400001 4288716182
0.295073 0.28411201 0.875 4288716436
0.29778799 0.28444701 0.87599999 4288913815
0.30050799 0.28478399 0.87699997 4288585364
0.30323499 0.28512099 0.87800002 4288651157
0.305271 0.28480899 0.87699997 4288454294
0.30800501 0.285146 0.87800002 4288585880
0.31003699 0.28483501 0.87699997 4288520087
0.312778 0.28517401 0.87800002 4288783259
0.314807 0.28486401 0.87699997 4288585625
0.31755501 0.28520501 0.87800002 4288519832
0.31994501 0.28522101 0.87800002 4288125329
0.322335 0.28523701 0.87800002 4288191122
0.324357 0.28492901 0.87699997 4287993743
0.326747 0.28494701 0.87699997 4287927948
0.32913801 0.28496599 0.87699997 4287796617
0.330773 0.28433499 0.875 4287598722
0.33163801 0.28305399 0.87099999 4287731075
0.332865 0.28209901 0.86799997 4287665031
0.33600801 0.28277001 0.87 4287139463
0.33994099 0.28409201 0.87400001 4287402896
0.343505 0.28508899 0.87699997 4287402898
0.34551001 0.284787 0.87599999 4287205517
0.348304 0.28513601 0.87699997 4286876551
0.35150501 0.28580999 0.87900001 4287533707
0.35350999 0.28551 0.87800002 4287862157
0.35632199 0.28586099 0.87900001 4287730824
0.358325 0.28556299 0.87800002 4288059275
0.36155599 0.28624099 0.88 4288125066
0.36355799 0.28594401 0.87900001 4288059275
0.366806 0.286623 0.88099998 4288454033
0.36922801 0.28665301 0.88099998 4288256654
0.37123001 0.286358 0.88 4288125066
0.37365201 0.28639001 0.88 4288322445
0.37522101 0.28577101 0.87800002 4288453780
0.37764099 0.285804 0.87800002 4288453780
0.380063 0.28583801 0.87800002 4288256906
0.382487 0.28587201 0.87800002 4288520078
0.38491201 0.28590801 0.87800002 4288256905
0.38689801 0.28561899 0.87699997 4288322698
0.38932401 0.28565601 0.87699997 4287796868
0.39219901 0.28602001 0.87800002 4288059527
0.394631 0.28605899 0.87800002 4288059789
0.39751801 0.28642601 0.87900001 4288125582
0.399048 0.285815 0.87699997 4287665029
0.40194201 0.286183 0.87800002 4287730308
0.40438199 0.286226 0.87800002 4287927687
0.406362 0.28594401 0.87699997 4288124298
0.408804 0.28598899 0.87699997 4287795333
0.41124901 0.286035 0.87699997 4287532929
0.414168 0.28640899 0.87800002 4287862148
0.416619 0.286457 0.87800002 4287796354
0.41955101 0.286832 0.87900001 4287731075
0.42153099 0.28655601 0.87800002 4287862661
0.423507 0.286282 0.87699997 4287862662
0.42596599 0.28633401 0.87699997 4287927687
0.42891601 0.28671399 0.87800002 4287731076
0.43187401 0.28709599 0.87900001 4287993733
0.434347 0.28715199 0.87900001 4287796354
0.436822 0.287209 0.87900001 4287993217
0.43979901 0.287595 0.88 4287533696
0.44027299 0.286347 0.87599999 4286086503
0.44274801 0.28640801 0.87599999 4282665781
0.444718 0.286143 0.875 4287666564
0.44924 0.287514 0.87900001 4288257933
0.45173299 0.287579 0.87900001 4287731589
0.454229 0.28764501 0.87900001 4287665282
0.45620799 0.28738499 0.87800002 4287928454
0.45923001 0.287781 0.87900001 4287731589
0.46226099 0.288178 0.88 4288125833
0.464773 0.28825 0.88 4287665282
0.46728799 0.28832299 0.88 4287665274
0.46980599 0.28839701 0.88 4287664254
0.47286499 0.2888 0.88099998 4288190859
0.47539401 0.28887799 0.88099998 4288651410
0.477927 0.28895599 0.88099998 4287862662
0.480463 0.28903699 0.88099998 4287928454
0.48245499 0.28878999 0.88 4288191112
0.48444501 0.28854501 0.87900001 4287928455
0.48698699 0.288629 0.87900001 4287862408
0.48953301 0.28871599 0.87900001 4288256654
0.49320301 0.28946 0.88099998 4288453517
0.496889 0.290207 0.88300002 4288189831
-0.199176 0.27581999 0.85699999 4284310892
-0.19732399 0.27646601 0.85900003 4284047205
-0.19478001 0.27614599 0.85799998 4285626233
-0.192017 0.27550501 0.85600001 4285428854
-0.190152 0.276151 0.85799998 4284704878
-0.18827599 0.276797 0.86000001 4284705136
-0.18573999 0.27647799 0.85900003 4285099641
-0.18257 0.27519399 0.85500002 4284508273
-0.180264 0.27519599 0.85500002 4286349961
-0.17837401 0.27584299 0.85699999 4285823359
-0.17668 0.27681199 0.86000001 4286678668
-0.17415801 0.276494 0.85900003 4287336588
-0.171841 0.27649701 0.85900003 4287270282
-0.16913 0.275857 0.85699999 4286941569
-0.167208 0.27650401 0.85900003 4284770661
-0.16527601 0.277152 0.861 4287467921
-0.163711 0.27844301 0.86500001 4288652449
-0.16156501 0.27876899 0.866 4288652449
-0.159229 0.27877301 0.866 4288652188
-0.15653101 0.27813399 0.86400002 4288914845
-0.154201 0.27813801 0.86400002 4288783259
-0.15222301 0.278786 0.866 4289177503
-0.150233 0.279434 0.86799997 4289309089
-0.148063 0.27976 0.86900002 4289111710
-0.145216 0.278799 0.866 4288783259
-0.14255001 0.27815899 0.86400002 4288782745
-0.13989501 0.27751899 0.86199999 4288848536
-0.13773 0.27784601 0.86299998 4288914331
-0.13540199 0.27785 0.86299998 4289374112
-0.133228 0.27817699 0.86400002 4289439906
-0.13074601 0.277859 0.86299998 4289242013
-0.128567 0.27818599 0.86400002 4289439392
-0.12623601 0.27818999 0.86400002 4289307805
-0.124049 0.27851599 0.86500001 4289308059
-0.121574 0.27819899 0.86400002 4288979094
-0.118967 0.27755901 0.86199999 4289044887
-0.116506 0.277242 0.861 4288715922
-0.114183 0.277246 0.861 4288649876
-0.11212 0.277895 0.86299998 4288386704
-0.109918 0.27822101 0.86400002 4288452497
-0.107587 0.278225 0.86400002 4288123532
-0.105255 0.27823001 0.86400002 4287794820
-0.102924 0.278234 0.86400002 4287465854
-0.100475 0.27791601 0.86299998 4287663487
-0.098032698 0.27759799 0.86199999 4287992195
-0.0954841 0.27695799 0.86000001 4287597183
-0.0930546 0.27664 0.85900003 4287860355
-0.090630397 0.27632201 0.85799998 4287926659
-0.088314503 0.276326 0.85799998 4287663487
-0.085898198 0.27600801 0.85699999 4288057985
-0.083682299 0.27633399 0.85799998 4287992192
-0.081366099 0.276337 0.85799998 4288057986
-0.079141997 0.27666301 0.85900003 4287794814
-0.077001803 0.277311 0.861 4288057988
-0.074850701 0.27795801 0.86299998 4287729026
-0.072520703 0.277962 0.86299998 4287794819
-0.069946602 0.276999 0.86000001 4288189831
-0.066759497 0.27345899 0.84899998 4288058245
-0.061809398 0.262189 0.81400001 4287860613
-0.0580003 0.25510499 0.792 4288320907
-0.054380499 0.248344 0.77100003 4287926402
-0.050466999 0.23965 0.74400002 4288123778
-0.047090001 0.232888 0.72299999 4288058243
-0.044076201 0.227414 0.70599997 4288321163
-0.040736001 0.219685 0.68199998 4288518796
-0.035358299 0.199716 0.62 4288781715
-0.032651499 0.193597 0.60100001 4289046700
-0.0306153 0.19102199 0.59299999 4283061086
-0.0288179 0.189735 0.58899999 4290628572
-0.0271808 0.18941399 0.588 4289970642
-0.0255055 0.18877099 0.58600003 4289050053
-0.023881899 0.18844999 0.58499998 4288918467
-0.022225499 0.18780699 0.583 4288918467
-0.0206507 0.18780801 0.583 4288786881
-0.0191085 0.188131 0.58399999 4288590016
-0.017561 0.188454 0.58499998 4288392123
-0.015953399 0.188133 0.58399999 4288523709
-0.0144004 0.188456 0.58499998 4288392123
-0.012842 0.188779 0.58600003 4288194744
-0.0112782 0.18910199 0.58700001 4288063158
-0.0096594403 0.188458 0.58499998 4287997365
-0.0080790697 0.188458 0.58499998 4287996852
-0.00647648 0.187815 0.583 4288062898
-0.0049015102 0.187815 0.583 4287799980
-0.0033094001 0.186849 0.57999998 4287733672
-0.00174552 0.187171 0.58099997 4287997358
-0.00017593701 0.187171 0.58099997 4287997105
0.00139845 0.187815 0.583 4287668140
0.0029734401 0.187815 0.583 4287536556
0.0045562298 0.18813699 0.58399999 4287733935
0.0061233998 0.187815 0.583 4287404970
0.0076983701 0.187814 0.583 4287601835
0.0092415204 0.187169 0.58099997 4287075489
0.0107739 0.186525 0.579 4287403940
0.0122954 0.18588001 0.57700002 4287469217
0.0139261 0.186846 0.57999998 4287403165
0.0155463 0.187489 0.58200002 4287731360
0.017147901 0.18781 0.583 4287665310
0.018722801 0.18780901 0.583 4287402395
0.020228 0.18716399 0.58099997 4287731360
0.0217974 0.187163 0.58099997 4288191911
0.023406999 0.187484 0.58200002 4287665567
0.025064901 0.188127 0.58399999 4287468188
0.0266423 0.188126 0.58399999 4287599517
0.028171301 0.187802 0.583 4287665821
0.029746 0.187801 0.583 4287994532
0.031266902 0.18747699 0.58200002 4287601573
0.0327259 0.186831 0.57999998 4287994022
0.034292299 0.18683 0.57999998 4288060072
0.035920601 0.18715 0.58099997 4287665316
0.0374896 0.187148 0.58099997 4287863210
0.0390586 0.18714599 0.58099997 4287733166
0.0406975 0.187466 0.58200002 4287338922
0.042414401 0.188109 0.58399999 4287733421
0.043991301 0.188106 0.58399999 4287601066
0.045646299 0.188426 0.58499998 4287863723
0.047064401 0.18777999 0.583 4287667112
0.048555098 0.187456 0.58200002 4287601319
0.050040301 0.187131 0.58099997 4287141284
0.051697701 0.187451 0.58200002 4287207075
0.053177498 0.18712699 0.58099997 4287272868
0.0548402 0.187446 0.58200002 4287404454
0.056508198 0.187766 0.583 4287470501
0.058181699 0.188085 0.58399999 4287338915
0.0595534 0.187438 0.58200002 4287471014
0.061124399 0.187436 0.58200002 4287273635
0.062587596 0.18711101 0.58099997 4287076257
0.064266197 0.18742999 0.58200002 4287142050
0.065950103 0.18775 0.583 4287273636
0.067639299 0.188069 0.58399999 4287536554
0.069096901 0.18774401 0.583 4287273636
0.070670202 0.187741 0.583 4287536294
0.072243497 0.187738 0.583 4287338401
0.074069902 0.188379 0.58499998 4287009435
0.0755191 0.188054 0.58399999 4287601573
0.077358902 0.188696 0.58600003 4287338915
0.0785359 0.18772601 0.583 4287207075
0.0802463 0.18804599 0.58399999 4287600805
0.081681803 0.187721 0.583 4287732137
0.083540298 0.188361 0.58499998 4287929516
0.084973 0.18803699 0.58399999 4287797930
0.086696699 0.188355 0.58499998 4287601321
0.088274799 0.188352 0.58499998 4287075491
0.089699201 0.18802699 0.58399999 4287207075
0.091118298 0.187703 0.583 4287338661
0.092690803 0.1877 0.583 4286944417
0.094263397 0.18769699 0.583 4287207589
0.096000202 0.188016 0.58399999 4286878624
0.097575396 0.188013 0.58399999 4286549661
0.0993203 0.18833201 0.58499998 4287141284
0.100898 0.188329 0.58499998 4287009950
0.102476 0.188326 0.58499998 4287141022
0.103698 0.18767899 0.583 4286680984
0.105451 0.187998 0.58399999 4287010203
0.107026 0.187996 0.58399999 4287207328
0.108786 0.188315 0.58499998 4287470500
0.109798 0.187346 0.58200002 4286813084
0.111176 0.187022 0.58099997 4287207328
0.112549 0.18669701 0.57999998 4287206812
0.114113 0.18669499 0.57999998 4287008919
0.115677 0.186692 0.57999998 4287140505
0.117848 0.187656 0.583 4287535004
0.119625 0.187975 0.58399999 4287009174
0.121407 0.18829501 0.58499998 4286745747
0.123405 0.18893699 0.58700001 4287140507
0.124988 0.188934 0.58700001 4286877849
0.127003 0.189576 0.58899999 4286680985
0.128373 0.189252 0.588 4286878110
0.1304 0.18989401 0.58999997 4286680731
0.131768 0.18957099 0.58899999 4287075743
0.133809 0.19021299 0.59100002 4286549399
0.13609099 0.191177 0.59399998 4286418326
0.13954701 0.19374999 0.602 4286615705
0.146799 0.201473 0.62599999 4286549912
0.19503801 0.26165399 0.81300002 4286680985
0.202325 0.26841199 0.83399999 4286746524
0.205557 0.26969799 0.838 4286812317
0.208562 0.27066299 0.84100002 4286878110
0.212084 0.27227101 0.84600002 4287075743
0.215634 0.27388 0.85100001 4286549399
0.21844301 0.27452299 0.85299999 4286549912
0.220745 0.27452299 0.85299999 4286352273
0.22357 0.27516699 0.85500002 4286351758
0.226142 0.275489 0.85600001 4286219911
0.22925299 0.27645499 0.85900003 4286811012
0.231842 0.27677801 0.86000001 4287600013
0.234164 0.276779 0.86000001 4288060041
0.236486 0.27678099 0.86000001 4288125066
0.239087 0.277105 0.861 4287993996
0.241693 0.27742901 0.86199999 4288125582
0.244587 0.27807501 0.86400002 4288191120
0.246922 0.27807701 0.86400002 4288322708
0.249833 0.27872401 0.866 4288256915
0.25217399 0.27872699 0.866 4288322706
0.25510201 0.27937499 0.86799997 4288585880
0.25715199 0.279057 0.86699998 4288782743
0.259496 0.27906099 0.86699998 4288585364
0.261841 0.279066 0.86699998 4288125327
0.26449001 0.27939299 0.86799997 4287993482
0.26714599 0.27972001 0.86900002 4288125066
0.269187 0.27940401 0.86799997 4288190859
0.27153599 0.27941 0.86799997 4288125066
0.27420101 0.27973899 0.86900002 4288125066
0.27655399 0.279746 0.86900002 4287731076
0.278907 0.279753 0.86900002 4287928201
0.280938 0.279439 0.86799997 4287862410
0.28361601 0.279769 0.86900002 4288124813
0.28597099 0.279778 0.86900002 4287927434
0.28865799 0.28010899 0.87 4287992459
0.291017 0.280119 0.87 4288387217
0.29337701 0.28012899 0.87 4288387470
0.29607701 0.28046101 0.87099999 4288519056
0.299126 0.28111601 0.87300003 4288453517
0.301496 0.28112799 0.87300003 4288322445
0.303518 0.28081799 0.87199998 4288059534
0.30588701 0.28083101 0.87199998 4288322706
0.30860999 0.28116599 0.87300003 4288257430
0.310983 0.28117999 0.87300003 4288389016
0.31299701 0.28087199 0.87199998 4288454809
0.31573099 0.28120899 0.87300003 4288652188
0.31774199 0.280902 0.87199998 4288520602
0.320483 0.28123999 0.87300003 4288520601
0.32249099 0.28093401 0.87199998 4288652441
0.324866 0.28095099 0.87199998 4288652441
0.327243 0.28096899 0.87199998 4288454545
0.32962 0.28098699 0.87199998 4288586131
0.331238 0.28036201 0.87 4288388752
0.33207801 0.27909201 0.866 4288257166
0.334829 0.279434 0.86699998 4288191636
0.337975 0.28009999 0.86900002 4287928979
0.34152499 0.28108799 0.87199998 4288192412
0.343909 0.28110999 0.87199998 4287731863
0.346692 0.28145599 0.87300003 4287007886
0.34948099 0.281802 0.87400001 4287534484
0.35187501 0.28182599 0.87400001 4287665554
0.35467499 0.28217399 0.875 4287994258
0.35707399 0.282199 0.875 4288059534
0.35988501 0.28254899 0.87599999 4288322445
0.36228999 0.28257599 0.87599999 4287861894
0.364279 0.28228101 0.875 4287532929
0.36668399 0.28231001 0.875 4288125320
0.36908999 0.28233999 0.875 4287730561
0.37149799 0.28237101 0.875 4287533182
0.37305301 0.28175601 0.87300003 4287532668
0.37588799 0.28211099 0.87400001 4287663999
0.37829801 0.28214401 0.87400001 4287401849
0.38071001 0.28217801 0.87400001 4287598975
0.38268501 0.28189 0.87300003 4287664768
0.385097 0.28192499 0.87300003 4287533697
0.38751099 0.28196099 0.87300003 4287928455
0.390374 0.28232199 0.87400001 4287862662
0.39279401 0.28235999 0.87400001 4287730822
0.395217 0.282399 0.87400001 4288190859
0.396732 0.281793 0.87199998 4288058757
0.39915299 0.28183401 0.87199998 4287992964
0.40111601 0.281553 0.87099999 4287729533
0.40353799 0.28159499 0.87099999 4288189829
0.40642899 0.28196299 0.87199998 4288321415
0.409327 0.28233099 0.87300003 4288058759
0.411762 0.282377 0.87300003 4287927941
0.41419899 0.282424 0.87300003 4287927941
0.417115 0.282796 0.87400001 4287730562
0.41955999 0.28284499 0.87400001 4287665282
0.42104101 0.28224799 0.87199998 4288190861
0.42348501 0.28229901 0.87199998 4287862147
0.42642 0.282675 0.87300003 4287927940
0.42936301 0.28305301 0.87400001 4287862145
0.431326 0.28278399 0.87300003 4287927679
0.43428001 0.28316301 0.87400001 4287467128
0.437242 0.28354499 0.875 4287796607
0.439208 0.283279 0.87400001 4287138677
0.44066599 0.28268999 0.87199998 4284705111
0.44211501 0.28210199 0.87 4286020971
0.4456 0.282812 0.87199998 4287994761
0.448585 0.2832 0.87300003 4287928968
0.451579 0.28358901 0.87400001 4288060040
0.45458201 0.283979 0.875 4287731075
0.45759401 0.28437099 0.87599999 4288060554
0.46009001 0.28444001 0.87599999 4287994247
0.46206099 0.28418499 0.875 4288257419
0.46456 0.28425601 0.875 4287862653
0.46706301 0.284329 0.875 4288585356
0.47010601 0.28472799 0.87599999 4287927173
0.472619 0.284803 0.87599999 4287993480
0.47513601 0.28488001 0.87599999 4288191112
0.47711101 0.28463301 0.875 4287796352
0.48018101 0.28503799 0.87599999 4287993731
0.48326001 0.285445 0.87699997 4288125319
0.48579499 0.285528 0.87699997 4288060041
0.48721999 0.28496099 0.875 4288059789
0.49031699 0.285373 0.87599999 4288519826
0.49398601 0.28611201 0.87800002 4287992966
0.49654099 0.28620201 0.87800002 4287137396
0.49853101 0.28596699 0.87699997 4287006063
-0.198016 0.27191401 0.852 4284703850
-0.196178 0.27255499 0.85399997 4285098092
-0.19410101 0.27287599 0.85500002 4286150517
-0.191571 0.27256 0.85399997 4287664272
-0.18949001 0.272881 0.85500002 4286875786
-0.186965 0.27256501 0.85399997 4284704878
-0.18444601 0.27224901 0.85299999 4284705652
-0.181291 0.27097499 0.84899998 4283982704
-0.179424 0.271617 0.85100001 4285231996
-0.17796101 0.27289701 0.85500002 4284836722
-0.176272 0.27385801 0.85799998 4285033843
-0.173756 0.27354199 0.85699999 4287271049
-0.171445 0.27354601 0.85699999 4287336589
-0.16873901 0.27291101 0.85500002 4286679164
-0.166823 0.273554 0.85699999 4283915352
-0.16470399 0.27387699 0.85799998 4288323232
-0.16276801 0.274519 0.86000001 4288126105
-0.160449 0.27452299 0.86000001 4289046692
-0.158498 0.275166 0.86199999 4288848797
-0.155992 0.27485099 0.861 4288783004
-0.15384901 0.27517399 0.86199999 4289046176
-0.15134799 0.27485901 0.861 4289243555
-0.149372 0.275502 0.86299998 4289112739
-0.147045 0.275507 0.86299998 4288652188
-0.144382 0.27487299 0.861 4288192151
-0.141895 0.27455801 0.86000001 4287994772
-0.139413 0.274243 0.85900003 4288849052
-0.137096 0.274248 0.85900003 4289046431
-0.134936 0.27457201 0.86000001 4289243296
-0.132616 0.27457601 0.86000001 4289703847
-0.130145 0.274261 0.85900003 4289439906
-0.127827 0.274266 0.85900003 4289571492
-0.12536401 0.27395099 0.85799998 4289308320
-0.123193 0.274275 0.85900003 4289439906
-0.120875 0.27428001 0.85900003 4289308320
-0.11842 0.273965 0.85799998 4289242526
-0.115969 0.27364999 0.85699999 4289307805
-0.113657 0.273655 0.85699999 4289439392
-0.111604 0.27429801 0.85900003 4289373599
-0.109286 0.27430201 0.85900003 4289242013
-0.106968 0.27430701 0.85900003 4288649876
-0.10465 0.27431101 0.85900003 4284900188
-0.102451 0.27463499 0.86000001 4287268989
-0.100014 0.27432001 0.85900003 4289176726
-0.097581901 0.274005 0.85799998 4289308312
-0.095266096 0.27400899 0.85799998 4288847507
-0.092950299 0.27401301 0.85799998 4289044886
-0.0904231 0.27337801 0.85600001 4288979093
-0.088112503 0.27338201 0.85600001 4288847761
-0.0857016 0.273067 0.85500002 4288650380
-0.083393499 0.27307099 0.85500002 4288716428
-0.081085302 0.273074 0.85500002 4288321415
-0.078777097 0.27307799 0.85500002 4288058245
-0.076468699 0.27308199 0.85500002 4287860866
-0.074247099 0.27340499 0.85600001 4287860612
-0.072019897 0.27372801 0.85699999 4288124036
-0.069461897 0.272773 0.85399997 4288123785
-0.066055 0.26830399 0.83999997 4287795071
-0.061129 0.257128 0.80500001 4287662723
-0.057270799 0.24978399 0.78200001 4287728516
-0.054101001 0.244996 0.76700002 4287991941
-0.0506051 0.238291 0.74599999 4287860607
-0.047287799 0.231905 0.72600001 4287795073
-0.0435789 0.22296301 0.69800001 4287794819
-0.040439401 0.21625701 0.67699999 4287926402
-0.035474099 0.19869 0.62199998 4287926152
-0.032653201 0.191983 0.60100001 4289309872
-0.0305652 0.18911 0.59200001 4282929500
-0.0287215 0.18751401 0.58700001 4291023330
-0.027136 0.187516 0.58700001 4289773263
-0.025506901 0.187198 0.58600003 4289247432
-0.023842299 0.18656 0.58399999 4288984260
-0.022150399 0.18560299 0.58099997 4288786881
-0.020545499 0.185285 0.57999998 4288590016
-0.019011401 0.185605 0.58099997 4288589502
-0.0174419 0.185606 0.58099997 4288457916
-0.0158996 0.18592601 0.58200002 4288457916
-0.0143027 0.185608 0.58099997 4288326330
-0.012777 0.18624701 0.583 4288457916
-0.0111635 0.185609 0.58099997 4287997365
-0.0095773898 0.18528999 0.57999998 4287997365
-0.0080104498 0.18529101 0.57999998 4288063158
-0.0064546098 0.18561 0.58099997 4288128691
-0.00487654 0.18529101 0.57999998 4287931312
-0.0032981699 0.184653 0.57800001 4287799979
-0.0017366 0.184653 0.57800001 4287405221
-0.000175643 0.18529201 0.57999998 4287602601
0.0013937301 0.18561099 0.58099997 4287470761
0.0029634 0.18561099 0.58099997 4287076003
0.0045330599 0.18561099 0.58099997 4286944419
0.0061027198 0.18561099 0.58099997 4287470763
0.0076855798 0.18593 0.58200002 4287536556
0.0092261098 0.18528999 0.57999998 4287667626
0.0107744 0.18497001 0.579 4287207075
0.012296 0.184331 0.57700002 4287601573
0.0139028 0.18496899 0.579 4287141021
0.0154937 0.185288 0.57999998 4287666851
0.0171194 0.18592601 0.58200002 4287797668
0.018723801 0.186244 0.583 4287271838
0.020263899 0.18592399 0.58200002 4287469217
0.021798501 0.18560299 0.58099997 4287666596
0.0233278 0.18528301 0.57999998 4287732389
0.024937401 0.185601 0.58099997 4287206045
0.0265068 0.185599 0.58099997 4287074714
0.028076099 0.185598 0.58099997 4287601056
0.029594401 0.185277 0.57999998 4287469472
0.031160999 0.185275 0.57999998 4287798437
0.032671101 0.184954 0.579 4287469217
0.0342349 0.184953 0.579 4287272608
0.035798699 0.18495101 0.579 4287469733
0.0373624 0.184949 0.579 4287470249
0.038926098 0.184947 0.579 4287404715
0.040559601 0.185265 0.57999998 4287404970
0.042271201 0.185901 0.58200002 4287207591
0.043918099 0.18621901 0.583 4286878371
0.0455704 0.186536 0.58399999 4287470508
0.047066599 0.186214 0.583 4287404968
0.048557401 0.185893 0.58200002 4287470761
0.0500427 0.185571 0.58099997 4287076003
0.051522501 0.185249 0.57999998 4287470761
0.053088401 0.185247 0.57999998 4287273122
0.054748502 0.185563 0.58099997 4287207329
0.0564139 0.18588001 0.58200002 4287470500
0.057985 0.18587799 0.58200002 4287470500
0.0594538 0.18555599 0.58099997 4287338914
0.061022099 0.185553 0.58099997 4287667879
0.062590301 0.18555 0.58099997 4287668140
0.064268902 0.185867 0.58200002 4287207589
0.065839797 0.185864 0.58200002 4287470763
0.067642197 0.1865 0.58399999 4287733935
0.069099799 0.186177 0.583 4287733935
0.070794299 0.18649399 0.58399999 4287405222
0.072494201 0.18681 0.58499998 4287076257
0.074072897 0.18680701 0.58499998 4287338914
0.075522102 0.18648501 0.58399999 4286878363
0.077229902 0.186801 0.58499998 4287075489
0.078538902 0.186159 0.583 4287141796
0.080111898 0.186156 0.583 4287075491
0.081544802 0.18583401 0.58200002 4286747040
0.083257698 0.18615 0.583 4286812319
0.084684998 0.185828 0.58200002 4287009696
0.086403303 0.18614399 0.583 4287076005
0.087825097 0.185822 0.58200002 4286878626
0.089241497 0.185499 0.58099997 4286944417
0.090808697 0.185496 0.58099997 4286878624
0.092693903 0.186132 0.583 4286812831
0.0942664 0.186129 0.583 4286549659
0.0958388 0.186125 0.583 4286747038
0.097244203 0.185803 0.58200002 4287009696
0.098813899 0.1858 0.58200002 4287207075
0.100384 0.18579701 0.58200002 4287272608
0.101953 0.185794 0.58200002 4287075229
0.103167 0.18515299 0.57999998 4287009949
0.104912 0.185469 0.58099997 4286746777
0.106662 0.185785 0.58200002 4286878878
0.108417 0.186102 0.583 4286878624
0.109612 0.185461 0.58099997 4287076257
0.110988 0.185139 0.57999998 4286681245
0.112552 0.18513601 0.57999998 4286943903
0.113919 0.18481401 0.579 4287075489
0.11568 0.185131 0.57999998 4286812571
0.117244 0.185128 0.57999998 4286944157
0.118808 0.18512601 0.57999998 4286812057
0.120579 0.185443 0.58099997 4286746263
0.122777 0.186398 0.58399999 4286548884
0.124564 0.18671501 0.58499998 4286943642
0.126358 0.187032 0.58600003 4286943642
0.12772 0.186711 0.58499998 4286943643
0.129518 0.18702801 0.58600003 4286746778
0.130651 0.186388 0.58399999 4286746778
0.13245299 0.18670499 0.58499998 4286483606
0.134489 0.187342 0.58700001 4286680985
0.137463 0.189255 0.59299999 4286615191
0.143049 0.19467901 0.61000001 4286615191
0.199901 0.26297101 0.824 4286746778
0.20408601 0.26552299 0.83200002 4286746264
0.20757 0.26711801 0.83700001 4286746778
0.211082 0.26871201 0.84200001 4286746778
0.21462101 0.270307 0.847 4286549399
0.217162 0.27062601 0.84799999 4286680985
0.21971001 0.27094501 0.84899998 4286615191
0.222524 0.27158299 0.85100001 4286286480
0.22534899 0.272221 0.85299999 4286482316
0.228452 0.27317899 0.85600001 4285889916
0.230763 0.27318001 0.85600001 4287403149
0.233346 0.2735 0.85699999 4288059787
0.23511 0.272863 0.85500002 4288256905
0.23769701 0.27318299 0.85600001 4288322699
0.240289 0.27350399 0.85699999 4288322699
0.243453 0.274463 0.86000001 4288454033
0.245776 0.27446601 0.86000001 4288190861
0.248965 0.275426 0.86299998 4288388240
0.251297 0.27542901 0.86299998 4288190859
0.253923 0.27575099 0.86400002 4288190861
0.255665 0.27511701 0.86199999 4288256652
0.257696 0.27480099 0.861 4288454031
0.26002401 0.27480599 0.861 4288256654
0.26235199 0.27480999 0.861 4288125066
0.26498899 0.275134 0.86199999 4288190859
0.26732099 0.27513999 0.86199999 4287927941
0.26965299 0.27514601 0.86199999 4288650894
0.27261701 0.27579001 0.86400002 4288387722
0.27495599 0.27579701 0.86400002 4288125066
0.27761599 0.27612299 0.86500001 4288388240
0.28028199 0.27644899 0.866 4288256399
0.282628 0.27645701 0.866 4288190606
0.28497499 0.27646601 0.866 4287927436
0.28698999 0.27615499 0.86500001 4287795848
0.28966901 0.276483 0.866 4288256654
0.29168099 0.27617401 0.86500001 4288190859
0.294707 0.276822 0.86699998 4288190859
0.29740199 0.277152 0.86799997 4287993733
0.299757 0.277163 0.86799997 4288454284
0.30211401 0.27717501 0.86799997 4288849557
0.304822 0.27750599 0.86900002 4288849303
0.30753601 0.27783799 0.87 4288849052
0.309544 0.27753201 0.86900002 4288585625
0.31154799 0.277226 0.86799997 4288651418
0.31390801 0.27724001 0.86799997 4288454809
0.315905 0.27693599 0.86699998 4288389016
0.31863201 0.27726999 0.86799997 4288191636
0.320995 0.27728599 0.86799997 4287928718
0.32373101 0.27762201 0.86900002 4288059789
0.32572401 0.27732 0.86799997 4288389006
0.32809001 0.27733701 0.86799997 4288125834
0.330457 0.277356 0.86799997 4287994248
0.33244199 0.277055 0.86699998 4288586385
0.33403599 0.27643499 0.86500001 4288455062
0.33639801 0.27645499 0.86500001 4288191636
0.33837 0.27615601 0.86400002 4287863446
0.34191501 0.27713701 0.86699998 4287797656
0.34468299 0.27747899 0.86799997 4288126368
0.34785801 0.27814099 0.87 4287665816
0.35023999 0.278164 0.87 4287665554
0.35302901 0.27850899 0.87099999 4288191637
0.355416 0.278534 0.87099999 4288322192
0.358215 0.27887899 0.87199998 4288651412
0.360194 0.278586 0.87099999 4287796101
0.36258599 0.278613 0.87099999 4287862148
0.36456001 0.278321 0.87 4288191112
0.36737299 0.27867001 0.87099999 4288059524
0.36976901 0.27869999 0.87099999 4288191110
0.37216699 0.27873001 0.87099999 4287730045
0.374136 0.27844101 0.87 4288190598
0.37696701 0.27879301 0.87099999 4288256136
0.37849799 0.27818599 0.86900002 4287992713
0.380458 0.27790001 0.86799997 4288255884
0.38285601 0.27793401 0.86799997 4288322445
0.386143 0.27860999 0.87 4287861894
0.38855001 0.27864599 0.87 4287861380
0.39095899 0.27868399 0.87 4287137657
0.39336899 0.27872199 0.87 4287137141
0.395327 0.27844 0.86900002 4287071603
0.39773899 0.27847999 0.86900002 4287071601
0.399692 0.27820101 0.86799997 4287400308
0.40164199 0.277922 0.86699998 4287137136
0.40452099 0.27828601 0.86799997 4287334515
0.40693799 0.27832901 0.86799997 4287071603
0.40935799 0.27837399 0.86799997 4287334015
0.41225401 0.278741 0.86900002 4287795585
0.415158 0.279109 0.87 4287993219
0.41711101 0.27883601 0.86900002 4287730561
0.41905999 0.27856401 0.86799997 4287993734
0.42100599 0.27829301 0.86699998 4288059524
0.42392501 0.27866501 0.86799997 4287599228
0.42636201 0.27871701 0.86799997 4287928191
0.428801 0.27877101 0.86799997 4287927679
0.431243 0.27882501 0.86799997 4287664252
0.434187 0.27920201 0.86900002 4287993217
0.43764201 0.27990201 0.87099999 4287862147
0.43909001 0.27931699 0.86900002 4286284143
0.44103801 0.279055 0.86799997 4282007598
0.44349399 0.279116 0.86799997 4287665796
0.44646701 0.27949899 0.86900002 4287994761
0.44944799 0.27988401 0.87 4287928708
0.45243901 0.28027001 0.87099999 4287994247
0.45543799 0.28065699 0.87199998 4288257419
0.45739499 0.28040299 0.87099999 4288323212
0.459351 0.28014901 0.87 4288455313
0.46130401 0.27989599 0.86900002 4288125580
0.464322 0.28029001 0.87 4288782998
0.46734899 0.28068399 0.87099999 4288717205
0.470386 0.28108001 0.87199998 4287927941
0.47288999 0.281156 0.87199998 4288322698
0.47539699 0.281232 0.87199998 4287994501
0.47790799 0.28131101 0.87199998 4287928454
0.480423 0.28139001 0.87199998 4287862661
0.48238799 0.281149 0.87099999 4288322706
0.484909 0.28123099 0.87099999 4288191120
0.48799199 0.281638 0.87199998 4288322192
0.49108601 0.282047 0.87300003 4288519826
0.492493 0.281488 0.87099999 4287794819
0.49502999 0.28157699 0.87099999 4287531894
0.498142 0.281991 0.87199998 4287006561
-0.199376 0.26835001 0.84799999 4284636784
-0.197089 0.268352 0.84799999 4286084219
-0.195491 0.26930401 0.85100001 4288123795
-0.193423 0.26962301 0.852 4287466118
-0.19135 0.26994199 0.85299999 4288518806
-0.18904901 0.269945 0.85299999 4285098861
-0.185873 0.268682 0.84899998 4285033327
-0.18271901 0.26741901 0.84500003 4284836983
-0.1798 0.266473 0.84200001 4284048499
-0.17837299 0.26774299 0.84600002 4284443257
-0.17692401 0.269012 0.85000002 4284113272
-0.17545401 0.270282 0.85399997 4284441467
-0.172948 0.26996899 0.85299999 4286218118
-0.17044801 0.269656 0.852 4287270544
-0.16815101 0.26966 0.852 4283782495
-0.16604801 0.269981 0.85299999 4286414478
-0.163748 0.26998499 0.85299999 4287138696
-0.16163699 0.27030501 0.85399997 4287730832
-0.15970699 0.27094299 0.85600001 4288651418
-0.157399 0.27094701 0.85600001 4288980383
-0.15527201 0.27126801 0.85699999 4288914590
-0.152961 0.271272 0.85699999 4288848283
-0.150649 0.27127701 0.85699999 4288915360
-0.148165 0.27096501 0.85600001 4288257176
-0.14585701 0.270969 0.85600001 4283915866
-0.14338 0.270657 0.85500002 4284771175
-0.141074 0.27066201 0.85500002 4285033833
-0.138606 0.27035001 0.85399997 4285297005
-0.136622 0.27098799 0.85600001 4288586395
-0.134313 0.27099299 0.85600001 4288849567
-0.132158 0.271314 0.85699999 4288783004
-0.129695 0.27100199 0.85600001 4289046176
-0.12738501 0.271007 0.85600001 4289243557
-0.124638 0.270062 0.85299999 4288848285
-0.12248 0.270383 0.85399997 4285624428
-0.120035 0.270071 0.85299999 4288124562
-0.117734 0.27007601 0.85299999 4289374627
-0.115297 0.26976401 0.852 4288979869
-0.113131 0.27008501 0.85299999 4289045662
-0.110959 0.27040601 0.85399997 4289045662
-0.108782 0.27072701 0.85500002 4288782490
-0.106475 0.27073199 0.85500002 4289045148
-0.104167 0.27073601 0.85500002 4289110940
-0.10186 0.27074 0.85500002 4289045401
-0.099436097 0.270428 0.85399997 4289110680
-0.097017497 0.270116 0.85299999 4289308058
-0.094826199 0.270437 0.85399997 4289111193
-0.092521101 0.270441 0.85399997 4289045400
-0.090110302 0.27012801 0.85299999 4288980122
-0.0877048 0.26981601 0.852 4288980377
-0.085404798 0.26982 0.852 4289177240
-0.082909703 0.26919001 0.85000002 4288848273
-0.080614902 0.26919401 0.85000002 4288979347
-0.078135803 0.268565 0.84799999 4289439644
-0.075935699 0.26888499 0.84899998 4289176472
-0.073730201 0.269205 0.85000002 4289176726
-0.071603201 0.269842 0.852 4288979345
-0.069139898 0.26921201 0.85000002 4289176979
-0.0659796 0.26573199 0.83899999 4289242772
-0.0606764 0.253066 0.79900002 4288781715
-0.056321502 0.243567 0.76899999 4288979094
-0.0529751 0.237868 0.75099999 4288584335
-0.0502006 0.234387 0.74000001 4288255624
-0.046834201 0.22773799 0.71899998 4288058245
-0.0433314 0.219822 0.69400001 4288058243
-0.040202498 0.213172 0.67299998 4287860864
-0.035533 0.197336 0.62300003 4287729288
-0.0326005 0.190053 0.60000002 4288586665
-0.0305152 0.187204 0.59100002 4283192674
-0.0286741 0.18562099 0.58600003 4290825951
-0.0270449 0.185306 0.58499998 4289641677
-0.0254211 0.184991 0.58399999 4289181639
-0.023843599 0.184992 0.58399999 4288984774
-0.022189699 0.18436 0.58200002 4288655809
-0.020582 0.184044 0.58099997 4288590016
-0.019012401 0.184045 0.58099997 4288457916
-0.0174428 0.184046 0.58099997 4288062645
-0.015873101 0.184047 0.58099997 4287865266
-0.0142543 0.183414 0.579 4288062645
-0.0127119 0.183732 0.57999998 4288194231
-0.0111065 0.183099 0.57800001 4287931572
-0.0095613897 0.18341599 0.579 4287668400
-0.0079970704 0.18341701 0.579 4287931572
-0.00643274 0.18341701 0.579 4287931314
-0.00485999 0.183101 0.57800001 4287273382
-0.00328693 0.182467 0.57599998 4286747292
-0.00173369 0.18278401 0.57700002 4287141535
-0.000174744 0.18278401 0.57700002 4287733673
0.001389 0.18341801 0.579 4287338915
0.0029533501 0.18341801 0.579 4287076003
0.0045177001 0.18341801 0.579 4287273384
0.0060820398 0.18341701 0.579 4287273129
0.0076595801 0.183734 0.57999998 4287207336
0.0091788797 0.18278299 0.57700002 4287141798
0.0107378 0.18278199 0.57700002 4287141282
0.0122967 0.18278199 0.57700002 4287009949
0.0139036 0.183415 0.579 4287339168
0.0154411 0.183097 0.57800001 4287404707
0.0170321 0.183413 0.579 4287404708
0.018660501 0.184045 0.58099997 4287273636
0.020264899 0.184361 0.58200002 4287272868
0.0217622 0.183727 0.57999998 4287207075
0.023288799 0.18340901 0.579 4287207075
0.0248529 0.18340699 0.579 4286878364
0.0264169 0.183406 0.579 4286812570
0.027981 0.183404 0.579 4286812570
0.0294939 0.18308599 0.57800001 4286549912
0.031108901 0.183401 0.579 4286878363
0.0326728 0.18340001 0.579 4286878364
0.034177601 0.183081 0.57800001 4287009950
0.0356769 0.182763 0.57700002 4287076003
0.0372352 0.182761 0.57700002 4287470763
0.038860802 0.18307599 0.57800001 4287273384
0.0404917 0.18339001 0.579 4287207591
0.042128 0.183705 0.57999998 4287207591
0.043618999 0.183386 0.579 4286418075
0.0452605 0.18370099 0.57999998 4287010469
0.046826702 0.183698 0.57999998 4287273895
0.048392899 0.183696 0.57999998 4287076516
0.049872801 0.183377 0.579 4287141796
0.0513473 0.18305799 0.57800001 4287076257
0.052816302 0.182739 0.57700002 4287338915
0.0544683 0.183053 0.57800001 4287141021
0.0561257 0.183367 0.579 4287535779
0.057788402 0.183681 0.57999998 4287536293
0.0592518 0.18336099 0.579 4287207328
0.060919799 0.18367501 0.57999998 4287536293
0.062485401 0.183672 0.57999998 4287339175
0.0642718 0.184303 0.58200002 4287470763
0.065729499 0.183983 0.58099997 4287536556
0.067413501 0.184297 0.58200002 4287470508
0.068865702 0.18397801 0.58099997 4287668142
0.070433602 0.183975 0.58099997 4287076003
0.072001599 0.183972 0.58099997 4287602347
0.073696002 0.184285 0.58200002 4287207842
0.075266503 0.184282 0.58200002 4286352019
0.076837003 0.18427899 0.58200002 4286549399
0.078003198 0.18332601 0.579 4286943903
0.079565398 0.183323 0.579 4287141282
0.080987401 0.18300299 0.57800001 4287075491
0.082832403 0.183633 0.57999998 4286680731
0.084397197 0.18363 0.57999998 4287075489
0.085961796 0.18362699 0.57999998 4287075489
0.087375604 0.18330701 0.579 4286549659
0.088630199 0.182671 0.57700002 4286286487
0.090342902 0.18298399 0.57800001 4286812831
0.092220001 0.183614 0.57999998 4286812831
0.094269499 0.184561 0.583 4286747038
0.095677599 0.184241 0.58200002 4286549913
0.096913099 0.183605 0.57999998 4286877850
0.098307602 0.183285 0.579 4287141021
0.099869102 0.183282 0.579 4286812056
0.101431 0.18327899 0.579 4287009436
0.102636 0.182643 0.57700002 4286877850
0.104192 0.18264 0.57700002 4286483606
0.105932 0.182953 0.57800001 4286220180
0.108048 0.1839 0.58099997 4286417559
0.109426 0.18358 0.57999998 4286681499
0.11099 0.183578 0.57999998 4286286741
0.11236 0.183258 0.579 4286878364
0.113922 0.183256 0.579 4286746778
0.115682 0.183569 0.57999998 4286681499
0.117044 0.18325 0.579 4286615705
0.118196 0.182615 0.57700002 4286549398
0.120167 0.183245 0.579 4286746777
0.122359 0.184192 0.58200002 4286483605
0.124354 0.18482301 0.58399999 4286877847
0.12614401 0.185137 0.58499998 4286680470
0.12750299 0.184818 0.58399999 4286812057
0.129299 0.185133 0.58499998 4287009436
0.13065299 0.18481401 0.58399999 4286220434
0.132002 0.184496 0.583 4286615192
0.134032 0.185127 0.58499998 4287338400
0.136537 0.186391 0.58899999 4287075228
0.14140899 0.19081999 0.60299999 4286877849
0.150388 0.200628 0.634 4287272607
0.196263 0.25600299 0.80900002 4286812057
0.20237 0.26106399 0.82499999 4286812057
0.206332 0.26327801 0.83200002 4286549399
0.21008 0.26517501 0.838 4286220434
0.213355 0.26644 0.84200001 4286615192
0.215883 0.266756 0.84299999 4287338400
0.21841601 0.26707199 0.84399998 4287075228
0.22121701 0.26770401 0.84600002 4286417296
0.22402801 0.26833701 0.84799999 4286087305
0.227117 0.26928601 0.85100001 4285165682
0.229684 0.26960301 0.852 4286942083
0.232256 0.26991999 0.85299999 4287862661
0.234284 0.269604 0.852 4288387977
0.23658399 0.26960599 0.852 4288256391
0.23860499 0.26929 0.85100001 4288453517
0.241752 0.27024099 0.85399997 4288387724
0.244059 0.27024299 0.85399997 4288321677
0.24723101 0.27119499 0.85699999 4288453515
0.249547 0.271198 0.85699999 4288387724
0.25215599 0.27151701 0.85799998 4288388238
0.25417799 0.27120399 0.85699999 4288454031
0.255896 0.270574 0.85500002 4288454033
0.25820801 0.270578 0.85500002 4288059275
0.26082399 0.270899 0.85600001 4288059527
0.26375401 0.27153701 0.85799998 4288191113
0.26607499 0.27154201 0.85799998 4288322698
0.268709 0.27186301 0.85900003 4288190343
0.27103299 0.271869 0.85900003 4288125320
0.27335799 0.27187499 0.85900003 4288125068
0.27600399 0.27219799 0.86000001 4288322192
0.27865699 0.272522 0.861 4287993227
0.28098899 0.27252901 0.861 4288124813
0.28332099 0.27253699 0.861 4288453778
0.28598601 0.27286199 0.86199999 4288387985
0.288322 0.27287 0.86199999 4288388240
0.29065901 0.272879 0.86199999 4288519824
0.292997 0.27288899 0.86199999 4288322698
0.29602 0.273532 0.86400002 4288651663
0.29802001 0.27322599 0.86299998 4288060040
0.30036199 0.27323699 0.86299998 4287994248
0.30270499 0.273249 0.86299998 4288322959
0.305049 0.27326101 0.86299998 4288059534
0.30703801 0.272957 0.86199999 4288322708
0.30937999 0.27296999 0.86199999 4288717466
0.31172401 0.27298301 0.86199999 4288783259
0.31370401 0.272681 0.861 4288520087
0.316414 0.27301201 0.86199999 4288585878
0.31876001 0.273027 0.86199999 4288388754
0.321852 0.27367699 0.86400002 4287993994
0.32345599 0.27305901 0.86199999 4288191627
0.32618299 0.27339301 0.86299998 4287533949
0.328536 0.27341101 0.86299998 4288256915
0.33165601 0.27406299 0.86500001 4287796617
0.33363101 0.273765 0.86400002 4287599238
0.33482301 0.272834 0.861 4288059789
0.336391 0.27221999 0.85900003 4287862672
0.33913299 0.27255699 0.86000001 4287599760
0.34267601 0.27353001 0.86299998 4287731609
0.34583601 0.27418599 0.86500001 4286876301
0.34860599 0.27452499 0.866 4285626487
0.35097799 0.27454901 0.866 4285954935
0.353351 0.274573 0.866 4287599752
0.35613501 0.27491501 0.86699998 4288455061
0.35851401 0.274941 0.86699998 4288256905
0.36089301 0.274968 0.86699998 4287862147
0.362856 0.27467799 0.866 4287993986
0.36523601 0.27470601 0.866 4287993986
0.36761701 0.27473399 0.866 4288586123
0.37042701 0.27508101 0.86699998 4287796354
0.37281501 0.275112 0.86699998 4287927171
0.37563601 0.27546 0.86799997 4287861380
0.377159 0.27485701 0.866 4288124298
0.37911001 0.274573 0.86500001 4288058505
0.38149801 0.27460599 0.86500001 4288190861
0.38388899 0.27464101 0.86500001 4288388240
0.38628101 0.274676 0.86500001 4288321677
0.388675 0.27471301 0.86500001 4287532161
0.39107099 0.27474999 0.86500001 4286150248
0.39301401 0.27447 0.86400002 4287071348
0.39541 0.27450901 0.86400002 4287203442
0.39781001 0.27454901 0.86400002 4287268975
0.39974701 0.27427199 0.86299998 4287071596
0.40214801 0.27431399 0.86299998 4286808425
0.40454999 0.27435601 0.86299998 4286939758
0.40742701 0.27471799 0.86400002 4287005810
0.41031101 0.27508101 0.86500001 4287532154
0.412249 0.27480799 0.86400002 4287203703
0.41466299 0.27485499 0.86400002 4286611564
0.41707999 0.274903 0.86400002 4286677612
0.419985 0.27526999 0.86500001 4286809196
0.422409 0.27531999 0.86500001 4286808684
0.42434499 0.27505299 0.86400002 4287269233
0.426278 0.27478701 0.86299998 4287269235
0.42969799 0.27547699 0.86500001 4287334773
0.431633 0.275213 0.86400002 4287663738
0.43557599 0.27622399 0.86699998 4287729531
0.43802199 0.276281 0.86699998 4287204217
0.44047099 0.27633899 0.86699998 4283849288
0.44139001 0.275442 0.86400002 4285428834
0.443836 0.27550301 0.86400002 4287534464
0.447319 0.27620199 0.866 4287862915
0.450297 0.276584 0.86699998 4287730559
0.45276099 0.27664801 0.86699998 4287599489
0.454703 0.27639499 0.866 4288060041
0.45664299 0.276142 0.86500001 4288586131
0.45911101 0.27621001 0.86500001 4287928203
0.46158299 0.27627999 0.86500001 4288783257
0.46459401 0.27667001 0.866 4288454292
0.46761501 0.277062 0.86699998 4288454547
0.47064501 0.277455 0.86799997 4288059787
0.47314 0.27753001 0.86799997 4288454798
0.47509 0.27728701 0.86699998 4288389259
0.47758901 0.277365 0.86699998 4288256905
0.48009199 0.27744401 0.86699998 4288321939
0.48259899 0.27752501 0.86699998 4288454033
0.48567 0.27792799 0.86799997 4288190606
0.487625 0.27769101 0.86699998 4288519826
0.490145 0.27777699 0.86699998 4288123784
0.49323601 0.278184 0.86799997 4287400568
0.49633801 0.27859399 0.86900002 4287138147
0.49945 0.27900499 0.87 4287268975
-0.19867299 0.26512301 0.84500003 4287400072
-0.196394 0.26512501 0.84500003 4288847516
-0.194345 0.26544201 0.84600002 4288386704
-0.192518 0.26607201 0.84799999 4287597188
-0.19068 0.26670301 0.85000002 4288781462
