# .PCD v0.7 - Point Cloud Data file format
VERSION 0.7
FIELDS x y z rgb
SIZE 4 4 4 4
TYPE F F F U
COUNT 1 1 1 1
WIDTH 1077
HEIGHT 1
VIEWPOINT 0 0 0 1 0 0 0
POINTS 1077
DATA ascii
0.026316 0.053414799 0.61000001 4284046685
0.027926 0.053326301 0.60900003 4284573283
0.029579001 0.053325199 0.60900003 4284639076
0.0312832 0.053411599 0.61000001 4284178525
0.032884698 0.0533229 0.60900003 4284244832
0.034537401 0.0533216 0.60900003 4284573283
0.036189999 0.0533203 0.60900003 4284507490
0.0377803 0.0532314 0.60799998 4284507490
0.039235398 0.052967299 0.60500002 4284244317
0.040809199 0.052878302 0.60399997 4284244317
0.042377401 0.0527892 0.60299999 4284310111
0.044013001 0.052787699 0.60299999 4284638822
0.0456485 0.052786 0.60299999 4284441445
0.047362301 0.052871902 0.60399997 4284901227
0.0490002 0.052870099 0.60399997 4284638308
0.0505541 0.0527808 0.60299999 4284835687
0.052189 0.052779 0.60299999 4284441183
0.053645201 0.052602001 0.60100001 4284638562
0.055182301 0.0525125 0.60000002 4284441443
0.056619201 0.052335501 0.59799999 4284507238
0.0583372 0.052421 0.59899998 4284506983
0.060160499 0.052593902 0.60100001 4284441192
0.0619945 0.0527668 0.60299999 4284835950
0.063206099 0.0524146 0.59899998 4284836717
0.064503998 0.052149899 0.59600002 4284442213
0.066007301 0.052060101 0.59500003 4284770662
0.067845903 0.052232798 0.597 4284573282
0.069462501 0.052230399 0.597 4284507490
0.070840701 0.052053101 0.59500003 4284441697
0.072207898 0.051875699 0.59299999 4284770662
0.073812999 0.0518732 0.59299999 4284902248
0.075417899 0.0518707 0.59299999 4284508006
0.077022597 0.0518681 0.59299999 4284573029
0.078494497 0.0517781 0.59200001 4284507236
0.080095999 0.0517754 0.59200001 4284441443
0.0816973 0.051772799 0.59200001 4284638822
0.083439097 0.051857501 0.59299999 4284704355
0.0850427 0.0518548 0.59299999 4284375904
0.086646102 0.051851999 0.59299999 4284309857
0.088249199 0.051849201 0.59299999 4284244064
0.090003602 0.051933799 0.59399998 4284704355
0.092225797 0.052280601 0.59799999 4283454287
0.096352503 0.0536764 0.61400002 4282072634
0.103598 0.0567329 0.64899999 4284309597
0.113306 0.061012801 0.69800001 4284572769
0.120142 0.063631497 0.72799999 4284244064
0.12563001 0.0654632 0.74900001 4284572769
0.13038 0.066857703 0.76499999 4284835941
0.1366 0.0689511 0.78899997 4284704355
0.14083999 0.069995597 0.801 4283454287
0.144787 0.070865199 0.81099999 4282204726
0.147882 0.071297698 0.81599998 4282993728
0.150819 0.071642898 0.81999999 4284703830
0.153032 0.071638502 0.81999999 4285953122
0.15524399 0.071634099 0.81999999 4286215781
0.157647 0.071717001 0.82099998 4286281314
0.16024999 0.071887203 0.82300001 4286083681
0.16306201 0.072144702 0.82599998 4286215267
0.165489 0.0722275 0.82700002 4286412646
0.16771799 0.072223 0.82700002 4286346853
0.169741 0.072131097 0.82599998 4286478693
0.172383 0.072301097 0.82800001 4286346592
0.175036 0.072471097 0.82999998 4286872934
0.17727201 0.0724665 0.82999998 4286676325
0.179291 0.072374597 0.829 4286281827
0.18152399 0.072369903 0.829 4286479206
0.18397801 0.072452597 0.82999998 4286413414
0.186437 0.072535202 0.83099997 4286346853
0.189128 0.072705097 0.833 4286478439
0.19159999 0.072787702 0.83399999 4286346853
0.19430999 0.072957598 0.83600003 4286478954
0.196795 0.073040202 0.83700001 4286610539
0.198571 0.072861001 0.83499998 4286347625
0.201058 0.072943598 0.83600003 4286216041
0.203307 0.072938897 0.83600003 4286281832
0.20555601 0.0729343 0.83600003 4286216294
0.20755599 0.072842397 0.83499998 4286610797
0.21030401 0.0730123 0.83700001 4286611052
0.213062 0.073182203 0.83899999 4286676843
0.21557499 0.0732648 0.83999997 4286347878
0.217574 0.073173001 0.83899999 4286479464
0.220091 0.073255703 0.83999997 4286611050
0.22261401 0.073338397 0.84100002 4286611305
0.224874 0.073333897 0.84100002 4286808172
0.227134 0.073329397 0.84100002 4286676072
0.229394 0.073325001 0.84100002 4286742118
0.231654 0.073320597 0.84100002 4287005290
0.233914 0.073316202 0.84100002 4286742378
0.236454 0.073399097 0.84200001 4286808171
0.23899999 0.073481999 0.84299999 4286676586
0.241551 0.073564902 0.84399998 4286610539
0.24352901 0.073473498 0.84299999 4286610539
0.245502 0.073382199 0.84200001 4287202162
0.24747001 0.073291004 0.84100002 4287004784
0.25002599 0.0733741 0.84200001 4286873712
0.252287 0.073370099 0.84200001 4287005297
0.25485101 0.0734533 0.84299999 4286939758
0.25681001 0.073362298 0.84200001 4286873964
0.25907201 0.073358499 0.84200001 4287071854
0.26133299 0.073354699 0.84200001 4287269235
0.26390699 0.073438101 0.84299999 4287400566
0.265856 0.073347397 0.84200001 4287334773
0.26811701 0.073343903 0.84200001 4287137649
0.27037901 0.073340401 0.84200001 4287006312
0.272964 0.073424101 0.84299999 4287137394
0.27522901 0.0734208 0.84299999 4287400566
0.27716401 0.073330499 0.84200001 4287334775
0.27909401 0.073240198 0.84100002 4287334775
0.281353 0.073237099 0.84100002 4287268982
0.28462499 0.073495403 0.84399998 4287071090
0.287572 0.073666602 0.84600002 4286939504
0.29018801 0.073750898 0.847 4286938990
0.292119 0.073661096 0.84600002 4287070315
0.29439199 0.073658504 0.84600002 4286347106
0.296316 0.073568903 0.84500003 4285688915
0.29788101 0.073392302 0.84299999 4286018646
0.29979101 0.073302999 0.84200001 4285887322
0.302055 0.073300801 0.84200001 4286281820
0.304681 0.073385701 0.84299999 4286742369
0.306584 0.073296703 0.84200001 4287137643
0.30811501 0.073120698 0.83999997 4286611556
0.31000599 0.073031902 0.83899999 4287598198
0.311519 0.072856203 0.83700001 4287730300
0.31339699 0.072767697 0.83600003 4287993733
0.31564701 0.072766297 0.83600003 4287928454
0.31789801 0.072765 0.83600003 4287862408
0.32014999 0.072763897 0.83600003 4288059273
0.322402 0.072762899 0.83600003 4287796355
0.32465401 0.072762102 0.83600003 4287730562
0.326516 0.072674297 0.83499998 4287270525
0.327586 0.072412603 0.83200002 4288454798
0.32982999 0.0724122 0.83200002 4287731590
0.33167401 0.072324798 0.83099997 4287731336
0.33431801 0.072411701 0.83200002 4288717203
0.33615899 0.072324701 0.83099997 4287993480
0.33799601 0.072237797 0.82999998 4287993734
0.34064701 0.0723252 0.83099997 4287993733
0.34371701 0.0724997 0.833 4288059524
0.34596801 0.072500303 0.833 4288191112
0.346966 0.072240002 0.82999998 4288124805
0.34921101 0.072241001 0.82999998 4288059012
0.35188001 0.072329096 0.83099997 4287861119
0.35412899 0.0723304 0.83099997 4286742125
0.356379 0.072331898 0.83099997 4286478945
0.358199 0.072246499 0.82999998 4286807394
0.36131701 0.0724224 0.83200002 4286939748
0.36357301 0.072424397 0.83200002 4287071334
0.36583 0.072426602 0.83200002 4287005541
0.367203 0.072254904 0.82999998 4287531885
0.36990201 0.072344497 0.83099997 4287334506
0.372159 0.072347298 0.83099997 4287466606
0.37486801 0.072437301 0.83200002 4287795571
0.37577099 0.072179303 0.829 4287598453
0.37802699 0.072182603 0.829 4287795579
0.38120201 0.0723603 0.83099997 4287729531
0.38438901 0.072538301 0.833 4287334773
0.38573101 0.0723681 0.83099997 4285492311
0.38799801 0.072372302 0.83099997 4287202929
0.390735 0.072463803 0.83200002 4287926905
0.39395201 0.072642699 0.83399999 4287795319
0.39623201 0.072647601 0.83399999 4287268975
0.399468 0.072826996 0.83600003 4287795319
0.403198 0.073093697 0.83899999 4287071603
0.405496 0.0730993 0.83899999 4286808431
0.404879 0.072582401 0.833 4285362013
0.40569699 0.0723271 0.82999998 4283913808
0.406993 0.072159097 0.82800001 4288059527
0.409762 0.072252698 0.829 4287795840
0.41253799 0.072346702 0.82999998 4287861633
0.41532099 0.0724409 0.83099997 4288059012
0.41760999 0.072448298 0.83099997 4287927171
0.41990101 0.072455801 0.83099997 4287992966
0.42320901 0.072638102 0.833 4288124299
0.42602 0.072733499 0.83399999 4288058253
0.428325 0.072741903 0.83399999 4287993480
0.430116 0.072663397 0.833 4287862148
0.43190399 0.072585098 0.83200002 4288059273
0.43421 0.0725943 0.83200002 4288322445
0.43704301 0.072691202 0.833 4288256906
0.43988401 0.072788298 0.83399999 4288125320
0.44273299 0.0728857 0.83499998 4287862147
0.44558999 0.072983503 0.83600003 4288322698
0.44791999 0.072994299 0.83600003 4288256905
0.44971299 0.072918102 0.83499998 4288257420
0.45204499 0.072929502 0.83499998 4288520592
0.45383501 0.072853804 0.83399999 4288191627
0.45726299 0.073040597 0.83600003 4288520592
0.46015599 0.073140398 0.83700001 4288586385
0.46305701 0.073240504 0.838 4288586385
0.46430099 0.073078804 0.83600003 4288322959
0.46609399 0.0730047 0.83499998 4288520338
0.46788499 0.072930999 0.83399999 4288323475
0.471365 0.073119998 0.83600003 4288586647
0.473726 0.0731344 0.83600003 4288652441
0.476659 0.073236696 0.83700001 4288520855
0.478457 0.073164403 0.83600003 4288718234
0.48082799 0.073179901 0.83600003 4288849050
0.48378 0.073283397 0.83700001 4289046429
0.48674199 0.073387198 0.838 4288717719
0.48912901 0.073403902 0.838 4288586133
0.49210599 0.073508702 0.83899999 4288849557
0.49450299 0.073526204 0.83899999 4288652178
0.49868101 0.073807001 0.84200001 4288455059
-0.198433 0.069583103 0.82300001 4289308826
-0.196218 0.069587603 0.82300001 4289637791
-0.193532 0.069422998 0.82099998 4289506458
-0.19155601 0.069512002 0.82200003 4289374358
-0.189574 0.069600999 0.82300001 4289177493
-0.18758699 0.069690101 0.824 4289111445
-0.184918 0.069525398 0.82200003 4289375135
-0.182483 0.069445297 0.82099998 4289835686
-0.180272 0.069449797 0.82099998 4290098858
-0.178495 0.0696235 0.82300001 4289374365
-0.17649201 0.069712602 0.824 4288782228
-0.174273 0.069716997 0.824 4289111447
-0.17205299 0.069721498 0.824 4289440158
-0.170038 0.069810599 0.82499999 4289572259
-0.168222 0.069984198 0.82700002 4289374882
-0.16619401 0.070073299 0.82800001 4289045917
-0.16396099 0.070077799 0.82800001 4289440159
-0.161924 0.070166796 0.829 4289308058
-0.15949599 0.070086598 0.82800001 4288057986
-0.157263 0.070090897 0.82800001 4288715401
-0.154843 0.070010602 0.82700002 4288583815
-0.152427 0.0699303 0.82599998 4288781194
-0.15001599 0.069849901 0.82499999 4288847501
-0.14779 0.0698542 0.82499999 4288321670
-0.145916 0.070027702 0.82700002 4288781708
-0.143684 0.070031904 0.82700002 4288321157
-0.14162201 0.070120797 0.82800001 4288189311
-0.13905001 0.069955602 0.82599998 4288320129
-0.13681901 0.0699597 0.82599998 4288781194
-0.134588 0.069963701 0.82599998 4288715401
-0.13219699 0.069882996 0.82499999 4288518536
-0.130125 0.069971703 0.82599998 4288781708
-0.127893 0.069975697 0.82599998 4288650635
-0.12581301 0.070064299 0.82700002 4288716428
-0.123428 0.069983497 0.82599998 4288255622
-0.121049 0.069902502 0.82499999 4288453001
-0.118818 0.069906302 0.82499999 4288255622
-0.116728 0.0699948 0.82599998 4288518536
-0.114633 0.070083201 0.82700002 4288452743
-0.113076 0.070510603 0.83200002 4287992192
-0.112157 0.071361698 0.84200001 4288057471
-0.11288 0.073314697 0.86500001 4288649608
-0.130822 0.090618402 1.069 4287992192
-0.125655 0.0890119 1.05 4288649608
-0.072282799 0.0549406 0.648 4288452750
-0.069983497 0.054519001 0.64300001 4288584607
-0.067817204 0.054182202 0.639 4286086270
-0.065879203 0.054014899 0.63700002 4285625464
-0.0638512 0.0537627 0.634 4285099120
-0.062035199 0.0536801 0.63300002 4284967020
-0.060319699 0.053682201 0.63300002 4284966506
-0.0584189 0.0535146 0.63099998 4284572001
-0.056708399 0.0535166 0.63099998 4284308827
-0.054997802 0.053518601 0.63099998 4284572254
-0.0533714 0.053605299 0.63200003 4284572252
-0.0516578 0.053607099 0.63200003 4284506459
-0.049785901 0.0534392 0.63 4284506461
-0.048000898 0.0533561 0.62900001 4284440668
-0.046294902 0.053357799 0.62900001 4284703585
-0.0445178 0.053274602 0.62800002 4284572001
-0.042814199 0.053276099 0.62800002 4284506208
-0.041044999 0.053192802 0.62699997 4284506206
-0.039469302 0.053363901 0.62900001 4284637792
-0.0377625 0.053365301 0.62900001 4284440668
-0.036055598 0.053366601 0.62900001 4284375389
-0.034294002 0.053283099 0.62800002 4284638561
-0.032537699 0.053199399 0.62699997 4284638562
-0.030737599 0.053030901 0.625 4284506722
-0.029087599 0.053116798 0.62599999 4284243550
-0.027388301 0.053117801 0.62599999 4284506976
-0.0256889 0.053118799 0.62599999 4284572769
-0.0239127 0.052949999 0.62400001 4284309596
-0.0222186 0.052950799 0.62400001 4284507490
-0.020491499 0.052866701 0.62300003 4284639076
-0.0188301 0.052952301 0.62400001 4284704869
-0.017080801 0.052783299 0.62199998 4284704101
-0.0153919 0.052783798 0.62199998 4284375136
-0.0136588 0.0526147 0.62 4284506722
-0.0119751 0.052615099 0.62 4284572515
-0.0102582 0.052445799 0.61799997 4284704101
-0.0086077098 0.0526159 0.62 4284638561
-0.0069127898 0.052531298 0.61900002 4284507229
-0.00524863 0.052701298 0.62099999 4284506459
-0.0035506401 0.052531701 0.61900002 4284506461
-0.00187256 0.052616701 0.62 4284243803
-0.000188437 0.052531801 0.61900002 4284441182
0.00149267 0.052531801 0.61900002 4284309597
0.00315838 0.052277099 0.616 4284309597
0.0048313201 0.052276999 0.616 4284375136
0.00649369 0.052191898 0.61500001 4284506722
0.0081638703 0.0521916 0.61500001 4284703848
0.00980205 0.0520216 0.61299998 4284835434
0.011448 0.051936299 0.61199999 4284506724
0.01311 0.0519359 0.61199999 4284440931
0.0147719 0.051935401 0.61199999 4284704103
0.016433701 0.051934801 0.61199999 4284967273
0.018095501 0.051934201 0.61199999 4284639076
0.0197249 0.051848602 0.611 4284441697
0.0213838 0.051847901 0.611 4284770661
0.023042699 0.051847 0.611 4284441696
0.024661001 0.051761299 0.61000001 4284639076
0.026317 0.051760402 0.61000001 4284704868
0.027972899 0.051759399 0.61000001 4284639076
0.0295801 0.051673502 0.60900003 4284375390
0.0312331 0.051672399 0.60900003 4284507490
0.032885998 0.0516713 0.60900003 4284441697
0.034652099 0.051839702 0.611 4284638308
0.0362508 0.051753599 0.61000001 4284506722
0.0377196 0.051497798 0.60699999 4284046939
0.039172001 0.051241901 0.60399997 4284573536
0.040878199 0.051325299 0.60500002 4284441950
0.042449199 0.051238999 0.60399997 4284113245
0.0440876 0.051237401 0.60399997 4284310625
0.045650199 0.051151 0.60299999 4284573029
0.047285601 0.051149402 0.60299999 4284638822
0.048839699 0.051062901 0.602 4284572515
0.050472099 0.051061101 0.602 4284638308
0.052104302 0.051059298 0.602 4284441183
0.053647 0.0509727 0.60100001 4284440929
0.055092301 0.050801199 0.59899998 4284704101
0.056621101 0.0507144 0.59799999 4284507238
0.058339201 0.050797202 0.59899998 4284309604
0.060262699 0.051049601 0.602 4284704364
0.061893899 0.0510475 0.602 4284704362
0.0631027 0.0507062 0.59799999 4284968303
0.064397901 0.050449699 0.59500003 4284638822
0.066009499 0.050447501 0.59500003 4284507490
0.067848198 0.0506148 0.597 4284506975
0.069348499 0.050527699 0.59600002 4284704354
0.070843101 0.050440598 0.59500003 4284770148
0.072332099 0.050353501 0.59399998 4284638562
0.073815502 0.050266299 0.59299999 4284769894
0.075547598 0.050348599 0.59399998 4284704617
0.077155098 0.050346099 0.59399998 4284638824
0.078894801 0.050428402 0.59500003 4284375652
0.080233902 0.050256301 0.59299999 4284573031
0.081837997 0.0502537 0.59299999 4284375650
0.083301097 0.050166301 0.59200001 4284573283
0.085045397 0.050248399 0.59299999 4284639076
0.086794898 0.0503304 0.59399998 4284244318
0.088400804 0.0503277 0.59399998 4284375904
0.090006404 0.050324898 0.59399998 4284507489
0.0923829 0.0507457 0.59899998 4283323469
0.0968263 0.0522677 0.61699998 4283323469
0.104559 0.055483598 0.65499997 4284507489
0.114121 0.059546199 0.70300001 4284375904
0.120806 0.061999001 0.73199999 4284375904
0.126137 0.063689202 0.75199997 4284507489
0.130725 0.064955801 0.76700002 4284441696
0.13643099 0.066730201 0.78799999 4284507489
0.140141 0.067488298 0.79699999 4283323469
0.143363 0.0679923 0.80299997 4282796611
0.146255 0.068326801 0.80699998 4283519817
0.148801 0.068492003 0.80900002 4285362003
0.15098301 0.068487801 0.80900002 4285427280
0.153165 0.068483502 0.80900002 4285821277
0.15573099 0.068648502 0.81099999 4285952609
0.158308 0.068813503 0.81300002 4286018402
0.160697 0.068893798 0.81400001 4285755488
0.163092 0.0689741 0.815 4285952867
0.165288 0.068969697 0.815 4286084708
0.16768999 0.069049999 0.81599998 4285821023
0.17009801 0.069130197 0.81699997 4285689690
0.17251 0.069210403 0.81800002 4286018142
0.174927 0.069290496 0.81900001 4286281828
0.176917 0.069201499 0.81800002 4286281828
0.179777 0.069450803 0.82099998 4286149988
0.182652 0.0697001 0.824 4286610539
0.185095 0.069780201 0.82499999 4286347621
0.187316 0.069775701 0.82499999 4286413414
0.189767 0.069855802 0.82599998 4286478953
0.19245499 0.0700204 0.82800001 4286742125
0.19444799 0.069931298 0.82700002 4286413673
0.196435 0.069842301 0.82599998 4286413673
0.199139 0.0700069 0.82800001 4286347880
0.20136601 0.070002399 0.82800001 4286479466
0.203593 0.069997899 0.82800001 4286347880
0.20606899 0.070078 0.829 4286347880
0.208801 0.070242599 0.83099997 4286282087
0.211289 0.0703227 0.83200002 4286545259
0.213526 0.070318297 0.83200002 4286479466
0.21550401 0.070229299 0.83099997 4286150501
0.21799999 0.070309497 0.83200002 4286479466
0.22050101 0.070389599 0.833 4286677098
0.22273999 0.0703853 0.833 4286544999
0.224978 0.070381001 0.833 4286479206
0.227217 0.070376702 0.833 4286545253
0.22945499 0.0703725 0.833 4287071343
0.231693 0.070368201 0.833 4286479206
0.23393101 0.070364103 0.833 4286874217
0.23702 0.070613302 0.83600003 4286742117
0.23926499 0.070609197 0.83600003 4286807911
0.241511 0.070605204 0.83600003 4286742118
0.24346501 0.070516698 0.83499998 4286807657
0.245414 0.070428297 0.83399999 4287202162
0.24765401 0.0704244 0.83399999 4286807918
0.25019401 0.070505001 0.83499998 4286873965
0.253041 0.070670001 0.83700001 4286873964
0.25498399 0.070581898 0.83600003 4286940011
0.257229 0.070578203 0.83600003 4286940011
0.25947401 0.0705745 0.83600003 4286939757
0.26203299 0.070655398 0.83700001 4287071601
0.26396501 0.070567504 0.83600003 4286808431
0.26620999 0.070564002 0.83600003 4287006063
0.26877701 0.070644997 0.83700001 4286940015
0.271025 0.070641696 0.83700001 4287268723
0.27327299 0.0706385 0.83700001 4286808172
0.27519199 0.070551001 0.83600003 4287136883
0.27743801 0.070547901 0.83600003 4286873711
0.27968401 0.070544899 0.83600003 4286808172
0.28260401 0.070710801 0.838 4287005550
0.28485599 0.070707999 0.838 4287399794
0.28710699 0.070705198 0.838 4287201899
0.289359 0.070702597 0.838 4287004775
0.29195899 0.070784397 0.83899999 4286873440
0.29421401 0.070781998 0.83899999 4287267692
0.29540899 0.070526503 0.83600003 4287201648
0.29765701 0.070524298 0.83600003 4287334255
0.299905 0.0705221 0.83600003 4287334255
0.30215299 0.070520103 0.83600003 4287334769
0.303673 0.070349403 0.83399999 4287268976
0.305549 0.070263296 0.833 4286874730
0.30779001 0.070261598 0.833 4287269233
0.30928701 0.0700913 0.83099997 4287598973
0.311149 0.070005402 0.82999998 4287862147
0.31338301 0.070004098 0.82999998 4287928201
0.31599799 0.070087202 0.83099997 4287928203
0.31823599 0.070086099 0.83099997 4287993996
0.320474 0.070085101 0.83099997 4287664515
0.32232499 0.069999903 0.82999998 4287598976
0.32417101 0.069914803 0.829 4287467390
0.32483 0.069576897 0.82499999 4288388491
0.32745099 0.069660798 0.82599998 4287796354
0.33007801 0.069744803 0.82700002 4287665283
0.33271101 0.069829002 0.82800001 4288125320
0.33413699 0.069660299 0.82599998 4288388492
0.33555201 0.069491699 0.824 4287664768
0.33777699 0.069491997 0.824 4287730561
0.340828 0.069661103 0.82599998 4288059526
0.34305999 0.069661602 0.82599998 4287730561
0.344457 0.069493704 0.824 4287006838
0.34668601 0.069494598 0.824 4287993733
0.34976199 0.069664299 0.82599998 4288190084
0.35284901 0.069834203 0.82800001 4287465848
0.354662 0.069751203 0.82700002 4286478946
0.356471 0.069668502 0.82599998 4287202152
0.359144 0.069754504 0.82700002 4287465578
0.361386 0.069756404 0.82700002 4287070819
0.36362901 0.069758497 0.82700002 4287268968
0.36543101 0.069676399 0.82599998 4287203175
0.36767301 0.069678903 0.82599998 4287531885
0.36946899 0.069597103 0.82499999 4287203434
0.37216201 0.069684297 0.82599998 4287992952
0.37440801 0.069687299 0.82599998 4287466608
0.376656 0.069690503 0.82599998 4287335028
0.37982199 0.069862701 0.82800001 4287729786
0.38207701 0.0698663 0.82800001 4288124285
0.38387001 0.069785804 0.82700002 4286939757
0.38612601 0.069789797 0.82700002 4285558104
0.38932201 0.0699628 0.829 4287926905
0.39253101 0.0701361 0.83099997 4288058745
0.39480099 0.070140801 0.83099997 4287729526
0.39707401 0.070145696 0.83099997 4287795319
0.400309 0.070319697 0.833 4287400813
0.40452299 0.0706627 0.83700001 4287335026
0.40487301 0.070330702 0.833 4286808692
0.40520301 0.069998801 0.829 4283781710
0.40502 0.069582596 0.824 4287400829
0.40777799 0.0696733 0.82499999 4287796344
0.41004601 0.069679797 0.82499999 4287861631
0.413315 0.069855496 0.82700002 4287927426
0.415593 0.0698625 0.82700002 4288190598
0.41837701 0.069954298 0.82800001 4287992964
0.420661 0.069961898 0.82800001 4288387463
0.42294699 0.069969699 0.82800001 4288190084
0.425749 0.070062198 0.829 4287993977
0.427526 0.069986098 0.82800001 4288256389
0.429818 0.069994703 0.82800001 4288387977
0.431591 0.069918998 0.82700002 4287861894
0.43388599 0.069928199 0.82700002 4287532413
0.43671 0.070022203 0.82800001 4287664254
0.439542 0.070116498 0.829 4287927426
0.44184899 0.070126504 0.829 4287927938
0.44469401 0.070221499 0.82999998 4288256903
0.44646999 0.070147499 0.829 4288060040
0.44878501 0.0701584 0.829 4287928454
0.45055899 0.070084997 0.82800001 4287994247
0.45396999 0.070265897 0.82999998 4287533696
0.45684499 0.070362397 0.83099997 4287993733
0.45972899 0.070459299 0.83200002 4287533182
0.46095601 0.070302501 0.82999998 4287927940
0.46273199 0.070230603 0.829 4287467904
0.46506599 0.070243701 0.829 4287796615
0.46796799 0.070341997 0.82999998 4287665543
0.47087801 0.070440598 0.83099997 4287533959
0.47322801 0.070454799 0.83099997 4287665031
0.47500899 0.070384599 0.82999998 4288059789
0.47793701 0.070484303 0.83099997 4287796101
0.48087499 0.070584401 0.83200002 4288125066
0.48324099 0.0706001 0.83200002 4288059527
0.48561001 0.070616104 0.83200002 4287862148
0.48798299 0.070632502 0.83200002 4288191626
0.49094999 0.070734203 0.833 4288060040
0.49392501 0.070836298 0.83399999 4288323212
0.49572 0.0707689 0.833 4288585617
0.49930701 0.070956796 0.83499998 4288782996
-0.199432 0.066944301 0.81800002 4289374882
-0.19723099 0.0669486 0.81800002 4289505952
-0.194792 0.066871099 0.81699997 4289769124
-0.19259401 0.066875398 0.81699997 4289243033
-0.19062801 0.066961601 0.81800002 4289900447
-0.188427 0.0669659 0.81800002 4289440412
-0.186225 0.066970304 0.81800002 4289111193
-0.183798 0.066892698 0.81699997 4289572259
-0.18159799 0.066897102 0.81699997 4289967017
-0.179179 0.066819496 0.81599998 4290033065
-0.177415 0.066987596 0.81800002 4288848021
-0.17542601 0.0670738 0.81900001 4289045140
-0.17321999 0.067078203 0.81900001 4289505691
-0.171222 0.067164399 0.81999999 4289045400
-0.169218 0.067250602 0.82099998 4289440673
-0.167413 0.067418702 0.82300001 4289177503
-0.165194 0.067423001 0.82300001 4289505952
-0.162976 0.0674273 0.82300001 4289637023
-0.16075701 0.067431599 0.82300001 4288057986
-0.158537 0.067435801 0.82300001 4288583815
-0.156128 0.067358099 0.82200003 4288649094
-0.15353601 0.067198403 0.81999999 4288583301
-0.15113901 0.067120597 0.81900001 4289241999
-0.14893 0.067124702 0.81900001 4288978573
-0.146899 0.067210801 0.81999999 4288979600
-0.144685 0.067214899 0.81999999 4288386950
-0.142646 0.067300901 0.82099998 4288650122
-0.140771 0.067468897 0.82300001 4288781708
-0.138381 0.067390896 0.82200003 4288386436
-0.135995 0.067312904 0.82099998 4289044366
-0.13377699 0.0673168 0.82099998 4288518537
-0.131239 0.067156702 0.81900001 4288782221
-0.12918399 0.067242503 0.81999999 4288650635
-0.126968 0.0672464 0.81999999 4288650635
-0.124904 0.067332096 0.82099998 4288716428
-0.122386 0.067171797 0.81900001 4288453001
-0.120025 0.067093499 0.81800002 4288387208
-0.118102 0.067261197 0.81999999 4288453001
-0.116167 0.067428797 0.82200003 4288453256
-0.113944 0.067432404 0.82200003 4288321157
-0.112128 0.067681998 0.82499999 4287992192
-0.110828 0.068259798 0.83200002 4288847501
-0.110926 0.069740102 0.85000002 4288715401
-0.112971 0.072533302 0.884 4288583815
-0.12984701 0.087064803 1.061 4287992192
-0.125539 0.086084202 1.049 4288847501
-0.073177598 0.053840801 0.65600002 4288255117
-0.070421197 0.053104401 0.64700001 4288650906
-0.067925602 0.052532099 0.63999999 4286415235
-0.065984897 0.052370202 0.63800001 4286086015
-0.064054802 0.0522082 0.63599998 4285099120
-0.062233299 0.052128199 0.63499999 4284835689
-0.060417 0.052048098 0.634 4284901482
-0.058605999 0.051968001 0.63300002 4284571999
-0.0568901 0.051970001 0.63300002 4284375389
-0.055174001 0.051971901 0.63300002 4284506459
-0.0534577 0.051973701 0.63300002 4284572252
-0.051659498 0.051893398 0.63200003 4284374873
-0.049866602 0.051812999 0.63099998 4284111703
-0.048078898 0.0517326 0.63 4284506206
-0.0463701 0.051734202 0.63 4284506206
-0.044661202 0.0517358 0.63 4284374622
-0.042883899 0.051655199 0.62900001 4284506208
-0.041177399 0.0516566 0.62900001 4284243034
-0.039345201 0.051493801 0.62699997 4284374875
-0.037703801 0.051577199 0.62800002 4284572254
-0.036056899 0.051660601 0.62900001 4284440668
-0.034459099 0.051826101 0.63099998 4284309596
-0.032694601 0.051745199 0.63 4284770148
-0.030886199 0.051582001 0.62800002 4284506722
-0.0290886 0.0514188 0.62599999 4284506722
-0.0273892 0.051419798 0.62599999 4284572769
-0.025689799 0.0514207 0.62599999 4284375390
-0.023951899 0.0513395 0.625 4284375389
-0.022255 0.051340301 0.625 4284572768
-0.0205251 0.051258899 0.62400001 4284441696
-0.018860999 0.051341701 0.625 4284375903
-0.017136401 0.051260199 0.62400001 4284244318
-0.0154172 0.051178701 0.62300003 4284506722
-0.0137254 0.0511792 0.62300003 4284638308
-0.0119949 0.051015399 0.62099999 4284506722
-0.0102918 0.050933599 0.62 4284375136
-0.0086080199 0.050933901 0.62 4284309597
-0.0069353702 0.051016401 0.62099999 4284375389
-0.0052488199 0.051016599 0.62099999 4284572252
-0.0035565 0.050934602 0.62 4284572254
-0.00187263 0.050934698 0.62 4284046425
-0.000188444 0.0508526 0.61900002 4284441183
0.00149272 0.0508526 0.61900002 4284375390
0.0031687501 0.050770301 0.61799997 4284441183
0.0048393402 0.050687999 0.61699998 4284572769
0.0065150401 0.050687801 0.61699998 4284704355
0.0081774499 0.050605401 0.616 4284572262
0.0098343901 0.050522901 0.61500001 4284769127
0.0114859 0.050440401 0.61400002 4284506210
0.0131533 0.050439999 0.61400002 4284637541
0.0148207 0.050439499 0.61400002 4284440931
0.0165148 0.050521001 0.61500001 4284506722
0.018155299 0.0504383 0.61400002 4284639076
0.019822501 0.050437599 0.61400002 4284639076
0.0214196 0.050272599 0.61199999 4284573536
0.0230435 0.0501897 0.611 4284375903
0.024702299 0.050188798 0.611 4284770661
0.0263611 0.050187901 0.611 4284375903
0.028019801 0.050186899 0.611 4284770147
0.0296783 0.0501859 0.611 4284704355
0.031336799 0.050184902 0.611 4284375904
0.033049099 0.050265901 0.61199999 4284507490
0.034710102 0.050264701 0.61199999 4284638308
0.0363709 0.050263401 0.61199999 4284572515
0.037845202 0.0500158 0.60900003 4284309597
0.039367899 0.049850199 0.60699999 4284375903
0.0408796 0.049684498 0.60500002 4284639329
0.0425913 0.049765199 0.60600001 4284375903
0.044235099 0.049763702 0.60600001 4284244317
0.045878898 0.049762201 0.60600001 4284375904
0.047365598 0.049596298 0.60399997 4284244064
0.048922502 0.049512599 0.60299999 4284572515
0.050473802 0.049428798 0.602 4284638308
0.052192599 0.049509101 0.60299999 4284375136
0.053827401 0.049507301 0.60299999 4284572515
0.0552781 0.049341299 0.60100001 4284440929
0.056812402 0.049257301 0.60000002 4284177757
0.058536001 0.049337499 0.60100001 4284178273
0.060364898 0.049499702 0.60299999 4284506983
0.061998799 0.049497701 0.60299999 4284836718
0.063315898 0.049249299 0.60000002 4284770924
0.064724803 0.049083099 0.59799999 4284639076
0.066122703 0.048916802 0.59600002 4284639076
0.067964099 0.049078699 0.59799999 4284770147
0.069583498 0.049076501 0.59799999 4284901733
0.071083598 0.048992202 0.597 4284704355
0.072577998 0.048907802 0.59600002 4284901734
0.074191302 0.048905399 0.59600002 4284638308
0.075804397 0.0489031 0.59600002 4284704617
0.077417299 0.048900601 0.59600002 4284507238
0.07903 0.048898201 0.59600002 4284375652
0.0805071 0.0488136 0.59500003 4284573031
0.082116596 0.0488111 0.59500003 4284113248
0.083444402 0.048644502 0.59299999 4284376418
0.085334897 0.0488059 0.59500003 4284244832
0.086797602 0.048721299 0.59399998 4284376418
0.088403501 0.048718601 0.59399998 4284244318
0.089857601 0.0486339 0.59299999 4284244317
0.092694201 0.049287301 0.60100001 4282139195
0.097456999 0.050924599 0.62099999 4282139195
0.10568 0.054283701 0.662 4284244317
0.115261 0.0582163 0.70999998 4284244318
0.121635 0.0604266 0.73699999 4284244318
0.12698001 0.0620628 0.75700003 4284244318
0.13141 0.063206799 0.77100003 4284244317
0.136435 0.064596601 0.78799999 4284244317
0.139617 0.065084599 0.79400003 4282402367
0.142832 0.065572403 0.80000001 4283059783
0.14553399 0.065814301 0.80299997 4283980107
0.14788499 0.065892197 0.80400002 4284176970
0.15005399 0.065888099 0.80400002 4284637521
0.152412 0.065966003 0.80500001 4285163606
0.154967 0.066125698 0.80699998 4285426778
0.157533 0.066285402 0.80900002 4285361238
0.15991201 0.066363201 0.81 4285624157
0.16189501 0.066276997 0.80900002 4286084453
0.164279 0.066354796 0.81 4285952616
0.166667 0.066432402 0.81099999 4285887074
0.16906101 0.066510104 0.81199998 4286018656
0.171249 0.066505797 0.81199998 4286018656
0.173223 0.066419601 0.81099999 4285953122
0.175191 0.066333503 0.81 4286216294
0.17781 0.0664929 0.81199998 4286150501
0.18043999 0.066652402 0.81400001 4285953122
0.18285599 0.06673 0.815 4286084708
0.185277 0.066807501 0.81599998 4286216294
0.187244 0.066721298 0.815 4286216294
0.18990199 0.066880703 0.81699997 4286413671
0.192101 0.066876397 0.81699997 4286150499
0.19406199 0.066790201 0.81599998 4286018915
0.19649801 0.066867799 0.81699997 4286084708
0.198695 0.0668635 0.81699997 4286150501
0.201139 0.066941001 0.81800002 4286084708
0.20383599 0.067100398 0.81999999 4286216294
0.206292 0.067177899 0.82099998 4285755743
0.20900799 0.067337297 0.82300001 4286018915
0.21096399 0.067251198 0.82200003 4286282087
0.213174 0.067247003 0.82200003 4286413673
0.215646 0.067324601 0.82300001 4286282085
0.218123 0.067402199 0.824 4286282340
0.220872 0.067561597 0.82599998 4286216288
0.223092 0.067557402 0.82599998 4286281827
0.225584 0.067635097 0.82700002 4286347874
0.227255 0.067467399 0.82499999 4286282081
0.229472 0.067463398 0.82499999 4286413413
0.23168901 0.0674593 0.82499999 4286611045
0.23475599 0.067700699 0.82800001 4286479713
0.237266 0.067778498 0.829 4286873703
0.23978201 0.067856297 0.82999998 4286807911
0.24172001 0.067770697 0.829 4286741864
0.243946 0.067766801 0.829 4286742379
0.24617299 0.067763098 0.829 4286808172
0.2484 0.067759298 0.829 4286413413
0.25123101 0.067919098 0.83099997 4286413413
0.25346199 0.067915499 0.83099997 4286742118
0.25630999 0.068075299 0.833 4287005290
0.25885701 0.068153501 0.83399999 4286742378
0.26141 0.068231799 0.83499998 4286676585
0.26333699 0.068146601 0.83399999 4287137137
0.26493999 0.067979902 0.83200002 4286742636
0.26717401 0.067976601 0.83200002 4286873965
0.269409 0.067973398 0.83200002 4286676586
0.27131701 0.067888603 0.83099997 4286873451
0.27354899 0.067885503 0.83099997 4286676072
0.276113 0.067964301 0.83200002 4287070830
0.278348 0.067961402 0.83200002 4287070829
0.28092101 0.0680402 0.833 4286347360
0.282819 0.067955799 0.83200002 4286742118
0.28471199 0.067871504 0.83099997 4287004775
0.28694499 0.067868903 0.83099997 4286938982
0.28952599 0.067948103 0.83200002 4287201899
0.29176199 0.067945696 0.83200002 4287267692
0.29364499 0.067861803 0.83099997 4287005290
0.296235 0.067941204 0.83200002 4287268208
0.29847199 0.067939103 0.83200002 4286874218
0.30070901 0.067937098 0.83200002 4287005804
0.30221799 0.067771897 0.82999998 4287005804
0.304084 0.067688502 0.829 4286940523
0.30557501 0.067523502 0.82700002 4286348131
0.307428 0.067440301 0.82599998 4287335287
0.30927601 0.067357197 0.82499999 4287598975
0.311874 0.067437597 0.82599998 4287796869
0.314098 0.0674363 0.82599998 4287993994
0.31593901 0.067353599 0.82499999 4287796617
0.31854701 0.067434303 0.82599998 4287730308
0.31960699 0.067188501 0.82300001 4287664769
0.32143399 0.067106098 0.82200003 4287335804
0.322862 0.066942297 0.81999999 4288519563
0.32547 0.067023396 0.82099998 4287861633
0.328482 0.0671864 0.82300001 4287730047
0.33070201 0.067186199 0.82300001 4287927426
0.33211401 0.067022897 0.82099998 4288453770
0.333516 0.0668597 0.81900001 4287862147
0.33572701 0.066859901 0.81900001 4287927940
0.33835199 0.066941902 0.81999999 4287927940
0.340983 0.067024097 0.82099998 4288059526
0.34278399 0.066943102 0.81999999 4287993733
0.345002 0.066943899 0.81999999 4288387977
0.34764299 0.067026503 0.82099998 4288124291
0.35071701 0.0671909 0.82300001 4288057985
0.35251701 0.067110598 0.82200003 4286742118
0.35431099 0.0670304 0.82099998 4286741603
0.356536 0.067032099 0.82099998 4287202406
0.358762 0.067033798 0.82099998 4287136613
0.360989 0.067035802 0.82099998 4286479452
0.36321601 0.067038 0.82099998 4287071589
0.36589 0.067121901 0.82200003 4287137127
0.36812299 0.067124397 0.82200003 4287466092
0.36990601 0.067045502 0.82099998 4287400561
0.37168601 0.066966698 0.81999999 4287926905
0.37346101 0.066887997 0.81900001 4286545512
0.376607 0.0670546 0.82099998 4287071601
0.37884399 0.067058101 0.82099998 4287927163
0.38154501 0.067143403 0.82200003 4287795579
0.38332 0.067065597 0.82099998 4286808429
0.3865 0.067233004 0.82300001 4286282340
0.38874701 0.067237303 0.82300001 4287992699
0.39052099 0.067160003 0.82200003 4287861113
0.39276901 0.067164697 0.82200003 4287466354
0.39597899 0.067332998 0.824 4287663733
0.40065199 0.067746699 0.829 4287137647
0.403409 0.067833804 0.82999998 4286940270
0.40373001 0.067512497 0.82599998 4285492830
0.40304801 0.067027897 0.81999999 4283848005
0.40480599 0.066952102 0.81900001 4287664769
0.40805101 0.067121901 0.82099998 4287993733
0.41080999 0.067210101 0.82200003 4287993219
0.41357601 0.067298599 0.82300001 4287992705
0.41483301 0.067142002 0.82099998 4288058496
0.41811299 0.067312799 0.82300001 4288256130
0.420385 0.067320302 0.82300001 4288124797
0.42317301 0.067409799 0.824 4288058749
0.424936 0.067336001 0.82300001 4287992958
0.42669499 0.067262404 0.82200003 4288058496
0.428451 0.067189097 0.82099998 4287993219
0.430204 0.067116 0.81999999 4286479464
0.43248099 0.067125 0.81999999 4287597945
0.43529001 0.067216203 0.82099998 4287664507
0.437042 0.067143902 0.81999999 4288190851
0.44093299 0.067399397 0.82300001 4288454023
0.44215101 0.067245796 0.82099998 4288388230
0.444985 0.067338102 0.82200003 4288190596
0.44619399 0.067185 0.81999999 4288322182
0.45067701 0.0675238 0.824 4288519561
0.45353499 0.0676172 0.82499999 4288190598
0.456402 0.067710802 0.82599998 4287926912
0.458722 0.067722902 0.82599998 4287401082
0.46048599 0.067653202 0.82499999 4287071862
0.46337 0.067747898 0.82599998 4287598206
0.46569899 0.067760803 0.82599998 4288125066
0.46746501 0.067692101 0.82499999 4288190859
0.469228 0.0676236 0.824 4287796355
0.47156 0.0676376 0.824 4287795840
0.47504699 0.067815997 0.82599998 4287861633
0.47797 0.067912802 0.82700002 4287926910
0.48090199 0.068010002 0.82800001 4287926912
0.48326001 0.068025403 0.82800001 4287532668
0.485035 0.067959003 0.82700002 4287861633
0.48739699 0.067975096 0.82700002 4287861633
0.49035501 0.068073697 0.82800001 4287664769
0.49272701 0.068090603 0.82800001 4287927171
0.49630001 0.068272397 0.82999998 4287663999
0.49868599 0.068290003 0.82999998 4287598206
-0.198461 0.064415999 0.81400001 4289440159
-0.196271 0.064420201 0.81400001 4289571745
-0.19408099 0.064424403 0.81400001 4289176986
-0.191655 0.064349398 0.81300002 4289637791
-0.189467 0.0643536 0.81300002 4289966240
-0.187049 0.064278603 0.81199998 4289243033
-0.185091 0.0643619 0.81300002 4288848791
-0.18290199 0.064366102 0.81300002 4289704100
-0.18093599 0.064449497 0.81400001 4289901479
-0.178524 0.064374499 0.81300002 4289769891
-0.176552 0.064457797 0.81400001 4289177240
-0.17435899 0.064461999 0.81400001 4289439898
-0.172378 0.0645454 0.815 4289571484
-0.170182 0.064549603 0.815 4289440159
-0.168192 0.0646329 0.81599998 4289374366
-0.166196 0.064716302 0.81699997 4289242780
-0.163994 0.0647204 0.81699997 4289637537
-0.16199 0.064803801 0.81800002 4289242519
-0.159784 0.064807899 0.81800002 4288452743
-0.15757801 0.064811997 0.81800002 4288781194
-0.154992 0.064657599 0.81599998 4288583555
-0.152417 0.064503103 0.81400001 4288518276
-0.15022101 0.064507097 0.81400001 4289373585
-0.148206 0.064590402 0.815 4289044366
-0.14618599 0.064673603 0.81599998 4288190084
-0.14380699 0.0645983 0.815 4288979087
-0.141781 0.0646815 0.81599998 4289308052
-0.13974901 0.064764597 0.81699997 4288847501
-0.13754299 0.064768501 0.81699997 4288057471
-0.135171 0.064692996 0.81599998 4289044366
-0.132967 0.064696804 0.81599998 4289044880
-0.130602 0.0646213 0.815 4288650635
-0.1284 0.064625002 0.815 4288716428
-0.12604301 0.064549297 0.81400001 4288650635
-0.123995 0.064632297 0.815 4288584842
-0.121642 0.064556599 0.81400001 4288255877
-0.119442 0.0645601 0.81400001 4288650123
-0.117385 0.064642899 0.815 4288386951
-0.115464 0.064805001 0.81699997 4288650380
-0.113254 0.064808503 0.81699997 4288650122
-0.111316 0.064970501 0.81900001 4288650122
-0.109766 0.0653705 0.824 4288979087
-0.109625 0.066643201 0.83999997 4288649608
-0.111058 0.068947397 0.86900002 4288649608
-0.128016 0.082998902 1.046 4288650122
-0.124825 0.082764797 1.043 4288846987
-0.119194 0.080864102 1.0190001 4288912780
-0.074184 0.052776702 0.66500002 4288123784
-0.070749998 0.051588599 0.64999998 4288782492
-0.068140097 0.050955798 0.64200002 4286283135
-0.066193901 0.050799198 0.63999999 4285954429
-0.0642583 0.050642598 0.63800001 4285362292
-0.062333301 0.050485902 0.63599998 4285230447
-0.060514301 0.050408501 0.63499999 4285098859
-0.058700498 0.050331 0.634 4284572768
-0.056981899 0.0503329 0.634 4284441436
-0.055263001 0.0503348 0.634 4284440666
-0.053544 0.050336599 0.634 4284506459
-0.051661301 0.0501795 0.63200003 4284572254
-0.049947299 0.050181199 0.63200003 4284572254
-0.048309501 0.050262202 0.63300002 4284309082
-0.0465925 0.0502638 0.63300002 4284308827
-0.044875398 0.050265301 0.63300002 4284308827
-0.043021701 0.050108001 0.63099998 4284834912
-0.041309699 0.050109401 0.63099998 4284572254
-0.0395348 0.050031301 0.63 4284309080
-0.037825201 0.050032701 0.63 4284572252
-0.036115501 0.050033901 0.63 4284638561
-0.0345149 0.050193898 0.63200003 4284572769
-0.0327476 0.050115701 0.63099998 4284704355
-0.0309365 0.049957901 0.62900001 4284638562
-0.029136101 0.049800102 0.62699997 4284572769
-0.0274339 0.049800999 0.62699997 4284835426
-0.0257317 0.049802002 0.62699997 4284703840
-0.0240294 0.049802799 0.62699997 4284571999
-0.022327 0.0498036 0.62699997 4284769378
-0.0205916 0.049724899 0.62599999 4284375390
-0.018861599 0.049646199 0.625 4284572768
-0.0171095 0.0494879 0.62300003 4284441182
-0.015393 0.049408998 0.62199998 4284638561
-0.0137038 0.049409501 0.62199998 4284572768
-0.0120146 0.04941 0.62199998 4284375136
-0.0103088 0.049330901 0.62099999 4284375136
-0.0086222095 0.0493313 0.62099999 4284638047
-0.0069244499 0.0492521 0.62 4284506461
-0.0052490002 0.049331699 0.62099999 4284572252
-0.0035566301 0.049252499 0.62 4284440666
-0.00187269 0.049252499 0.62 4284638562
-0.000188146 0.049093701 0.61799997 4284375136
0.00149036 0.049093701 0.61799997 4284441183
0.00316374 0.0490142 0.61699998 4284506722
0.0048473598 0.0490935 0.61799997 4284440413
0.0065258299 0.049093299 0.61799997 4284638562
0.00819101 0.0490136 0.61699998 4284638310
0.0098667098 0.049013302 0.61699998 4284966761
0.0115237 0.048933499 0.616 4284374624
0.0131537 0.048774101 0.61400002 4284440417
0.0148453 0.048853099 0.61500001 4284506208
0.016542301 0.048932001 0.616 4284375390
0.018215001 0.048931401 0.616 4284638561
0.019823199 0.048771899 0.61400002 4284375903
0.021455299 0.048691701 0.61299998 4284507743
0.023119699 0.048691001 0.61299998 4284506975
0.024784099 0.048690099 0.61299998 4284376157
0.026362 0.0485304 0.611 4284178778
0.0280207 0.048529498 0.611 4284507229
0.029630801 0.048449099 0.61000001 4284572768
0.031337898 0.048527401 0.611 4284375390
0.032996301 0.048526399 0.611 4284638562
0.034654599 0.048525199 0.611 4284441183
0.0362533 0.048444599 0.61000001 4284638562
0.037846498 0.048363902 0.60900003 4284506975
0.0393693 0.0482038 0.60699999 4284572768
0.0409486 0.048122998 0.60600001 4284441950
0.042592701 0.048121601 0.60600001 4284310364
0.044309601 0.048199601 0.60699999 4284376157
0.0458804 0.048118699 0.60600001 4284441696
0.047445599 0.0480377 0.60500002 4284441697
0.0489242 0.047877301 0.60299999 4284440929
0.050475501 0.047796302 0.602 4284178273
0.0521078 0.047794599 0.602 4284309857
0.0536507 0.0477135 0.60100001 4284704101
0.055279899 0.0477117 0.60100001 4284441183
0.056908999 0.047709901 0.60100001 4284506975
0.058635298 0.047787402 0.602 4284178010
0.0602667 0.047785401 0.602 4284507490
0.061898001 0.047783501 0.602 4284967787
0.063212402 0.047543399 0.59899998 4284901994
0.064726897 0.047461901 0.59799999 4284507236
0.066235699 0.0473805 0.597 4284638822
0.068080001 0.0475371 0.59899998 4284639076
0.069585703 0.047455601 0.59799999 4284310110
0.071204901 0.0474534 0.59799999 4284638562
0.072702102 0.047371801 0.597 4284441696
0.074318103 0.047369499 0.597 4284441697
0.076061197 0.047446501 0.59799999 4284441443
0.077549599 0.047364801 0.597 4284309859
0.079164997 0.047362398 0.597 4284309859
0.080509603 0.047201298 0.59500003 4284113248
0.0819811 0.047119599 0.59399998 4284442211
0.083447002 0.047037799 0.59299999 4284113246
0.085337497 0.0471939 0.59500003 4284244832
0.086654097 0.047032699 0.59299999 4284375650
0.088257298 0.047030099 0.59299999 4284573283
0.089708701 0.046948198 0.59200001 4284112217
0.092851102 0.047738601 0.602 4282336060
0.097773701 0.049401101 0.62300003 4282993736
0.106801 0.053045601 0.66900003 4284441697
0.1164 0.056848299 0.71700001 4284309857
0.122463 0.058827002 0.74199998 4284441697
0.127151 0.060091998 0.75800002 4284573283
0.131414 0.061119001 0.77100003 4284244318
0.135919 0.062224999 0.78500003 4284112217
0.13926999 0.062776104 0.792 4282467646
0.142478 0.0632478 0.79799998 4282993475
0.14517599 0.063481703 0.801 4284309072
0.147521 0.063557103 0.80199999 4284769109
0.14987101 0.063632399 0.80299997 4284440142
0.152227 0.063707598 0.80400002 4284439883
0.154971 0.0639413 0.80699998 4284703055
0.157342 0.064016499 0.80800003 4283650626
0.159521 0.064012498 0.80800003 4283388224
0.161899 0.0640876 0.80900002 4282927672
0.16407999 0.064083502 0.80900002 4282730293
0.16667099 0.064237803 0.81099999 4282861110
0.16885699 0.064233698 0.81099999 4283058230
0.171042 0.064229503 0.81099999 4283255607
0.173227 0.064225398 0.81099999 4283452988
0.175411 0.064221203 0.81099999 4283124023
0.178252 0.0644546 0.81400001 4283584574
0.180666 0.064529598 0.815 4283387195
0.18263599 0.064446203 0.81400001 4283650367
0.1846 0.064362898 0.81300002 4283847746
0.18678901 0.064358696 0.81300002 4284110916
0.188977 0.064354502 0.81300002 4284308550
0.19140001 0.064429499 0.81400001 4285098066
0.193828 0.0645044 0.815 4285295192
0.196261 0.064579397 0.81599998 4285623644
0.198213 0.0644961 0.815 4285755230
0.200405 0.064491898 0.815 4286281574
0.20259701 0.0644878 0.815 4285755230
0.204538 0.064404503 0.81400001 4286084708
0.206727 0.064400397 0.81400001 4286150501
0.208915 0.064396299 0.81400001 4286018915
0.21110301 0.064392202 0.81400001 4286216294
0.21303 0.064309098 0.81300002 4286282087
0.215479 0.064384103 0.81400001 4285953375
0.217667 0.064380102 0.81400001 4286216547
0.219855 0.064376198 0.81400001 4286216292
0.22204199 0.064372197 0.81400001 4286150754
0.22422899 0.0643683 0.81400001 4286282085
0.22641601 0.064364403 0.81400001 4286282340
0.22860301 0.064360499 0.81400001 4286150752
0.23107401 0.064435802 0.815 4285953373
0.233263 0.064432003 0.815 4286413926
0.23603 0.064586401 0.81699997 4286479717
0.238225 0.064582601 0.81699997 4286282340
0.240419 0.064579003 0.81699997 4286084706
0.24291 0.064654402 0.81800002 4286282085
0.245107 0.064650796 0.81800002 4286282085
0.24760599 0.064726301 0.81900001 4286347878
0.25011101 0.064801797 0.81999999 4286676585
0.25292799 0.064956397 0.82200003 4286610792
0.255757 0.065111101 0.824 4286413926
0.25797001 0.0651078 0.824 4286479719
0.25986701 0.065025501 0.82300001 4286545257
0.262077 0.0650222 0.82300001 4286545257
0.26460901 0.065098099 0.824 4286610793
0.266498 0.065016001 0.82300001 4286676586
0.26870799 0.065012999 0.82300001 4286544485
0.270919 0.065010101 0.82300001 4286873450
0.27346101 0.065086201 0.824 4286610278
0.275675 0.065083399 0.824 4286347360
0.27856299 0.065238602 0.82599998 4286544739
0.279762 0.064998999 0.82300001 4286544485
0.281973 0.064996503 0.82300001 4286479206
0.28418499 0.064994 0.82300001 4286676586
0.286744 0.065070599 0.824 4287005551
0.289309 0.065147199 0.82499999 4286610792
0.291527 0.065145001 0.82499999 4286742118
0.294101 0.065221801 0.82599998 4286873703
0.296321 0.065219797 0.82599998 4287071336
0.29854199 0.065217897 0.82599998 4286742117
0.300035 0.065058097 0.824 4286742117
0.30188501 0.0649774 0.82300001 4286610531
0.30335999 0.064817898 0.82099998 4286216288
0.30519599 0.064737402 0.81999999 4287466614
0.307028 0.0646571 0.81900001 4287401343
0.30998799 0.064813599 0.82099998 4287599490
0.311818 0.064733498 0.81999999 4287993996
0.31364301 0.064653501 0.81900001 4287599236
0.31584799 0.064652503 0.81900001 4287862408
0.31766599 0.064572699 0.81800002 4287533443
0.31948 0.064493097 0.81699997 4287270525
0.32049999 0.0642557 0.81400001 4288256391
0.323091 0.064334102 0.815 4287532668
0.326087 0.064491697 0.81699997 4287663740
0.32789001 0.064412497 0.81599998 4287597947
0.329687 0.064333498 0.815 4287927426
0.33188701 0.064333498 0.815 4288453770
0.334497 0.064412698 0.81599998 4287731075
0.33670101 0.064413004 0.81599998 4287599489
0.33849099 0.064334497 0.815 4288256905
0.340693 0.0643351 0.815 4287862147
0.342897 0.064335898 0.815 4287993733
0.34594801 0.064494699 0.81699997 4287927426
0.34858501 0.064574704 0.81800002 4288058496
0.35080001 0.064575903 0.81800002 4287071344
0.352584 0.064498402 0.81699997 4286676071
0.35479701 0.0644999 0.81699997 4286938727
0.35657501 0.064422697 0.81599998 4286676062
0.35878801 0.0644245 0.81599998 4286544476
0.361002 0.064426601 0.81599998 4287137382
0.363662 0.064507701 0.81699997 4287268713
0.36543399 0.064431101 0.81599998 4287466094
0.36765099 0.064433701 0.81599998 4287334769
0.36987001 0.064436398 0.81599998 4287663734
0.37209001 0.064439297 0.81599998 4287202929
0.37522799 0.064600401 0.81800002 4286216547
