# .PCD v0.7 - Point Cloud Data file format
VERSION 0.7
FIELDS x y z rgb
SIZE 4 4 4 4
TYPE F F F U
COUNT 1 1 1 1
WIDTH 1169
HEIGHT 1
VIEWPOINT 0 0 0 1 0 0 0
POINTS 1169
DATA ascii
0.476165 0.056268301 1.0829999 4282399780
0.47910199 0.056269798 1.0829999 4282597159
0.48203999 0.056271601 1.0829999 4282333986
0.484532 0.0562215 1.082 4282071075
0.48701999 0.056171499 1.081 4282531886
0.48950401 0.0561217 1.08 4283124023
0.49198401 0.056072101 1.079 4283386942
0.49445999 0.056022599 1.0779999 4283057723
0.49693301 0.055973299 1.077 4282597426
0.49940199 0.055924099 1.076 4282400047
-0.199615 0.055944301 1.131 4281873710
-0.19638801 0.055898398 1.13 4282400054
-0.193165 0.055852398 1.1289999 4281413160
-0.190116 0.055855799 1.1289999 4281216295
-0.186736 0.055760201 1.127 4282597434
-0.18369099 0.055763599 1.127 4282794813
-0.180646 0.055766899 1.127 4281347367
-0.17760099 0.0557702 1.127 4281413674
-0.174555 0.0557735 1.127 4281940018
-0.17135599 0.055727299 1.126 4282532155
-0.168312 0.055730399 1.126 4282992706
-0.16541401 0.0557831 1.127 4281347881
-0.162366 0.0557862 1.127 4281479467
-0.15917701 0.055739801 1.126 4282071604
-0.155715 0.055594299 1.123 4284045394
-0.15254 0.0555478 1.122 4282531902
-0.14950401 0.055550698 1.122 4281413421
-0.146598 0.055603199 1.123 4281939506
-0.14355899 0.055606 1.123 4282597436
-0.140644 0.055658299 1.124 4282268471
-0.137601 0.055661101 1.124 4281939506
-0.13443699 0.0556143 1.123 4284637531
-0.13127901 0.055567499 1.122 4282532155
-0.128126 0.055520602 1.1210001 4281479981
-0.124866 0.055424102 1.119 4283387978
-0.121834 0.055426601 1.119 4283980115
-0.118696 0.055379499 1.118 4283124806
-0.115873 0.055481002 1.12 4283124294
-0.112737 0.055433799 1.119 4286084979
-0.109704 0.055436101 1.119 4282070837
-0.106575 0.055388801 1.118 4284965731
-0.103451 0.055341501 1.117 4285689454
-0.100332 0.0552941 1.1160001 4282334523
-0.097218603 0.055246599 1.115 4283518797
-0.094110101 0.055199102 1.114 4284703071
-0.090924896 0.055101901 1.112 4285492842
-0.087750301 0.055004701 1.11 4282729281
-0.084662601 0.054956999 1.109 4283189834
-0.081579998 0.054909199 1.108 4283650131
-0.078573398 0.054910898 1.108 4285887093
-0.0754302 0.0548135 1.1059999 4285163371
-0.072428599 0.054815099 1.1059999 4285031531
-0.069301203 0.0547175 1.104 4284768613
-0.066244401 0.054669399 1.103 4286018419
-0.063135497 0.054571699 1.101 4285886833
-0.060146499 0.054572999 1.101 4284900450
-0.0571054 0.054524701 1.1 4286216565
-0.0541186 0.054525901 1.1 4285492842
-0.051038802 0.054427899 1.098 4286742909
-0.0480133 0.0543794 1.097 4285098084
-0.044911101 0.0542318 1.094 4285229670
-0.0419016 0.054183099 1.0930001 4284834912
-0.0388618 0.054084901 1.091 4285690221
-0.035865601 0.054036099 1.09 4284571740
-0.032844599 0.0539377 1.0880001 4283650638
-0.0298892 0.0539384 1.0880001 4284045396
-0.0268842 0.0538399 1.086 4283124808
-0.0239341 0.053840499 1.086 4283453773
-0.0209645 0.0537914 1.085 4283124294
-0.018000299 0.053742301 1.084 4281676848
-0.0150832 0.053841799 1.086 4282992706
-0.0121216 0.053792499 1.085 4281940018
-0.0091738403 0.0537927 1.085 4282202676
-0.0062203198 0.053743299 1.084 4282136883
-0.00327522 0.0537434 1.084 4281676332
-0.00032981599 0.053693902 1.0829999 4281741611
0.0026125701 0.053693902 1.0829999 4281938990
0.0055549499 0.053693801 1.0829999 4281873197
0.0084973099 0.0536936 1.0829999 4281807404
0.0114291 0.0536438 1.082 4281807404
0.0143686 0.053643499 1.082 4281478439
0.0173242 0.053692799 1.0829999 4281675817
0.0202663 0.0536923 1.0829999 4281346852
0.023229901 0.053741399 1.084 4281478692
0.0261504 0.053691301 1.0829999 4281412899
0.029119199 0.0537403 1.084 4281478691
0.0320637 0.0537396 1.084 4281413150
0.035072699 0.053838 1.086 4281282078
0.038057499 0.053886801 1.087 4281282078
0.041047499 0.053935502 1.0880001 4281281564
0.044002399 0.0539345 1.0880001 4281084185
0.046957102 0.053933501 1.0880001 4281018134
0.049957499 0.053982001 1.089 4281281307
0.0529631 0.0540305 1.09 4281347100
0.0560253 0.054128401 1.092 4281149980
0.058990199 0.054127201 1.092 4280952347
0.0619548 0.054125901 1.092 4281544484
0.064978696 0.054174099 1.0930001 4281873449
0.0680077 0.0542222 1.094 4281873450
0.071106903 0.054319799 1.096 4282465587
0.074148998 0.054367799 1.097 4282136368
0.0771963 0.054415699 1.098 4282136622
0.080102801 0.054364499 1.097 4282334001
0.083079197 0.054362699 1.097 4282334254
0.085977003 0.054311398 1.096 4282400047
0.089112498 0.054408599 1.098 4282334252
0.0920908 0.054406699 1.098 4282334254
0.095068797 0.054404698 1.098 4282465583
0.098135799 0.054452199 1.099 4282728755
0.101208 0.054499701 1.1 4282399788
0.10438 0.054596599 1.102 4282333995
0.107367 0.054594401 1.102 4282465838
0.110254 0.054542601 1.101 4282663217
0.113136 0.054490801 1.1 4282926137
0.116117 0.054488402 1.1 4282334001
0.119205 0.054535501 1.101 4282991930
0.122188 0.054533102 1.101 4282926137
0.12517101 0.054530598 1.101 4282597172
0.128153 0.054528002 1.101 4282991930
0.131016 0.0544759 1.1 4282268721
0.134238 0.054572299 1.102 4282860605
0.13722201 0.054569598 1.102 4282992191
0.140333 0.054616299 1.103 4282334514
0.143318 0.054613501 1.103 4282531633
0.146171 0.054561201 1.102 4282268459
0.14915299 0.054558299 1.102 4282531886
0.152134 0.054555401 1.102 4282795058
0.155397 0.054651398 1.104 4282202921
0.158383 0.054648399 1.104 4282136873
0.161515 0.054694898 1.105 4282728758
0.164354 0.054642301 1.104 4282465586
0.16718701 0.0545897 1.103 4281676071
0.17001501 0.054536998 1.102 4282662966
0.172993 0.054533798 1.102 4282137136
0.175971 0.054530598 1.102 4281873964
0.178624 0.054428399 1.1 4281873964
0.181761 0.0544746 1.101 4281873963
0.184567 0.054421801 1.1 4282400822
0.187879 0.0545174 1.102 4282466615
0.190681 0.054464601 1.101 4282137650
0.193654 0.0544612 1.101 4282992959
0.196447 0.054408301 1.1 4281677360
0.199416 0.054404799 1.1 4282532924
0.20220099 0.0543519 1.099 4282598201
0.204979 0.054299001 1.098 4282137650
0.207941 0.054295499 1.098 4282203445
0.210903 0.054292001 1.098 4281808685
0.213475 0.054189499 1.096 4282203443
0.21642999 0.054186001 1.096 4282532408
0.219385 0.054182399 1.096 4280953892
0.222339 0.0541788 1.096 4282269238
0.225088 0.054125801 1.095 4282663996
0.227622 0.054023299 1.0930001 4281940273
0.23035599 0.0539703 1.092 4283256133
0.233298 0.053966701 1.092 4282861375
0.235807 0.0538642 1.09 4281874480
0.238305 0.053761799 1.0880001 4283322185
0.24101301 0.053708799 1.087 4282401083
0.24394 0.053705201 1.087 4282861634
0.24641199 0.053602699 1.085 4282993990
0.24910299 0.053549699 1.084 4282401599
0.25178799 0.0534967 1.0829999 4282796611
0.25446701 0.0534437 1.082 4282730818
0.25666401 0.053291898 1.079 4283124806
0.25932699 0.053238999 1.0779999 4283651150
0.262227 0.0532354 1.0779999 4283190599
0.26488 0.053182401 1.077 4283585359
0.267279 0.053080101 1.075 4283980117
0.27017 0.053076599 1.075 4283453773
0.27255201 0.052974299 1.073 4283520080
0.275437 0.052970801 1.073 4283520081
0.27754301 0.0528192 1.0700001 4283651413
0.28041899 0.052815702 1.0700001 4283783513
0.28303 0.0527629 1.069 4283651927
0.285368 0.052660801 1.067 4284112732
0.28769499 0.052558701 1.0650001 4283389009
0.29001099 0.052456599 1.063 4284638561
0.29259199 0.052403901 1.062 4284967526
0.29488799 0.052301899 1.0599999 4285164136
0.29661199 0.052101299 1.056 4284703585
0.29916501 0.052048702 1.0549999 4284440413
0.30142599 0.051946901 1.053 4284835171
0.303965 0.0518943 1.052 4284506206
0.306207 0.051792599 1.05 4285098598
0.308438 0.051690798 1.048 4284374873
0.31184599 0.0517864 1.05 4283848529
0.31406701 0.051684801 1.048 4284769117
0.316578 0.051632401 1.0470001 4284571738
0.318169 0.0514323 1.043 4284703326
0.32097 0.051429398 1.043 4284834912
0.323149 0.051327899 1.041 4285163877
0.32563099 0.051275801 1.04 4285295463
0.32810801 0.0512238 1.039 4285559149
0.33057901 0.051171798 1.038 4285624942
0.33208099 0.050972 1.034 4285624942
0.33226699 0.0505751 1.026 4286414203
0.33241001 0.0501782 1.018 4285953654
0.33382601 0.049978599 1.0140001 4285821552
0.33455801 0.049680602 1.008 4285821807
0.335926 0.049481101 1.0039999 4285558633
0.33761099 0.049331099 1.001 4285163875
0.339959 0.0492796 1 4285098082
0.34230199 0.049228199 0.99900001 4284966496
0.34325901 0.0489798 0.99400002 4284966496
0.34523299 0.048879299 0.99199998 4284769631
0.347197 0.048778899 0.99000001 4284308566
0.349857 0.048776999 0.99000001 4283979601
0.35216099 0.048726 0.98900002 4283584328
0.354101 0.048625801 0.98699999 4282794812
0.357838 0.048772 0.99000001 4281807917
0.36159199 0.048918199 0.99299997 4281807917
0.36793 0.049409401 1.003 4281215780
0.37469199 0.049949799 1.0140001 4281281573
0.38300201 0.050687298 1.029 4281282343
0.39514199 0.051917501 1.054 4281545515
0.40553001 0.052901398 1.074 4281413929
0.41184199 0.053343501 1.0829999 4281150757
0.41552299 0.053440999 1.085 4282137652
0.41882899 0.053489201 1.086 4282335543
0.422142 0.0535376 1.087 4281546027
0.42546099 0.053586099 1.0880001 4282729787
0.428785 0.053634599 1.089 4282532663
0.43171999 0.0536341 1.089 4283059521
0.43465501 0.0536336 1.089 4283191107
0.43799299 0.053682499 1.09 4282533177
0.44052801 0.0536329 1.089 4283191107
0.44305801 0.053583499 1.0880001 4282730301
0.44599399 0.053583499 1.0880001 4282664249
0.44851899 0.053534299 1.087 4282992698
0.45186901 0.053583801 1.0880001 4282532661
0.45438999 0.053534798 1.087 4282597938
0.45732799 0.053535301 1.087 4282729524
0.45984301 0.053486601 1.086 4282334766
0.46278 0.053487301 1.086 4282203435
0.465289 0.053438801 1.085 4282729265
0.46822599 0.053439699 1.085 4283189816
0.47072899 0.053391598 1.084 4282597679
0.47366601 0.053392801 1.084 4282465834
0.47616401 0.053344801 1.0829999 4282728491
0.479101 0.053346299 1.0829999 4282268455
0.48159301 0.053298701 1.082 4282334248
0.48408201 0.053251199 1.081 4282334505
0.48611701 0.053154498 1.079 4282203435
0.489048 0.053156599 1.079 4282663731
0.49152499 0.053109501 1.0779999 4283452733
0.493999 0.053062599 1.077 4282794803
0.49646899 0.053015798 1.076 4282334252
0.49847001 0.052919898 1.074 4282663217
-0.19979499 0.052926298 1.132 4282268208
-0.196739 0.052929599 1.132 4281676071
-0.193682 0.052932899 1.132 4281149988
-0.19012 0.052795898 1.1289999 4281545260
-0.186905 0.052752301 1.128 4282597433
-0.18402 0.052802298 1.1289999 4282071089
-0.18113001 0.052852198 1.13 4281347366
-0.178076 0.052855302 1.13 4281216034
-0.174713 0.0527649 1.128 4282005550
-0.171359 0.052674402 1.126 4282927168
-0.16831499 0.0526774 1.126 4282071089
-0.165564 0.052774001 1.128 4281150502
-0.162513 0.052776899 1.128 4281873711
-0.159462 0.052779902 1.128 4282992191
-0.15613399 0.052689102 1.126 4282269238
-0.152951 0.052645199 1.125 4281545260
-0.14990699 0.052648 1.125 4281216295
-0.146862 0.052650701 1.125 4281873711
-0.14381699 0.052653499 1.125 4282334262
-0.140772 0.052656099 1.125 4281413160
-0.13772599 0.052658699 1.125 4282333748
-0.13456 0.052614499 1.124 4283847501
-0.131281 0.052523401 1.122 4281347881
-0.128014 0.052432299 1.12 4281676846
-0.124868 0.052387901 1.119 4283124806
-0.121836 0.0523903 1.119 4282269497
-0.118698 0.052345801 1.118 4281874739
-0.115772 0.0523949 1.119 4283322187
-0.112739 0.052397098 1.119 4282729795
-0.109706 0.0523993 1.119 4281281835
-0.106577 0.0523546 1.118 4284505692
-0.103453 0.052309901 1.117 4282268732
-0.100334 0.0522651 1.1160001 4281545007
-0.0972206 0.052220199 1.115 4282663488
-0.094112001 0.052175298 1.114 4284440154
-0.090926804 0.0520835 1.112 4282466876
-0.087752096 0.051991601 1.11 4282269497
-0.084740698 0.051993299 1.11 4282466364
-0.081728898 0.051995002 1.11 4283321673
-0.078575097 0.051902901 1.108 4284835171
-0.075431801 0.051810801 1.1059999 4282926408
-0.072364599 0.051765501 1.105 4282794822
-0.069365397 0.051766898 1.105 4282860869
-0.066245802 0.051674601 1.103 4285361001
-0.063251503 0.051675901 1.103 4283189832
-0.060202401 0.0516304 1.102 4283058501
-0.057210401 0.0516316 1.102 4283124292
-0.054168999 0.051585902 1.101 4283782736
-0.051039901 0.051446401 1.098 4284769633
-0.047926798 0.0513069 1.095 4283124553
-0.044829901 0.051167302 1.092 4284177243
-0.041864201 0.0511682 1.092 4284439901
-0.038862601 0.0511222 1.091 4285887861
-0.0358993 0.0511229 1.091 4283979864
-0.032905702 0.0510768 1.09 4284834657
-0.0299448 0.0510775 1.09 4284177241
-0.0269343 0.050984301 1.0880001 4285164136
-0.023934601 0.050891101 1.086 4284900705
-0.020965001 0.0508448 1.085 4283979603
-0.018017299 0.050845198 1.085 4284769117
-0.0150696 0.0508455 1.085 4284966496
-0.0121219 0.050845802 1.085 4284308821
-0.0091824997 0.050892901 1.086 4284900958
-0.0062261899 0.0508462 1.085 4283781707
-0.00328134 0.050893199 1.086 4283781708
-0.00033012699 0.0507995 1.084 4282992192
0.0026150399 0.0507994 1.084 4284241745
0.0055602002 0.0507994 1.084 4282925885
0.0085131899 0.0508461 1.085 4282136115
0.0114399 0.0507521 1.0829999 4283518022
0.0143822 0.050751898 1.0829999 4282465334
0.0173405 0.050798401 1.084 4282004783
0.0202855 0.050797999 1.084 4282399541
0.0232304 0.0507975 1.084 4282005036
0.026151 0.0507502 1.0829999 4282202414
0.029119801 0.050796401 1.084 4281873449
0.032094002 0.050842699 1.085 4281676322
0.035105798 0.050935701 1.087 4281478943
0.0380583 0.0509349 1.087 4281215771
0.0410106 0.050934099 1.087 4281084185
0.0440033 0.050980099 1.0880001 4281215771
0.0469581 0.0509791 1.0880001 4281018392
0.0500044 0.0510718 1.09 4280755222
0.0529643 0.051070701 1.09 4281083681
0.056077901 0.051210199 1.0930001 4281083933
0.059045501 0.051208999 1.0930001 4281083933
0.0620129 0.051207699 1.0930001 4280821015
0.06498 0.051206399 1.0930001 4281149980
0.068133503 0.051345602 1.096 4281083933
0.071173199 0.051391002 1.097 4281083934
0.0741506 0.0513895 1.097 4280886555
0.077127598 0.051387999 1.097 4281018141
0.080031402 0.0513396 1.096 4281149726
0.083081 0.051384799 1.097 4281215773
0.086057201 0.051383 1.097 4281018394
0.089114301 0.051428098 1.098 4281018394
0.0920927 0.051426299 1.098 4281215773
0.095070697 0.051424399 1.098 4280952090
0.098048501 0.051422499 1.098 4281346848
0.101118 0.0514674 1.099 4281347102
0.104287 0.051559001 1.101 4281347102
0.107369 0.051603701 1.102 4281610272
0.110256 0.051554799 1.101 4281215773
0.113241 0.051552601 1.101 4281544484
0.116119 0.051503502 1.1 4281412898
0.119208 0.051548101 1.101 4281610531
0.122191 0.051545698 1.101 4281215773
0.125174 0.051543299 1.101 4281478945
0.128039 0.051494099 1.1 4281676838
0.130899 0.051444799 1.099 4281347619
0.13399699 0.0514891 1.1 4281545515
0.1371 0.051533401 1.101 4281478952
0.14020801 0.051577602 1.102 4281413412
0.14319099 0.051574901 1.102 4281216033
0.146174 0.0515722 1.102 4281479457
0.14929099 0.0516163 1.103 4282005542
0.152275 0.051613498 1.103 4281610784
0.15539999 0.051657502 1.104 4281610784
0.15838601 0.0516547 1.104 4281742370
0.161226 0.051605001 1.103 4281807908
0.16420799 0.051602099 1.103 4282136875
0.16703901 0.051552299 1.102 4281610277
0.17017201 0.051596101 1.103 4281939242
0.172996 0.051546302 1.102 4281808170
0.175974 0.051543299 1.102 4281808170
0.17879 0.051493399 1.101 4281873964
0.18176401 0.051490299 1.101 4282005549
0.184738 0.0514872 1.101 4282071343
0.188052 0.051577501 1.103 4282860859
0.19085801 0.051527601 1.102 4282071343
0.193657 0.0514776 1.101 4282071857
0.19645099 0.051427599 1.1 4281611306
0.199238 0.051377598 1.099 4282335029
0.202204 0.051374301 1.099 4282598456
0.204983 0.0513243 1.098 4282072110
0.207945 0.051321 1.098 4282335284
0.210714 0.051270898 1.097 4282532663
0.213478 0.051220801 1.096 4282531893
0.216039 0.051123999 1.094 4282729272
0.219188 0.051167302 1.095 4282334515
0.22214 0.051163901 1.095 4282926651
0.225091 0.051160499 1.095 4282729273
0.227626 0.051063702 1.0930001 4283124031
0.23036 0.0510136 1.092 4283321410
0.233088 0.050963402 1.091 4282663480
0.235811 0.0509133 1.09 4282992445
0.238527 0.050863098 1.089 4283519305
0.241016 0.0507663 1.087 4282730048
0.243719 0.050716199 1.086 4283387978
0.246188 0.050619401 1.084 4282927427
0.24887601 0.050569199 1.0829999 4283387978
0.25132599 0.050472401 1.081 4283651920
0.254235 0.050469 1.081 4283716943
0.256906 0.050418898 1.08 4283585357
0.25981101 0.050415501 1.08 4283914322
0.26271701 0.0504121 1.08 4284045394
0.26513001 0.050315399 1.0779999 4284111187
0.26728299 0.050172001 1.075 4283387464
0.270174 0.0501686 1.075 4283650636
0.27255601 0.050071999 1.073 4284111187
0.27544099 0.050068598 1.073 4284045394
0.27780601 0.049972001 1.071 4284440154
0.28042299 0.049922101 1.0700001 4283453773
0.283034 0.0498721 1.069 4284243803
0.28510401 0.0497289 1.066 4284572768
0.28769901 0.049679101 1.0650001 4283322701
0.28974199 0.0495359 1.062 4283980631
0.292595 0.049532801 1.062 4284967012
0.294891 0.049436402 1.0599999 4284703840
0.29717699 0.049339999 1.058 4284177241
0.29945201 0.049243599 1.056 4284374106
0.30200201 0.049194001 1.0549999 4284834657
0.30512401 0.049237601 1.056 4284637792
0.307668 0.049187999 1.0549999 4284835171
0.30961901 0.049045101 1.052 4285295463
0.31244299 0.049042199 1.052 4284703326
0.314969 0.048992801 1.051 4285821807
0.31779099 0.048989899 1.051 4286019184
0.319087 0.0487541 1.046 4286216310
0.32158801 0.048704699 1.045 4286479996
0.322842 0.048469 1.04 4286940547
0.32438201 0.0482799 1.036 4286282617
0.32589999 0.048091002 1.0319999 4286151031
0.32867101 0.048088402 1.0319999 4285624687
0.32983601 0.047853 1.027 4285887345
0.33032599 0.0475244 1.02 4285887861
0.33045301 0.047149301 1.012 4285361003
0.331853 0.0469606 1.008 4284439899
0.33323199 0.0467721 1.0039999 4284440154
0.33458999 0.0465836 1 4284176980
0.33626401 0.0464417 0.99699998 4284769117
0.33860099 0.0463931 0.99599999 4284966496
0.34127599 0.0463911 0.99599999 4284835424
0.34257001 0.046202902 0.99199998 4285098082
0.34419101 0.0460613 0.98900002 4284834910
0.346497 0.046012901 0.98799998 4283782477
0.349152 0.046011198 0.98799998 4283715914
0.35180601 0.0460095 0.98799998 4283387203
0.354103 0.045961302 0.98699999 4282334515
0.35747799 0.046052899 0.98900002 4281478952
0.36159399 0.0462377 0.99299997 4281281827
0.36756501 0.046655402 1.002 4280887069
0.373954 0.047119599 1.012 4280821276
0.38188699 0.047770198 1.026 4280821790
0.393269 0.0488398 1.049 4280887583
0.40439799 0.049862899 1.071 4280888097
0.41108301 0.050327402 1.081 4281019683
0.41552401 0.050512601 1.085 4281611561
0.41883001 0.050558198 1.086 4282598970
0.42253101 0.050650399 1.0880001 4281677354
0.42546099 0.050649699 1.0880001 4282335284
0.42839199 0.050648998 1.0880001 4281743659
0.43132401 0.050648499 1.0880001 4282993726
0.43425599 0.050648 1.0880001 4282927935
0.43759099 0.050694201 1.089 4282401591
0.44052801 0.050693899 1.089 4283125059
0.443059 0.050647199 1.0880001 4282664508
0.44599399 0.050647199 1.0880001 4282664249
0.44810599 0.0505541 1.086 4282926905
0.45145401 0.050600801 1.087 4282597940
0.45397201 0.0505546 1.086 4282466607
0.456907 0.050554998 1.086 4283321402
0.459842 0.050555501 1.086 4282597679
0.46235299 0.050509602 1.085 4282137642
0.46485901 0.050463699 1.084 4282860851
0.46736199 0.050418101 1.0829999 4283189816
0.46985999 0.0503725 1.082 4282663472
0.47322801 0.050420199 1.0829999 4282334507
0.475283 0.050328299 1.081 4282860592
0.47865701 0.0503763 1.082 4282333994
0.48070201 0.050284699 1.08 4282466093
0.48407999 0.0503329 1.081 4282334507
0.48566401 0.0501949 1.0779999 4281940263
0.48859301 0.050196901 1.0779999 4282663731
0.491523 0.050198901 1.0779999 4283650112
0.49445501 0.050201099 1.0779999 4282663217
0.49646601 0.050110299 1.076 4282465840
0.49846801 0.050019599 1.074 4282334252
-0.199798 0.0498586 1.132 4282202415
-0.196742 0.049861699 1.132 4281412899
-0.193685 0.049864799 1.132 4281018401
-0.190291 0.049779799 1.13 4282006066
-0.18723901 0.049782898 1.13 4282137650
-0.184186 0.049785901 1.13 4281150755
-0.181293 0.049832899 1.131 4281018655
-0.17808001 0.049791802 1.13 4281676584
-0.174871 0.049750701 1.1289999 4282466100
-0.171666 0.049709499 1.128 4282466101
-0.168617 0.049712401 1.128 4281084448
-0.165567 0.049715199 1.128 4280886815
-0.162516 0.049718 1.128 4282136882
-0.15932401 0.049676701 1.127 4282597433
-0.156275 0.049679399 1.127 4281610538
-0.15309 0.049637999 1.126 4281676332
-0.150043 0.0496406 1.126 4281347367
-0.146865 0.0495991 1.125 4282071090
-0.143948 0.0496458 1.126 4281742125
-0.140899 0.0496483 1.126 4281676332
-0.13772801 0.049606699 1.125 4282794813
-0.134562 0.049564999 1.124 4282005297
-0.131401 0.049523301 1.123 4281216295
-0.128245 0.049481601 1.122 4282005811
-0.125094 0.049439799 1.1210001 4282006325
-0.122165 0.049486101 1.122 4281282602
-0.118913 0.049400099 1.12 4282532669
-0.115878 0.0494023 1.12 4282861636
-0.112741 0.049360301 1.119 4281413935
-0.109708 0.049362302 1.119 4282137399
-0.106579 0.049320199 1.118 4283190087
-0.103548 0.049322199 1.118 4281412907
-0.100426 0.049279999 1.117 4281676848
-0.097309701 0.049237698 1.1160001 4283124294
-0.094113901 0.049151301 1.114 4283124294
-0.090928599 0.0490648 1.112 4281545774
-0.087753803 0.048978198 1.11 4281677360
-0.084818698 0.049024001 1.1109999 4281940532
-0.081877798 0.049069699 1.112 4283190085
-0.078647502 0.0489389 1.109 4282861122
-0.075501502 0.048852101 1.107 4281347628
-0.072366104 0.048765302 1.105 4282071353
-0.069303997 0.048722502 1.104 4283321420
-0.066187099 0.048635501 1.102 4283453004
-0.0631954 0.048636802 1.102 4281873972
-0.060148999 0.048593901 1.101 4282268983
-0.0572115 0.048639201 1.102 4282401083
-0.054120898 0.048551999 1.1 4282795841
-0.0509944 0.048420601 1.097 4282269499
-0.047927801 0.048333298 1.095 4282137658
-0.044913001 0.048289999 1.094 4282400832
-0.041941699 0.048290901 1.094 4283255627
-0.0389347 0.048247501 1.0930001 4282729283
-0.035932999 0.048204102 1.092 4282005560
-0.032936499 0.048160698 1.091 4282597697
-0.0299179 0.048073001 1.089 4282531902
-0.0269101 0.0479853 1.087 4283518797
-0.0239351 0.047941599 1.086 4282466364
-0.020965399 0.047897901 1.085 4282663741
-0.0180343 0.047942501 1.086 4283255878
-0.015056 0.047854502 1.084 4282992706
-0.0121109 0.0478548 1.084 4283848270
-0.0091657704 0.047855001 1.084 4283190340
-0.0062263198 0.047899298 1.085 4282465848
-0.00327536 0.047855198 1.084 4282729534
-0.00032952501 0.047766998 1.082 4283518536
0.0026078599 0.047722802 1.081 4284241745
0.0055449302 0.047722701 1.081 4282859838
0.0084976703 0.047810901 1.0829999 4283780940
0.0114296 0.047766499 1.082 4284373077
0.0143825 0.047810402 1.0829999 4283123264
0.0173249 0.0478101 1.0829999 4283189057
0.0202672 0.047809701 1.0829999 4283452229
0.0232308 0.0478535 1.084 4282926138
0.0261274 0.0477647 1.082 4282991930
0.029120401 0.047852401 1.084 4282399793
0.032094698 0.047896001 1.085 4282334252
0.035041898 0.047895301 1.085 4282334252
0.037989002 0.047894601 1.085 4281676322
0.040973701 0.0479379 1.086 4281742115
0.044004198 0.048025399 1.0880001 4281610529
0.046959002 0.048024502 1.0880001 4281544738
0.050005399 0.0481118 1.09 4281412898
0.053013898 0.048154999 1.091 4281347105
0.056130301 0.0482863 1.094 4281676070
0.059100699 0.048285201 1.094 4281478691
0.062127601 0.048328102 1.095 4281478945
0.0651002 0.048326898 1.095 4281413152
0.068196997 0.048413899 1.097 4281215773
0.071174704 0.048412502 1.097 4281873446
0.074152 0.048411101 1.097 4281281566
0.077199496 0.0484538 1.098 4281413150
0.080178998 0.048452299 1.098 4281544736
0.083234102 0.048494902 1.099 4282005287
0.086215802 0.048493199 1.099 4281347359
0.089197204 0.048491601 1.099 4281676070
0.092346102 0.048578098 1.101 4281873449
0.095245697 0.048532199 1.1 4281478434
0.098318301 0.0485745 1.101 4282070571
0.101304 0.0485726 1.101 4282201895
0.104573 0.048703101 1.104 4281873444
0.107664 0.0487452 1.105 4282005029
0.110559 0.0486991 1.104 4281808163
0.113346 0.048608799 1.102 4282400045
0.116227 0.048562601 1.101 4281676322
0.11921 0.0485604 1.101 4282005542
0.122304 0.048602302 1.102 4282137128
0.125517 0.0486883 1.104 4281676577
0.128507 0.048686001 1.104 4282597679
0.13113999 0.048551299 1.101 4282071594
0.134243 0.0485931 1.102 4282071342
0.137352 0.0486347 1.103 4281676585
0.140338 0.048632301 1.103 4282070828
0.143324 0.048629802 1.103 4282334254
0.14657401 0.048715401 1.105 4282136873
0.149564 0.048712801 1.105 4282334507
0.15269201 0.048754301 1.1059999 4281939749
0.15568399 0.0487516 1.1059999 4282005283
0.158676 0.048748899 1.1059999 4281939490
0.161375 0.048658099 1.104 4282399273
0.16436 0.048655301 1.104 4282531373
0.167193 0.0486084 1.103 4281807910
0.170329 0.048649698 1.104 4282334254
0.17331301 0.0486468 1.104 4282202928
0.176456 0.048687998 1.105 4281873963
0.17911699 0.048597001 1.103 4282663480
0.181932 0.048549999 1.102 4282400308
0.184909 0.048547 1.102 4282071342
0.18805601 0.048588101 1.103 4282728758
0.191034 0.048585001 1.103 4282334001
0.194012 0.048581999 1.103 4282531380
0.19681101 0.0485349 1.102 4282136621
0.19978499 0.048531801 1.102 4282794805
0.202391 0.048440602 1.1 4282861112
0.20498601 0.048349399 1.098 4282334768
0.20813701 0.048390299 1.099 4282992444
0.21091001 0.0483432 1.098 4282137135
0.21367601 0.048296001 1.097 4282729012
0.21623901 0.048204701 1.095 4283321147
0.219192 0.048201598 1.095 4282663217
0.22214299 0.048198398 1.095 4283518528
0.225095 0.048195101 1.095 4283715907
0.228046 0.048191901 1.095 4283321149
0.230785 0.048144698 1.094 4283255102
0.233519 0.048097402 1.0930001 4282795066
0.236247 0.048050199 1.092 4283321410
0.238969 0.048002999 1.091 4284176465
0.24146301 0.0479117 1.089 4283715914
0.24417099 0.0478645 1.0880001 4284045133
0.246419 0.047729298 1.085 4283452482
0.249109 0.047681998 1.084 4283321410
0.251562 0.0475908 1.082 4283782477
0.25470901 0.047631599 1.0829999 4283848270
0.25738499 0.0475844 1.082 4283782477
0.26005501 0.0475372 1.081 4284111442
0.26320601 0.047578 1.082 4284111442
0.265625 0.047486801 1.08 4284045647
0.26803201 0.047395699 1.0779999 4283190340
0.27017701 0.047260601 1.075 4283782477
0.27281299 0.047213499 1.074 4284308566
0.27570099 0.047210399 1.074 4284176980
0.278328 0.0471633 1.073 4284637531
0.28068799 0.047072299 1.071 4284374361
0.28330201 0.0470252 1.0700001 4284637533
0.285642 0.046934299 1.068 4285163875
0.28824201 0.046887301 1.067 4284374361
0.29029 0.046752401 1.064 4285690219
0.29314899 0.046749402 1.064 4285821805
0.29545099 0.046658602 1.062 4286216563
0.29774201 0.046567801 1.0599999 4286084979
0.30002201 0.046477001 1.058 4285821807
0.30229101 0.046386201 1.056 4286479737
0.30512699 0.0463834 1.056 4285953652
0.30708799 0.046248801 1.053 4286611582
0.30962101 0.046202101 1.052 4286676861
0.31185201 0.046111502 1.05 4286216310
0.314372 0.046064898 1.049 4286545275
0.31658399 0.0459744 1.0470001 4286150517
0.31817499 0.045796201 1.043 4285953654
0.320052 0.0456618 1.04 4285690996
0.32129201 0.045439798 1.035 4286282619
0.322505 0.045217801 1.03 4285295724
0.323376 0.044952001 1.024 4284572003
0.32580701 0.0449057 1.023 4284703587
0.32758999 0.044771701 1.02 4285295722
0.32838601 0.044506099 1.0140001 4284506206
0.32914901 0.044240501 1.008 4283848017
0.33053899 0.044062801 1.0039999 4284045394
0.331907 0.043885101 1 4283979601
0.33392301 0.043795299 0.99800003 4284308821
0.33559099 0.043661699 0.995 4284243542
0.33826301 0.043659799 0.995 4284177494
0.34059301 0.043614 0.99400002 4284177494
0.342572 0.043524399 0.99199998 4284506459
0.34454101 0.043434899 0.99000001 4284308819
0.34685001 0.043389302 0.98900002 4284111440
0.349507 0.0433877 0.98900002 4283716167
0.35180801 0.043342199 0.98799998 4282992444
0.35446301 0.043340702 0.98799998 4282268207
0.35747999 0.043383099 0.98900002 4281544999
0.361595 0.043557201 0.99299997 4280887838
0.36683199 0.043862902 1 4280558873
0.373586 0.044344101 1.011 4280558873
0.38077101 0.044869199 1.023 4280558873
0.39214599 0.045876801 1.046 4280756250
0.403644 0.046884499 1.069 4281151008
0.411084 0.047409698 1.081 4281151010
0.415142 0.0475403 1.084 4281611045
0.41883099 0.047627099 1.086 4282203182
0.422144 0.0476701 1.087 4281742631
0.42546201 0.047713298 1.0880001 4282729526
0.42799899 0.0476688 1.087 4282334766
0.430531 0.047624402 1.086 4282927673
0.433458 0.047623899 1.086 4282993212
0.43678799 0.047667399 1.087 4282335798
0.44012401 0.047711 1.0880001 4282730301
0.44346601 0.047754701 1.089 4282598203
0.44599399 0.047710799 1.0880001 4282663480
0.44810599 0.047623198 1.086 4282860858
0.45062301 0.047579501 1.085 4282466100
0.453554 0.047579698 1.085 4282925884
0.45690599 0.047623899 1.086 4283255356
0.459842 0.047624402 1.086 4282466093
0.46235201 0.047581099 1.085 4281677091
0.46485901 0.047538001 1.084 4282729779
0.467361 0.047494899 1.0829999 4283124537
0.469859 0.047451999 1.082 4282795319
0.47279 0.047453001 1.082 4282466354
0.47440299 0.047322601 1.079 4282268459
0.47777 0.0473678 1.08 4282400045
0.48025501 0.047325298 1.079 4282005287
0.483183 0.047326799 1.079 4282268459
0.485212 0.047240801 1.077 4281874215
0.48859099 0.047286399 1.0779999 4282926903
0.491521 0.047288399 1.0779999 4283452733
0.493994 0.047246601 1.077 4282597424
0.49600199 0.047161002 1.075 4282531631
0.498465 0.047119401 1.074 4282794803
-0.19997799 0.0468321 1.133 4281412898
-0.197093 0.046876401 1.1339999 4281215520
-0.19403 0.046879299 1.1339999 4281610278
-0.190631 0.0467996 1.132 4282268468
-0.187408 0.046761099 1.131 4281478952
-0.184352 0.046763901 1.131 4281084194
-0.18129601 0.046766698 1.131 4281610538
-0.17792501 0.046686798 1.1289999 4282202675
-0.175028 0.046730898 1.13 4282005296
-0.171974 0.046733599 1.13 4281807917
-0.16906799 0.046777699 1.131 4281084194
-0.16571601 0.046697602 1.1289999 4281478952
-0.16251899 0.0466589 1.128 4282334261
-0.159326 0.046620101 1.127 4282071090
-0.156416 0.046664 1.128 4281610539
-0.153228 0.046625201 1.127 4281742124
-0.15031201 0.046669099 1.128 4281281573
-0.146998 0.046588801 1.126 4281677101
-0.144078 0.046632499 1.127 4281545515
-0.140902 0.046593498 1.126 4281808687
-0.137731 0.046554498 1.125 4282466362
-0.134564 0.046515401 1.124 4281150502
-0.131403 0.0464762 1.123 4281414188
-0.12824699 0.0464371 1.122 4281940787
-0.12520701 0.046439201 1.122 4281479981
-0.122276 0.046482701 1.123 4281479981
-0.119021 0.046402 1.1210001 4282401083
-0.115983 0.046404101 1.1210001 4281743155
-0.112945 0.046406001 1.1210001 4281479983
-0.110004 0.0464494 1.122 4282597434
-0.106867 0.046409901 1.1210001 4282005297
-0.103642 0.046328899 1.119 4281347367
-0.100518 0.046289299 1.118 4282268469
-0.097398698 0.046249699 1.117 4282795327
-0.094284497 0.046209998 1.1160001 4282334776
-0.091175601 0.046170201 1.115 4281742639
-0.087992601 0.046089001 1.113 4281611567
-0.085049301 0.046131901 1.114 4282400824
-0.081952997 0.046092 1.113 4283124292
-0.078790903 0.046010699 1.1109999 4281742639
-0.0756393 0.045929201 1.109 4281216809
-0.072563902 0.045889098 1.108 4282137399
-0.069493599 0.045848999 1.107 4283255880
-0.066428602 0.0458088 1.1059999 4281743155
-0.063426003 0.045809999 1.1059999 4281151018
-0.060314 0.0457283 1.104 4282072118
-0.057316501 0.045729399 1.104 4282335290
-0.0541219 0.0455647 1.1 4282335292
-0.0510883 0.045524299 1.099 4281742900
-0.048016299 0.045442302 1.097 4281808695
-0.045037001 0.0454432 1.097 4281939767
-0.0420192 0.045402601 1.096 4282335041
-0.0389711 0.0453205 1.094 4281742904
-0.035966501 0.0452797 1.0930001 4281479216
-0.0329975 0.045280401 1.0930001 4281808179
-0.030000901 0.045239501 1.092 4282268985
-0.0269849 0.045157202 1.09 4282466364
-0.023979601 0.045074798 1.0880001 4281611053
-0.021023801 0.0450752 1.0880001 4281743153
-0.0180845 0.045116998 1.089 4281677360
-0.015098 0.045034502 1.087 4282401083
-0.0121335 0.0449933 1.086 4282137911
-0.0091828601 0.044993501 1.086 4281677101
-0.0062321802 0.044993699 1.086 4281874225
-0.0032754201 0.0449109 1.084 4282071604
-0.00032983601 0.044869501 1.0829999 4282860606
0.00261273 0.044869501 1.0829999 4282334264
0.0055552898 0.044869401 1.0829999 4281742127
0.0084978295 0.044869199 1.0829999 4282926401
0.0114403 0.044869099 1.0829999 4283057217
0.0143961 0.044910301 1.084 4282136369
0.0173412 0.044909999 1.084 4282596920
0.0202676 0.044868201 1.0829999 4282202162
0.023188399 0.044826299 1.082 4282728758
0.0261037 0.044784501 1.081 4281807656
0.0290941 0.0448668 1.0829999 4282136621
0.032095298 0.044949099 1.085 4282465840
0.035042599 0.0449485 1.085 4281610531
0.037989799 0.044947799 1.085 4282005289
0.040936802 0.044947099 1.085 4281939494
0.044004999 0.045070499 1.0880001 4281742115
0.047003102 0.045111101 1.089 4281544738
0.0500523 0.045193098 1.091 4281478691
0.053112101 0.045274999 1.0930001 4281939242
0.056233998 0.045398202 1.096 4281873449
0.0592639 0.045438599 1.097 4281215773
0.062242199 0.0454375 1.097 4281676322
0.065220401 0.0454363 1.097 4281676324
0.068260498 0.0454765 1.098 4282071082
0.071305797 0.0455167 1.099 4281873703
0.074221 0.0454739 1.098 4281676322
0.077341497 0.045555402 1.1 4281544736
0.080399603 0.0455954 1.101 4281939749
0.083462797 0.045635302 1.102 4282465838
0.086295798 0.045550998 1.1 4281676324
0.089280002 0.0455494 1.1 4282465586
0.092347801 0.045589201 1.101 4281741864
0.095507301 0.045670401 1.103 4282465586
0.098498598 0.045668699 1.103 4282860087
0.101582 0.045708299 1.104 4281873446
0.104575 0.045706499 1.104 4282005287
0.107763 0.045787401 1.1059999 4281939494
0.110661 0.045744099 1.105 4282465838
0.113656 0.045742199 1.105 4282926391
0.11644 0.0456574 1.103 4281807908
0.119429 0.0456554 1.103 4282860851
0.122417 0.045653298 1.103 4282202921
0.125633 0.045733999 1.105 4282268712
0.12851 0.045690399 1.104 4282400300
0.13138101 0.045646802 1.103 4282992437
0.134368 0.0456446 1.103 4282729526
0.13772801 0.045766499 1.1059999 4281347873
0.14072201 0.0457641 1.1059999 4282992184
0.14358599 0.045720398 1.105 4282465840
0.146577 0.045717999 1.105 4282531886
0.149702 0.045756999 1.1059999 4282794545
0.152833 0.045795899 1.107 4282202408
0.155968 0.045834702 1.108 4282662959
0.158822 0.045790799 1.107 4282465580
0.161524 0.045705501 1.105 4282926132
0.164363 0.045661598 1.104 4282662962
0.16719601 0.045617599 1.103 4281676070
0.170486 0.0456976 1.105 4282926137
0.17363 0.045736302 1.1059999 4282400308
0.17661899 0.045733601 1.1059999 4282268722
0.179445 0.045689501 1.105 4282663479
0.1821 0.045604002 1.103 4282531379
0.185247 0.045642599 1.104 4283189309
0.18822899 0.045639802 1.104 4282860344
0.191383 0.045678299 1.105 4282662965
0.19436701 0.045675401 1.105 4283452481
0.197171 0.0456312 1.104 4282334254
0.19997001 0.045587 1.103 4283715907
0.20276199 0.045542698 1.102 4283518528
0.20536201 0.045457099 1.1 4283058491
0.20833001 0.0454542 1.1 4283847493
0.211105 0.045409899 1.099 4282268461
0.213874 0.045365602 1.098 4283518526
0.216637 0.045321301 1.097 4283979332
0.219395 0.045276999 1.096 4282400047
0.222146 0.045232601 1.095 4283913286
0.22489201 0.0451883 1.094 4283781700
0.22784001 0.045185301 1.094 4284505169
0.23057701 0.045141 1.0930001 4284570963
0.233522 0.045137901 1.0930001 4283124031
0.23646601 0.045134898 1.0930001 4283715654
0.239191 0.0450905 1.092 4284308052
0.24213199 0.045087501 1.092 4284044879
0.24462301 0.045001801 1.09 4285031260
0.246876 0.044874899 1.087 4283189056
0.24957199 0.044830602 1.086 4283847754
0.25226301 0.044786301 1.085 4285097821
0.255182 0.044783201 1.085 4284439638
0.257626 0.044697601 1.0829999 4284965982
0.260299 0.0446533 1.082 4284176980
0.26345301 0.0446916 1.0829999 4285098082
0.265874 0.044606 1.081 4285229668
0.26828399 0.044520501 1.079 4283979601
0.27017999 0.044352502 1.075 4285229668
0.272816 0.044308301 1.074 4285229668
0.275704 0.044305298 1.074 4285624426
0.27833101 0.044261102 1.073 4285492840
0.280691 0.044175699 1.071 4284374361
0.28277501 0.044048999 1.068 4285821807
0.28537801 0.044004899 1.067 4286084977
0.28743401 0.043878298 1.064 4284769119
0.28974801 0.043793 1.062 4285229670
0.29260099 0.043790199 1.062 4285492840
0.29489699 0.043705001 1.0599999 4286742909
0.29718301 0.0436197 1.058 4285361256
0.29917401 0.043493301 1.0549999 4285559149
0.30200699 0.0434906 1.0549999 4285887600
0.30455199 0.043446701 1.054 4284835171
0.306216 0.043279201 1.05 4286808447
0.30815199 0.043152899 1.0470001 4285229415
0.30977601 0.042985499 1.043 4285426794
0.31227699 0.042941701 1.0420001 4285032038
0.31446999 0.042856801 1.04 4285164136
0.316347 0.042730801 1.0369999 4284900964
0.31820801 0.0426047 1.034 4284506722
0.31943199 0.0423963 1.029 4284967273
0.32094201 0.042229202 1.025 4283585620
0.322431 0.0420621 1.021 4283650899
0.32453501 0.041977499 1.0190001 4284440415
0.325986 0.041810598 1.015 4284374620
0.32709199 0.0416025 1.01 4283585359
0.32784501 0.0413533 1.0039999 4283519564
0.32922399 0.0411865 1 4283519564
0.33124501 0.0411021 0.99800003 4283717198
0.33325601 0.041017801 0.99599999 4283782991
0.33525601 0.040933602 0.99400002 4284375128
0.33724499 0.040849399 0.99199998 4284045908
0.33922401 0.0407653 0.99000001 4283651150
0.34153801 0.0407224 0.98900002 4283914577
0.34384599 0.0406796 0.98799998 4283782989
0.34650001 0.040677998 0.98799998 4283782730
0.34915501 0.0406764 0.98799998 4284045132
0.35181001 0.040674899 0.98799998 4282663733
0.35446501 0.040673502 0.98799998 4282531379
0.35712001 0.040672101 0.98799998 4281676584
0.36086801 0.040794302 0.991 4281019424
0.365733 0.04104 0.99699998 4280624411
0.37247899 0.041491602 1.008 4280690204
0.37928399 0.0419432 1.0190001 4280493594
0.39064699 0.042888802 1.0420001 4280493594
0.40251201 0.043875601 1.066 4280690973
0.41070399 0.044450801 1.08 4280887838
0.41475999 0.0445734 1.0829999 4280558357
0.418446 0.044654801 1.085 4281347873
0.421368 0.044654101 1.085 4281479459
0.42429 0.044653401 1.085 4281808422
0.427212 0.044652801 1.085 4281742884
0.429739 0.0446111 1.084 4281348638
0.43226099 0.0445695 1.0829999 4282335536
0.43518099 0.044569202 1.0829999 4281940018
0.43891001 0.044651199 1.085 4283058499
0.44224399 0.0446922 1.086 4282466617
0.44517499 0.0446922 1.086 4282005550
0.447281 0.044609901 1.084 4282597173
0.448962 0.044486601 1.081 4282399794
0.45271701 0.044569101 1.0829999 4282400047
0.45564401 0.044569399 1.0829999 4283057975
0.45857099 0.044569898 1.0829999 4282202921
0.46149901 0.044570401 1.0829999 4281742370
0.464858 0.044612199 1.084 4282795572
0.46822301 0.044654101 1.085 4282598193
0.46985799 0.044531502 1.082 4282861112
0.47278801 0.0445325 1.082 4282005803
0.47440201 0.044410098 1.079 4282334252
0.47732699 0.044411302 1.079 4282071080
0.479808 0.0443714 1.0779999 4281807908
0.48273399 0.044372801 1.0779999 4281939494
0.48521 0.044333201 1.077 4281808422
0.48858899 0.044376101 1.0779999 4281413664
0.491063 0.044336699 1.077 4281544736
0.493534 0.044297401 1.076 4281413152
0.49599999 0.0442583 1.075 4281347359
0.498463 0.0442193 1.074 4280821015
-0.19998001 0.043761499 1.133 4280952347
-0.196922 0.0437642 1.133 4280952347
-0.19386201 0.043767001 1.133 4281807656
-0.190634 0.043731 1.132 4281741864
-0.187245 0.043656498 1.13 4281084194
-0.184029 0.043620501 1.1289999 4281544745
-0.180978 0.043623101 1.1289999 4282071089
-0.177927 0.043625701 1.1289999 4282268468
-0.17503101 0.043666899 1.13 4282005297
-0.17212801 0.043708101 1.131 4281084195
-0.16892099 0.043671999 1.13 4281413159
-0.165719 0.0436358 1.1289999 4281873710
-0.16266499 0.0436383 1.1289999 4282334261
-0.15947001 0.043602102 1.128 4281413159
-0.15628 0.043565799 1.127 4281807403
-0.15323099 0.043568201 1.127 4281807403
-0.150181 0.0435705 1.127 4281347366
-0.14726099 0.0436115 1.128 4281479206
-0.144208 0.043613698 1.128 4281479722
-0.141029 0.043577299 1.127 4282203445
-0.13785499 0.043540802 1.126 4281874480
-0.13468599 0.043504301 1.125 4281019685
-0.131522 0.0434677 1.124 4281611822
-0.12847801 0.043469802 1.124 4281809201
-0.125544 0.0435105 1.125 4281348395
-0.122605 0.043551099 1.126 4281743153
-0.119342 0.043475699 1.124 4281940532
-0.116088 0.043400299 1.122 4281282090
-0.112947 0.0433634 1.1210001 4281676848
-0.10981 0.043326601 1.12 4282202676
-0.106773 0.0433283 1.12 4281084195
-0.103644 0.043291401 1.119 4281544746
-0.100609 0.0432931 1.119 4282202676
-0.0974003 0.043217301 1.117 4282005811
-0.0943707 0.0432189 1.117 4281940018
-0.091177098 0.043143101 1.115 4281347881
-0.088073201 0.0431059 1.114 4281808432
-0.085050799 0.043107301 1.114 4282466617
-0.081954397 0.04307 1.113 4282203190
-0.078863204 0.043032698 1.112 4281150502
-0.075708903 0.042956602 1.11 4281808432
-0.072696097 0.042957898 1.11 4282334776
-0.069620401 0.042920399 1.109 4282466362
-0.066549897 0.0428828 1.108 4281479981
-0.063484497 0.042845201 1.107 4281611567
-0.060424302 0.042807601 1.1059999 4281678130
-0.057317499 0.042731199 1.104 4282007095
-0.054172099 0.042615999 1.101 4282006327
-0.0511357 0.042578202 1.1 4281282604
-0.0481047 0.042540401 1.099 4281874486
-0.045160901 0.0425799 1.1 4281940279
-0.0420966 0.0425032 1.098 4281940281
-0.039043002 0.0424265 1.096 4281348144
-0.036033001 0.042388398 1.095 4281479214
-0.0329981 0.042311601 1.0930001 4281545007
-0.029974001 0.0422347 1.091 4282005811
-0.026985399 0.042196501 1.09 4282071604
-0.024002099 0.042158298 1.089 4281347881
-0.021062801 0.042197399 1.09 4281677360
-0.0181014 0.042197701 1.09 4281676846
-0.0151399 0.042197999 1.09 4282203190
-0.0121561 0.042120799 1.0880001 4282071604
-0.0091999397 0.042121001 1.0880001 4281282088
-0.0062322901 0.042043701 1.086 4281347881
-0.0032754799 0.041966401 1.084 4281676848
-0.000329537 0.041889001 1.082 4282071606
0.0026127801 0.041927598 1.0829999 4281545262
0.0055502602 0.0418889 1.082 4281347883
0.0084979804 0.041927502 1.0829999 4281808434
0.0114511 0.041965999 1.084 4281413674
0.0144096 0.0420045 1.085 4281216295
0.0173255 0.041926801 1.0829999 4281413160
0.020249199 0.041887701 1.082 4281610024
0.0231674 0.0418486 1.081 4281281313
0.026152501 0.041925602 1.0829999 4281083934
0.029094599 0.041925199 1.0829999 4281544485
0.032066301 0.041963302 1.084 4281215520
0.0349463 0.041885301 1.082 4280952347
0.0379554 0.041962098 1.084 4281281566
0.040862098 0.0419227 1.0829999 4281215771
0.043924902 0.042038102 1.086 4280886806
0.0468744 0.042037301 1.086 4281018394
0.049869601 0.042075198 1.087 4281215519
0.052967299 0.042190399 1.09 4281741863
0.056081001 0.0423056 1.0930001 4280754968
0.0591028 0.0423434 1.094 4280886554
0.0621299 0.042381 1.095 4281018394
0.0651621 0.042418599 1.096 4281018140
0.0681995 0.042456198 1.097 4281939242
0.071177199 0.042454999 1.097 4281215773
0.074087098 0.042415101 1.096 4281084185
0.077202298 0.042491201 1.098 4280887061
0.080254897 0.0425286 1.099 4282334507
0.083312802 0.042565901 1.1 4281413150
0.086297303 0.0425645 1.1 4280887322
0.089281604 0.042562999 1.1 4282136621
0.092433199 0.042638902 1.102 4280952348
0.095508903 0.042676002 1.103 4282465586
0.098589599 0.042713098 1.104 4282268461
0.101675 0.042750102 1.105 4281281566
0.104766 0.042787101 1.1059999 4281939494
0.107765 0.042785399 1.1059999 4281215771
0.110563 0.042706199 1.104 4282926905
0.113555 0.0427044 1.104 4282005803
0.116336 0.0426252 1.102 4281281566
0.119431 0.042661998 1.103 4282926389
0.12253 0.0426987 1.104 4281742370
0.12574901 0.0427741 1.1059999 4281347612
0.128745 0.042772099 1.1059999 4282005542
0.131621 0.0427313 1.105 4282926389
0.134735 0.042767901 1.1059999 4282334768
0.13785399 0.042804401 1.107 4281150494
0.140724 0.042763598 1.1059999 4282071082
0.14345799 0.042684101 1.104 4281742117
0.146446 0.042681798 1.104 4282926389
0.149569 0.042718198 1.105 4282531633
0.152835 0.042793199 1.107 4281873703
0.15583 0.042790901 1.107 4282136621
0.15868101 0.0427498 1.1059999 4281478691
0.16152599 0.042708799 1.105 4283386689
0.16436499 0.042667702 1.104 4282531380
0.167199 0.042626601 1.103 4281215520
0.17017999 0.042624101 1.103 4283584068
0.173476 0.042698901 1.105 4281873449
0.17646199 0.042696401 1.105 4282399793
0.179285 0.0426552 1.104 4282465586
0.18193799 0.0425753 1.102 4282860344
0.18491399 0.042572699 1.102 4283781446
0.188232 0.042647298 1.104 4282202415
0.191213 0.042644698 1.104 4282399793
0.194194 0.042642001 1.104 4283452481
0.19699501 0.042600699 1.103 4282531631
0.19960999 0.042520698 1.101 4283650114
0.202397 0.042479299 1.1 4282268207
0.20517799 0.042438 1.099 4283452482
0.208143 0.042435199 1.099 4284307790
0.211108 0.042432498 1.099 4281281312
0.214072 0.0424297 1.099 4284110665
0.217035 0.042426899 1.099 4284176456
0.219598 0.042346802 1.097 4282268207
0.222352 0.042305399 1.096 4283847754
0.224895 0.042225402 1.094 4283255103
0.227843 0.0422226 1.094 4284505170
0.23058 0.042181101 1.0930001 4284768602
0.23352499 0.042178299 1.0930001 4282794552
0.23625299 0.0421368 1.092 4283715654
0.238975 0.0420954 1.091 4283846986
0.24191301 0.042092498 1.091 4284965721
0.244177 0.0419739 1.0880001 4284965467
0.24665201 0.041893899 1.086 4282399541
0.249345 0.0418525 1.085 4284636502
0.25226501 0.041849598 1.085 4285294433
0.25542 0.041885398 1.086 4284702810
0.25762901 0.0417668 1.0829999 4284571224
0.26030201 0.041725401 1.082 4283979087
0.26321301 0.041722599 1.082 4285623914
0.266123 0.041719802 1.082 4285492328
0.268038 0.041562699 1.0779999 4283386697
0.26993099 0.0414057 1.074 4284242775
0.27256501 0.041364402 1.073 4284703326
0.27570599 0.041400202 1.074 4285822321
0.27781501 0.041281801 1.071 4284045908
0.28043199 0.041240498 1.0700001 4283716431
0.28224799 0.0410836 1.066 4286479737
0.28484601 0.041042399 1.0650001 4285361256
0.28608599 0.040808499 1.059 4284834659
0.28920501 0.040844399 1.0599999 4284637278
0.292052 0.040841699 1.0599999 4285361256
0.29434401 0.0407621 1.058 4285295463
0.29606199 0.0406054 1.054 4284637531
0.298042 0.040487301 1.051 4284637531
0.30086499 0.0404847 1.051 4283913808
0.30311 0.040405199 1.049 4285164389
0.30446899 0.040210199 1.044 4285164389
0.30697799 0.040169202 1.043 4283848531
0.308887 0.0400513 1.04 4284176727
0.31138 0.0400104 1.039 4283716690
0.31296 0.039854001 1.035 4283585874
0.31482399 0.0397362 1.0319999 4283388495
0.31697899 0.039657 1.03 4283783253
0.31850299 0.039500698 1.026 4283651667
0.32031801 0.039383098 1.023 4282861897
0.32243299 0.039303899 1.021 4283585106
0.32421899 0.039186399 1.018 4283650897
0.32598901 0.039068799 1.015 4282927943
0.32677001 0.038835902 1.0089999 4282862404
0.327847 0.038641501 1.0039999 4282796611
0.32922599 0.038485698 1 4282993990
0.331247 0.0384068 0.99800003 4282861889
0.33325699 0.0383281 0.99599999 4283322440
0.33525699 0.0382494 0.99400002 4283782477
0.336907 0.038132198 0.991 4283321671
0.33888301 0.038053598 0.98900002 4283256392
0.341539 0.038052 0.98900002 4282795841
0.34419599 0.038050398 0.98900002 4284309080
0.34720299 0.038087402 0.99000001 4284111956
0.34951001 0.0380475 0.98900002 4283650121
0.35287899 0.038123 0.991 4282729273
0.35518301 0.038083199 0.99000001 4282202415
0.357483 0.038043398 0.98900002 4281544485
0.36086899 0.0381191 0.991 4281018654
0.36573401 0.038348701 0.99699998 4280689690
0.37284899 0.038809199 1.0089999 4280427032
0.379657 0.0392312 1.02 4280492825
0.390273 0.0400378 1.041 4280624411
0.402136 0.040959898 1.0650001 4280624666
0.41032499 0.041497398 1.079 4280756252
