# .PCD v0.7 - Point Cloud Data file format
VERSION 0.7
FIELDS x y z rgb
SIZE 4 4 4 4
TYPE F F F U
COUNT 1 1 1 1
WIDTH 1113
HEIGHT 1
VIEWPOINT 0 0 0 1 0 0 0
POINTS 1113
DATA ascii
0.351859 0.332643 0.93000001 4286413414
0.35440499 0.332672 0.93000001 4286084702
0.35733601 0.33306 0.93099999 4286216287
0.359115 0.33237499 0.92900002 4285953116
0.36166301 0.332407 0.92900002 4286216288
0.36421201 0.33243901 0.92900002 4286413152
0.36715701 0.33283001 0.93000001 4286479199
0.36931399 0.33250701 0.92900002 4286282323
0.37146699 0.33218399 0.92799997 4286479956
0.37361601 0.33186099 0.92699999 4285953367
0.376573 0.33225599 0.92799997 4285887833
0.37871999 0.331936 0.92699999 4286085212
0.38127401 0.331974 0.92699999 4285887576
0.38383001 0.33201399 0.92699999 4286084701
0.38680401 0.332412 0.92799997 4286216287
0.38894701 0.33209601 0.92699999 4286282081
0.39108601 0.33177999 0.926 4286676325
0.393646 0.33182299 0.926 4286676839
0.39663601 0.33222601 0.92699999 4285953116
0.39963299 0.33263001 0.92799997 4286084702
0.40263799 0.33303499 0.92900002 4285953116
0.404778 0.332724 0.92799997 4286413926
0.40691501 0.332414 0.92699999 4286479719
0.40904799 0.33210501 0.926 4286611305
0.41206601 0.33251399 0.92699999 4286940270
0.41464499 0.33256599 0.92699999 4287071854
0.417227 0.33261901 0.92699999 4287137649
0.41981 0.332674 0.92699999 4286677098
0.42194 0.33237001 0.926 4287137649
0.42498401 0.33278599 0.92699999 4286742891
0.427113 0.33248401 0.926 4287138422
0.430168 0.33290201 0.92699999 4286941298
0.43229601 0.33260301 0.926 4287072115
0.43583101 0.33338299 0.92799997 4287006322
0.437962 0.333087 0.92699999 4287269494
0.44056499 0.33315101 0.92699999 4287072370
0.44317099 0.33321601 0.92699999 4287335542
0.44578001 0.33328301 0.92699999 4287137908
0.44839099 0.33335099 0.92699999 4286677359
0.45003301 0.332701 0.92500001 4285888104
0.45215499 0.33241099 0.92400002 4284243287
0.45476699 0.33248299 0.92400002 4286414962
0.458372 0.333276 0.926 4287467397
0.460996 0.33335099 0.926 4287533180
0.46412301 0.33378801 0.92699999 4287073137
0.46675599 0.333866 0.92699999 4287401586
0.47040501 0.334665 0.92900002 4287598967
0.47305 0.33474699 0.92900002 4287335287
0.47621 0.33519 0.93000001 4287268980
0.478865 0.33527401 0.93000001 4287137910
0.48152399 0.33535999 0.93000001 4287006322
0.48418599 0.33544701 0.93000001 4287072629
0.48632801 0.33517501 0.92900002 4287862145
0.488994 0.33526599 0.92900002 4287927940
0.49166501 0.33535799 0.92900002 4287072884
0.49433899 0.33545199 0.92900002 4287401847
0.49755201 0.33590901 0.93000001 4287336056
-0.19920699 0.32234001 0.91000003 4287597187
-0.1974 0.32340199 0.91299999 4287531648
-0.194722 0.32304701 0.912 4287860613
-0.192261 0.32304701 0.912 4287400062
-0.190008 0.32340199 0.91299999 4287597441
-0.18733799 0.323048 0.912 4287465855
-0.18548501 0.32411101 0.91500002 4287531648
-0.18341599 0.32482001 0.917 4288847508
-0.181336 0.32552901 0.91900003 4288058245
-0.178662 0.325176 0.91799998 4288387208
-0.175993 0.32482299 0.917 4287860866
-0.173141 0.32411599 0.91500002 4288189831
-0.170672 0.324117 0.91500002 4287268727
-0.168203 0.32411799 0.91500002 4288321415
-0.166097 0.32482901 0.917 4288584589
-0.163444 0.324476 0.91600001 4288190091
-0.160973 0.324478 0.91600001 4287335297
-0.158502 0.32448 0.91600001 4285953905
-0.156541 0.325544 0.91900003 4289111969
-0.15389401 0.325192 0.91799998 4288914076
-0.151088 0.32448599 0.91600001 4289308319
-0.148454 0.32413399 0.91500002 4289374366
-0.14630499 0.32484499 0.917 4289637024
-0.143674 0.32449299 0.91600001 4289242779
-0.140894 0.323787 0.91399997 4289176987
-0.13827699 0.32343501 0.91299999 4289045915
-0.13611101 0.324146 0.91500002 4289045915
-0.133643 0.32414901 0.91500002 4289178015
-0.130887 0.323443 0.91299999 4289243810
-0.12786099 0.32202899 0.90899998 4287402121
-0.124719 0.32025999 0.90399998 4285954935
-0.122009 0.319554 0.90200001 4286020225
-0.119576 0.31955701 0.90200001 4285428085
-0.117532 0.32062301 0.90499997 4285559924
-0.115471 0.321688 0.90799999 4286612866
-0.11327 0.3224 0.91000003 4287665293
-0.110815 0.322402 0.91000003 4289046176
-0.10824 0.32205099 0.90899998 4289440675
-0.105904 0.32240799 0.91000003 4289308573
-0.103448 0.322411 0.91000003 4289834917
-0.100992 0.32241401 0.91000003 4289834402
-0.098320298 0.32170799 0.90799999 4289703070
-0.095658801 0.32100201 0.90600002 4289571230
-0.092802301 0.31958801 0.90200001 4289637023
-0.0898671 0.317819 0.89700001 4289571230
-0.087251402 0.31711301 0.89499998 4289702817
-0.084646396 0.316407 0.89300001 4289505184
-0.082052097 0.31570101 0.89099997 4289702817
-0.079200402 0.31393099 0.88599998 4289702563
-0.075768799 0.30968201 0.87400001 4289439906
-0.071478002 0.30153501 0.85100001 4289307815
-0.066661 0.290553 0.81999999 4290300390
-0.062639996 0.28240499 0.79699999 4291881983
-0.0600334 0.28028101 0.79100001 4281418850
-0.057312801 0.277448 0.78299999 4279246383
-0.055128701 0.277096 0.78200001 4286089362
-0.052814402 0.27603501 0.77899998 4286285208
-0.050776701 0.276391 0.77999997 4285890709
-0.048733599 0.27674699 0.78100002 4285890711
-0.046744701 0.277457 0.78299999 4286088090
-0.044516899 0.27675 0.78100002 4285891225
-0.042354301 0.27639699 0.77999997 4285891479
-0.040300202 0.27675301 0.78100002 4285694100
-0.038289599 0.27746299 0.78299999 4285759639
-0.036221899 0.27781901 0.78399998 4285825432
-0.034061801 0.277466 0.78299999 4285890456
-0.0319071 0.27711299 0.78200001 4285693593
-0.0297959 0.277114 0.78200001 4285825179
-0.027684599 0.27711499 0.78200001 4285890972
-0.0256387 0.277825 0.78399998 4286022560
-0.023552001 0.27818 0.78500003 4285956767
-0.0214599 0.27853501 0.78600001 4286022560
-0.019313101 0.278182 0.78500003 4285890974
-0.0171718 0.27782801 0.78399998 4285825181
-0.015055 0.27782899 0.78399998 4286088351
-0.0129547 0.278184 0.78500003 4286022558
-0.0108352 0.278184 0.78500003 4285693593
-0.0086934799 0.27747601 0.78299999 4285825179
-0.00657936 0.27747601 0.78299999 4285693593
-0.0044709402 0.27783099 0.78399998 4285956767
-0.0023571099 0.27818501 0.78500003 4285825179
-0.000238186 0.27889401 0.787 4285759386
0.00188914 0.279248 0.78799999 4285693595
0.00401677 0.279248 0.78799999 4285496216
0.0061365999 0.27889401 0.787 4285627800
0.00825103 0.278539 0.78600001 4285891231
0.0103864 0.27889299 0.787 4285759645
0.0124795 0.278184 0.78500003 4285628573
0.0146176 0.27853799 0.78600001 4286022817
0.0167611 0.278891 0.787 4285891231
0.01891 0.27924499 0.78799999 4285891229
0.021090901 0.279953 0.79000002 4285759643
0.023194499 0.279598 0.78899997 4285825438
0.025260501 0.27888799 0.787 4285825952
0.0273505 0.27853301 0.78600001 4285760160
0.029510001 0.27888599 0.787 4285759906
0.031675 0.279239 0.78799999 4285957285
0.033802401 0.27923799 0.78799999 4285760674
0.035884202 0.27888301 0.787 4285825952
0.0379606 0.27852699 0.78600001 4285431708
0.040184502 0.27923399 0.78799999 4285694880
0.042311799 0.27923301 0.78799999 4285760673
0.044382699 0.27887699 0.787 4285760673
0.046507198 0.27887499 0.787 4285760159
0.048631702 0.27887401 0.787 4285825953
0.050691701 0.27851701 0.78600001 4285956769
0.0528134 0.27851599 0.78600001 4285825953
0.0550748 0.27922201 0.78799999 4285760160
0.057274502 0.27957499 0.78899997 4285891745
0.059328899 0.279219 0.78799999 4285760159
0.061377902 0.278862 0.787 4285760673
0.0635828 0.27921501 0.78799999 4285694880
0.065709703 0.279212 0.78799999 4285694880
0.067836501 0.27921 0.78799999 4285694880
0.070052102 0.279562 0.78899997 4286023845
0.0721815 0.27956 0.78899997 4285694880
0.074405096 0.27991199 0.79000002 4285694880
0.0762465 0.27884701 0.787 4285694880
0.078470103 0.279199 0.78799999 4285563294
0.0806989 0.279551 0.78899997 4285694880
0.0831431 0.28061199 0.792 4285497501
0.085172698 0.28025499 0.79100001 4285629087
0.087196901 0.27989799 0.79000002 4285694880
0.089328699 0.27989599 0.79000002 4285694880
0.091460504 0.27989301 0.79000002 4286023331
0.093592197 0.27989101 0.79000002 4285825952
0.0954815 0.27917999 0.78799999 4285760673
0.097731702 0.27953199 0.78899997 4285629087
0.099987097 0.27988401 0.79000002 4285760673
0.102248 0.28023499 0.79100001 4285958053
0.104382 0.280233 0.79100001 4285760159
0.106382 0.27987599 0.79000002 4285957024
0.108513 0.279874 0.79000002 4285628573
0.110785 0.28022599 0.79100001 4285694367
0.113062 0.28057799 0.792 4285957539
0.115053 0.28022099 0.79100001 4285760160
0.117335 0.28057301 0.792 4285825699
0.119472 0.28057101 0.792 4285497248
0.121609 0.28056899 0.792 4285826981
0.123433 0.27985799 0.79000002 4285761188
0.12556399 0.279856 0.79000002 4285563809
0.12801901 0.28056201 0.792 4285563808
0.130484 0.28126901 0.79400003 4285497501
0.132627 0.28126699 0.79400003 4285694366
0.134599 0.280911 0.79299998 4285824926
0.13863499 0.28480601 0.80400002 4285692825
0.14623301 0.29578501 0.83499998 4285823888
0.157377 0.31349501 0.88499999 4285692825
0.16157 0.317036 0.89499998 4285626509
0.164901 0.31880501 0.89999998 4284638824
0.167887 0.31986701 0.903 4284769631
0.17089 0.32092801 0.90600002 4285558371
0.173908 0.321989 0.90899998 4285821536
0.17674901 0.32269701 0.91100001 4284966227
0.1796 0.32340401 0.91299999 4285163347
0.182064 0.323403 0.91299999 4285557851
0.18452799 0.323403 0.91299999 4285492571
0.18699101 0.32340199 0.91299999 4285689950
0.19007801 0.32446399 0.91600001 4285887329
0.19296999 0.32517299 0.91799998 4286150246
0.19587401 0.325881 0.92000002 4285887329
0.198357 0.325881 0.92000002 4285228372
0.20084 0.32588199 0.92000002 4284965454
0.20354401 0.32623699 0.921 4284767558
0.20603 0.32623699 0.921 4285096778
0.20829 0.32588401 0.92000002 4285294157
0.210774 0.32588601 0.92000002 4285294672
0.21372101 0.32659599 0.92199999 4285163346
0.215977 0.32624301 0.921 4286018141
0.218464 0.32624501 0.921 4286149728
0.22071099 0.32589301 0.92000002 4285820509
0.22343799 0.32624999 0.921 4284636235
0.225926 0.326253 0.921 4285688672
0.22891 0.32696399 0.92299998 4286215267
0.231905 0.327676 0.92500001 4286018141
0.23491099 0.32838801 0.92699999 4285557844
0.237416 0.328392 0.92699999 4285820501
0.23966201 0.328042 0.926 4286017625
0.24190301 0.32769299 0.92500001 4285821016
0.244404 0.32769701 0.92500001 4285886809
0.247172 0.32805699 0.926 4285426004
0.249136 0.32735401 0.92400002 4285820246
0.251362 0.32700601 0.92299998 4285755223
0.25385901 0.327012 0.92299998 4285952348
0.25663301 0.327373 0.92400002 4285886041
0.25941399 0.32773399 0.92500001 4286084187
0.2622 0.328096 0.926 4285689430
0.26470599 0.32810399 0.926 4285820753
0.26778999 0.328821 0.92799997 4285820248
0.27001101 0.32847601 0.92699999 4286148960
0.272228 0.32813001 0.926 4285754453
0.27473599 0.32813999 0.926 4286149213
0.27754399 0.328504 0.92699999 4285952348
0.28096199 0.32957801 0.93000001 4285886555
0.283178 0.32923499 0.92900002 4286149727
0.28538901 0.32889199 0.92799997 4286281313
0.287595 0.328549 0.92699999 4286609765
0.29010901 0.32856199 0.92699999 4286149214
0.292624 0.32857499 0.92699999 4286214500
0.294503 0.32787901 0.92500001 4286215007
0.29701301 0.32789299 0.92500001 4286215007
0.299849 0.328262 0.926 4286149214
0.30269 0.328632 0.92699999 4286412386
0.30520901 0.32864699 0.92699999 4286149474
0.30805999 0.329018 0.92799997 4286478439
0.31091699 0.32938901 0.92900002 4286741611
0.31344301 0.32940701 0.92900002 4286346853
0.31562999 0.32907 0.92799997 4286215267
0.31815499 0.32908899 0.92799997 4286610279
0.32068101 0.329108 0.92799997 4286741864
0.32390499 0.32983699 0.93000001 4286413160
0.32643801 0.32985801 0.93000001 4286611046
0.32932699 0.33023399 0.93099999 4286479197
0.33150801 0.32990101 0.93000001 4286347611
0.33368501 0.32956901 0.92900002 4286675808
0.33549601 0.32888201 0.92699999 4286806880
0.338027 0.328906 0.92699999 4286872675
0.34019101 0.328576 0.926 4286675296
0.34235001 0.328246 0.92500001 4286412383
0.344879 0.32827201 0.92500001 4286478176
0.34703201 0.32794401 0.92400002 4286281566
0.350317 0.32868099 0.926 4286347359
0.35285199 0.32870999 0.926 4286216287
0.35538799 0.32873899 0.926 4286084701
0.357925 0.328769 0.926 4285689944
0.36085299 0.32915401 0.92699999 4286478946
0.36339501 0.32918599 0.92699999 4286280797
0.365545 0.32886299 0.926 4286609503
0.36769 0.32854101 0.92500001 4286674780
0.369831 0.32822001 0.92400002 4287003999
0.37237099 0.328255 0.92400002 4286346329
0.37491301 0.32828999 0.92400002 4286281304
0.37745699 0.328327 0.92400002 4286083157
0.37959 0.32800901 0.92299998 4286346329
0.38213399 0.32804799 0.92299998 4286083411
0.385097 0.32844299 0.92400002 4286543962
0.38806599 0.32883799 0.92500001 4286281052
0.39019901 0.32852399 0.92400002 4286281050
0.39275199 0.328567 0.92400002 4286412636
0.39488 0.32825401 0.92299998 4286281566
0.397865 0.32865399 0.92400002 4286281566
0.40042499 0.32870001 0.92400002 4285821530
0.40298599 0.32874599 0.92400002 4286282081
0.40511 0.32843801 0.92299998 4286149988
0.407673 0.328486 0.92299998 4285887323
0.41068199 0.32889199 0.92400002 4286150494
0.413252 0.328942 0.92400002 4286216541
0.415373 0.32863799 0.92299998 4286347874
0.417945 0.32869101 0.92299998 4286347874
0.42006299 0.32838899 0.92199999 4286348133
0.423094 0.32879999 0.92299998 4286545512
0.42567199 0.328857 0.92299998 4286282085
0.42871699 0.32927099 0.92400002 4286018913
0.43083599 0.328973 0.92299998 4286742636
0.433891 0.32938999 0.92400002 4286874469
0.43648201 0.32945099 0.92400002 4287006061
0.43907601 0.329514 0.92400002 4287071596
0.441194 0.32922101 0.92299998 4286940268
0.444271 0.32964301 0.92400002 4287137649
0.44735599 0.330066 0.92500001 4287335028
0.448991 0.32942 0.92299998 4286414954
0.45061699 0.328776 0.921 4285427807
0.453219 0.32884601 0.921 4284440413
0.45730901 0.32998899 0.92400002 4286941053
0.46042299 0.33041999 0.92500001 4287270524
0.463045 0.330495 0.92500001 4287336054
0.465168 0.33021399 0.92400002 4287467893
0.46830001 0.33064899 0.92500001 4287467387
0.471441 0.33108601 0.926 4287598975
0.475104 0.331882 0.92799997 4287532668
0.47775099 0.331965 0.92799997 4287269496
0.47988501 0.331691 0.92699999 4287203956
0.482016 0.33141899 0.926 4287269747
0.48362201 0.33079001 0.92400002 4287335542
0.48627201 0.330879 0.92400002 4288255631
0.48892701 0.33096901 0.92400002 4287663999
0.49158499 0.33106101 0.92400002 4287533182
0.49531701 0.331871 0.926 4287598975
0.497989 0.331967 0.926 4287467389
-0.19855 0.318829 0.90700001 4286743937
-0.19653501 0.31953201 0.90899998 4286546042
-0.194295 0.31988299 0.91000003 4287466885
-0.19162799 0.31953201 0.90899998 4288124045
-0.18917499 0.31953201 0.90899998 4287137150
-0.186517 0.319181 0.90799999 4287137150
-0.18426999 0.319534 0.90899998 4288585111
-0.182217 0.32023799 0.91100001 4288058252
-0.180154 0.32094201 0.91299999 4288189838
-0.17769 0.320943 0.91299999 4288848536
-0.175035 0.320593 0.912 4288256654
-0.172196 0.31989101 0.91000003 4287269759
-0.169554 0.31954101 0.90899998 4287664517
-0.16710199 0.319543 0.90899998 4288322447
-0.164831 0.31989601 0.91000003 4287862157
-0.162019 0.319195 0.90799999 4286282870
-0.15974499 0.31954899 0.90899998 4286217847
-0.157812 0.32060599 0.912 4288323223
-0.155862 0.32166201 0.91500002 4288981153
-0.152891 0.32060999 0.912 4289374882
-0.15009999 0.31990901 0.91000003 4289374366
-0.147808 0.320263 0.91100001 4289769124
-0.145669 0.32096899 0.91299999 4289834403
-0.143049 0.32062 0.912 4289966502
-0.14027999 0.31992 0.91000003 4289637537
-0.137674 0.31957099 0.90899998 4289637538
-0.135221 0.319574 0.90899998 4289769638
-0.132769 0.319576 0.90899998 4289638566
-0.130317 0.31957901 0.90899998 4289638566
-0.127583 0.31887901 0.90700001 4289573028
-0.124584 0.317476 0.903 4288783004
-0.121877 0.31677499 0.90100002 4288191637
-0.119181 0.316075 0.89899999 4289046693
-0.116885 0.31643 0.89999998 4288191383
-0.114457 0.31643301 0.89999998 4285296745
-0.112277 0.317139 0.90200001 4286348665
-0.110087 0.31784499 0.90399998 4285690219
-0.107886 0.318551 0.90600002 4288387471
-0.105557 0.31890601 0.90700001 4289571744
-0.10311 0.31890801 0.90700001 4289374105
-0.100551 0.31856 0.90600002 4289505689
-0.097998202 0.31821099 0.90499997 4289439896
-0.0952392 0.317159 0.90200001 4289374105
-0.092496403 0.316107 0.89899999 4289768863
-0.089669399 0.31470299 0.89499998 4289768863
-0.087156497 0.31435499 0.89399999 4289637023
-0.0843646 0.312951 0.88999999 4289637024
-0.0817784 0.31224999 0.88800001 4289900195
-0.079024203 0.310846 0.884 4289834403
-0.0756846 0.306981 0.87300003 4289571491
-0.071564399 0.29959899 0.852 4289638576
-0.0669071 0.28940299 0.82300001 4290892528
-0.062484901 0.27956 0.79500002 4291948031
-0.059731901 0.27674901 0.787 4288591315
-0.057241499 0.27499199 0.78200001 4286352810
-0.055130601 0.27499399 0.78200001 4285825436
-0.052884098 0.27429301 0.77999997 4285890711
-0.0508436 0.27464601 0.78100002 4286088090
-0.048735298 0.27464801 0.78100002 4285824918
-0.046746399 0.27535301 0.78299999 4285891225
-0.044632599 0.27535501 0.78299999 4286022811
-0.042410102 0.27465299 0.78100002 4285825686
-0.040404901 0.27535799 0.78299999 4285957018
-0.0383888 0.276063 0.78500003 4286022042
-0.036315698 0.276416 0.78600001 4285890456
-0.034106601 0.27571401 0.78399998 4285825181
-0.0319083 0.27501199 0.78200001 4285890974
-0.029835099 0.275365 0.78299999 4286154146
-0.0277211 0.27536601 0.78299999 4286285732
-0.0256724 0.27607 0.78500003 4285562009
-0.0235829 0.27642301 0.78600001 4285825179
-0.021488 0.27677599 0.787 4285956765
-0.0193139 0.27607301 0.78500003 4286022560
-0.017194301 0.27607399 0.78500003 4285825181
-0.015094 0.27642599 0.78600001 4286088351
-0.0130047 0.27713001 0.78799999 4285956765
-0.0108632 0.276779 0.787 4285825179
-0.00871603 0.27607599 0.78500003 4285759386
-0.00659642 0.27607599 0.78500003 4285890972
-0.0044825198 0.27642801 0.78600001 4285825181
-0.0023632101 0.27678001 0.787 4285693852
-0.000238195 0.27678001 0.787 4285825438
0.00188922 0.27713099 0.78799999 4285627802
0.0040118298 0.27678001 0.787 4285891231
0.00614464 0.27713099 0.78799999 4285693850
0.0082723396 0.27713099 0.78799999 4285825438
0.0104132 0.277482 0.78899997 4285825438
0.0125277 0.27713001 0.78799999 4285759645
0.0146554 0.27712899 0.78799999 4285693852
0.016804401 0.27748099 0.78899997 4285759645
0.018982699 0.27818301 0.79100001 4285891229
0.0211451 0.278534 0.792 4285957022
0.0232247 0.27783 0.79000002 4285957024
0.025293499 0.27712601 0.78799999 4285496987
0.0273863 0.27677301 0.787 4285694366
0.029548701 0.277123 0.78799999 4285825953
0.031676199 0.27712199 0.78799999 4285760160
0.033803701 0.27712101 0.78799999 4285562780
0.035885502 0.276768 0.787 4285760159
0.038058601 0.277118 0.78799999 4285760673
0.040185999 0.27711701 0.78799999 4285694880
0.042367 0.27746701 0.78899997 4285826466
0.044497099 0.27746499 0.78899997 4285825952
0.0467452 0.27816701 0.79100001 4285957538
0.048818801 0.277814 0.79000002 4285957539
0.050951399 0.277812 0.79000002 4285562781
0.0530168 0.27745801 0.78899997 4285760160
0.055216599 0.27780801 0.79000002 4285825952
0.057421599 0.27815801 0.79100001 4285365915
0.059481502 0.27780399 0.79000002 4285957538
0.061613899 0.27780199 0.79000002 4285694880
0.063746303 0.27779999 0.79000002 4285563294
0.065962002 0.27814901 0.79100001 4285892259
0.068010896 0.27779499 0.79000002 4285497501
0.0702319 0.27814499 0.79100001 4285958052
0.072366796 0.27814201 0.79100001 4285563294
0.074501596 0.27814001 0.79100001 4285563294
0.076442704 0.27743399 0.78899997 4285892259
0.078571998 0.27743199 0.78899997 4285694880
0.080803603 0.27778101 0.79000002 4285366430
0.083145499 0.27848199 0.792 4285563809
0.085282803 0.27847901 0.792 4285563555
0.087420098 0.27847701 0.792 4285498016
0.089557298 0.278474 0.792 4285826466
0.0915787 0.27812001 0.79100001 4285694880
0.0935947 0.27776599 0.79000002 4285629087
0.095605202 0.277412 0.78899997 4285694880
0.098105803 0.27846399 0.792 4285563295
0.100369 0.278813 0.79299998 4285760674
0.102638 0.27916199 0.79400003 4285629088
0.104517 0.278456 0.792 4285694367
0.106654 0.27845299 0.792 4285957538
0.108653 0.278099 0.79100001 4285496988
0.111067 0.27880001 0.79299998 4285628574
0.11335 0.279149 0.79400003 4285891746
0.115492 0.279147 0.79400003 4285629088
0.117634 0.27914399 0.79400003 4285497248
0.119776 0.27914199 0.79400003 4285760674
0.121765 0.278788 0.79299998 4285629602
0.123748 0.27843401 0.792 4285498016
0.125726 0.27807999 0.79100001 4285563808
0.12818301 0.278781 0.79299998 4285432222
0.13048699 0.27913001 0.79400003 4285826466
0.13262901 0.27912799 0.79400003 4285891745
0.134771 0.27912599 0.79400003 4285693340
0.13863701 0.28264001 0.80400002 4285495446
0.146761 0.29459 0.838 4285626511
0.15773501 0.311813 0.88700002 4285495446
0.16103099 0.31356901 0.89200002 4285297546
0.16417 0.314973 0.89600003 4283915091
0.167331 0.316378 0.89999998 4284571216
0.170325 0.317431 0.903 4284899927
0.173335 0.31848401 0.90600002 4285163606
0.17616799 0.319186 0.90799999 4284768848
0.179011 0.31988701 0.91000003 4284571210
0.181666 0.32023799 0.91100001 4285294933
0.18412399 0.32023701 0.91100001 4284769101
0.186582 0.320236 0.91100001 4284966225
0.189041 0.32023501 0.91100001 4284768848
0.19213 0.321289 0.91399997 4285360730
0.194809 0.321641 0.91500002 4285624157
0.19727799 0.321641 0.91500002 4285096786
0.199311 0.32093799 0.91299999 4284570182
0.201997 0.321289 0.91399997 4284701765
0.205135 0.32234401 0.917 4284702020
0.20761 0.32234499 0.917 4284702535
0.209856 0.32199499 0.91600001 4284965453
0.212561 0.32234699 0.917 4285097039
0.214802 0.32199699 0.91600001 4285557590
0.21775 0.32270199 0.91799998 4285689177
0.219989 0.32235199 0.917 4284767821
0.22295099 0.323057 0.91900003 4285228626
0.224942 0.322357 0.917 4284833361
0.227915 0.323062 0.91900003 4285886302
0.23089901 0.323769 0.921 4285952338
0.234147 0.324826 0.92400002 4285557581
0.236387 0.324478 0.92299998 4285491536
0.23862299 0.32413101 0.92199999 4285688660
0.24111401 0.32413501 0.92199999 4285754969
0.243606 0.324139 0.92199999 4285689176
0.245832 0.32379299 0.921 4285360465
0.248052 0.32344601 0.92000002 4285360211
0.250267 0.3231 0.91900003 4286215520
0.25330299 0.323809 0.921 4286215520
0.25579399 0.323816 0.921 4286149727
0.25856501 0.32417399 0.92199999 4285887323
0.261343 0.324532 0.92299998 4285623897
0.263841 0.32453999 0.92299998 4286149727
0.266339 0.32454801 0.92299998 4286149728
0.268837 0.32455599 0.92299998 4285426005
0.27133599 0.32456401 0.92299998 4285557591
0.274133 0.32492501 0.92400002 4285491798
0.27663499 0.32493499 0.92400002 4285689177
0.27974299 0.32564801 0.926 4285689691
0.28225201 0.32565799 0.926 4285492312
0.284455 0.32531801 0.92500001 4285886556
0.286342 0.324626 0.92299998 4285557337
0.288845 0.324637 0.92299998 4285688923
0.29134801 0.32464999 0.92299998 4285754716
0.29321599 0.32395899 0.921 4286149474
0.295715 0.323973 0.921 4285886302
0.29853901 0.32433799 0.92199999 4285886302
0.30136901 0.32470399 0.92299998 4285886302
0.30387601 0.32471901 0.92299998 4285952610
0.306716 0.32508701 0.92400002 4285821024
0.309562 0.32545501 0.92500001 4285689437
0.311739 0.32511899 0.92400002 4286083681
0.313912 0.32478499 0.92299998 4286149727
0.316423 0.32480299 0.92299998 4286084188
0.31928 0.32517299 0.92400002 4285821015
0.322144 0.325544 0.92500001 4286281052
0.325014 0.32591599 0.926 4286281052
0.32789001 0.32628801 0.92699999 4286214492
0.33006099 0.32595801 0.926 4286543710
0.33222601 0.325627 0.92500001 4286543708
0.334387 0.32529801 0.92400002 4286741087
0.33654401 0.32496899 0.92299998 4286675296
0.33869699 0.32464001 0.92199999 4286411610
0.34084499 0.32431301 0.921 4286543708
0.34336099 0.32433799 0.921 4286872673
0.34587899 0.32436401 0.921 4286741087
0.34877601 0.324743 0.92199999 4286412636
0.35129899 0.32477 0.92199999 4286084441
0.35382301 0.32479799 0.92199999 4286544738
0.35634899 0.32482699 0.92199999 4286610532
0.359265 0.32520899 0.92299998 4286413153
0.361404 0.32488701 0.92199999 4286675041
0.36353901 0.32456601 0.921 4286740575
0.36527199 0.32389399 0.91900003 4286674782
0.367796 0.32392699 0.91900003 4286346331
0.37032199 0.32396099 0.91900003 4286675296
0.37325501 0.324348 0.92000002 4286477917
0.37578601 0.32438299 0.92000002 4286346329
0.378319 0.32442001 0.92000002 4285951571
0.38044 0.32410499 0.91900003 4286412376
0.38339001 0.324496 0.92000002 4286346331
0.38634801 0.32488799 0.921 4286346590
0.38889101 0.32492799 0.921 4286478431
0.39100999 0.324617 0.92000002 4286281050
0.39312601 0.32430601 0.91900003 4286215257
0.395668 0.32434899 0.91900003 4286149464
0.398646 0.32474601 0.92000002 4286017878
0.401631 0.32514501 0.921 4286281050
0.40462399 0.325544 0.92199999 4286215257
0.406299 0.32488501 0.92000002 4286149204
0.40885499 0.32493299 0.92000002 4286478168
0.411412 0.324983 0.92000002 4286543448
0.41397199 0.32503399 0.92000002 4286412376
0.41698599 0.32543901 0.921 4286149464
0.41909701 0.325138 0.92000002 4286346845
0.421664 0.325192 0.92000002 4286478945
0.42423201 0.32524699 0.92000002 4286150494
0.42726699 0.32565701 0.921 4286215773
0.42890999 0.32500699 0.91900003 4286544749
0.43195301 0.32541999 0.92000002 4286151254
0.434531 0.32548001 0.92000002 4286545496
0.43758699 0.32589501 0.921 4286150746
0.44065201 0.32631099 0.92199999 4285953628
0.442763 0.32602099 0.921 4285756249
0.44583899 0.32644001 0.92199999 4285821789
0.44746399 0.32579899 0.92000002 4285558878
0.44907999 0.325158 0.91799998 4285493600
0.45118001 0.324873 0.917 4284900703
0.45476201 0.32565099 0.91900003 4286217332
0.458359 0.32643199 0.921 4287271796
0.46196899 0.327214 0.92299998 4287271788
0.46408501 0.32693499 0.92199999 4287599489
0.46720999 0.32736599 0.92299998 4287204731
0.46932599 0.32708901 0.92199999 4287533182
0.47297499 0.327878 0.92400002 4287927940
0.475095 0.327604 0.92299998 4287204217
0.47773001 0.32768601 0.92299998 4287269494
0.47932801 0.32706001 0.921 4287335028
0.481442 0.32679 0.92000002 4287336299
0.48460501 0.327232 0.921 4287663233
0.48724899 0.32732001 0.921 4288387218
0.49042901 0.327766 0.92199999 4287466622
0.49415299 0.32856899 0.92400002 4287795840
0.49681801 0.32866299 0.92400002 4287598975
0.499486 0.328758 0.92400002 4287533182
-0.19900399 0.313241 0.898 4284639339
-0.197237 0.31428799 0.90100002 4285033580
-0.195454 0.31533399 0.90399998 4285888628
-0.193441 0.31603199 0.90600002 4285295975
-0.190786 0.31568399 0.90499997 4286808185
-0.188136 0.31533599 0.90399998 4287860873
-0.185491 0.31498799 0.903 4286413942
-0.183257 0.31533799 0.90399998 4286545528
-0.181218 0.316037 0.90600002 4286150770
-0.179168 0.31673601 0.90799999 4286217077
-0.176718 0.316737 0.90799999 4287928718
-0.17426901 0.31673899 0.90799999 4287994258
-0.17163 0.316392 0.90700001 4286810237
-0.169183 0.316394 0.90700001 4287337094
-0.16655201 0.31604701 0.90600002 4287796879
-0.163746 0.31535101 0.90399998 4287139463
-0.16095001 0.31465599 0.90200001 4286218361
-0.158868 0.31535599 0.90399998 4286020468
-0.156776 0.31605601 0.90600002 4287796879
-0.154502 0.316407 0.90700001 4288848283
-0.151887 0.31606099 0.90600002 4289243033
-0.149443 0.31606299 0.90600002 4289242780
-0.146999 0.316066 0.90600002 4289440159
-0.144555 0.31606901 0.90600002 4289769124
-0.142111 0.316071 0.90600002 4289571745
-0.139512 0.31572601 0.90499997 4289768870
-0.137071 0.31572801 0.90499997 4289834663
-0.13448 0.315382 0.90399998 4289967017
-0.13204201 0.31538501 0.90399998 4289901224
-0.129603 0.31538799 0.90399998 4289769638
-0.12716401 0.31539199 0.90399998 4289703847
-0.124587 0.31504601 0.903 4289638054
-0.12188 0.31435099 0.90100002 4289374880
-0.119184 0.313656 0.89899999 4289440926
-0.116498 0.312962 0.89700001 4289375135
-0.114205 0.31331399 0.898 4288914076
-0.111658 0.31296799 0.89700001 4288782490
-0.109237 0.312971 0.89700001 4289110941
-0.107055 0.31367201 0.89899999 4289702817
-0.104862 0.31437299 0.90100002 4289900196
-0.102545 0.31472501 0.90200001 4289834656
-0.099888504 0.31402999 0.89999998 4289768861
-0.097243197 0.313335 0.898 4289966240
-0.094608597 0.31264001 0.89600003 4290032033
-0.092087701 0.31229401 0.89499998 4289966242
-0.089371704 0.31125 0.89200002 4290032035
-0.0868669 0.310904 0.89099997 4289768610
-0.0841778 0.30985999 0.88800001 4289637024
-0.081412703 0.308467 0.884 4289768610
-0.078669198 0.30707401 0.88 4289769124
-0.075600401 0.30428499 0.87199998 4289375649
-0.071734801 0.29800701 0.85399997 4289376425
-0.067071997 0.287889 0.82499999 4291025911
-0.062565699 0.27777201 0.796 4291159039
-0.059734002 0.27463299 0.787 4288657881
-0.057390001 0.27358899 0.78399998 4286091436
-0.055203099 0.273242 0.78299999 4285957538
-0.053089399 0.27324399 0.78299999 4285759386
-0.050975699 0.27324599 0.78299999 4285759639
-0.048861898 0.27324799 0.78299999 4285891225
-0.046807799 0.27359799 0.78399998 4285825433
-0.044691201 0.27360001 0.78399998 4285825433
-0.042574599 0.27360201 0.78399998 4285825432
-0.040561199 0.27430099 0.78600001 4285628053
-0.038488101 0.274652 0.787 4286219421
-0.036317099 0.274304 0.78600001 4286153630
-0.034107901 0.273608 0.78399998 4285562009
-0.031909499 0.27291101 0.78200001 4286088353
-0.029874399 0.27361 0.78399998 4285890974
-0.027793 0.27395999 0.78500003 4285759645
-0.0257388 0.27465999 0.787 4286154403
-0.0235838 0.27431199 0.78600001 4285627800
-0.0214343 0.273963 0.78500003 4285825179
-0.0193146 0.27396399 0.78500003 4285956765
-0.0172169 0.27431399 0.78600001 4285956765
-0.0150946 0.274315 0.78600001 4285956765
-0.0129887 0.27466401 0.787 4286022558
-0.0108637 0.274665 0.787 4285693852
-0.0087274797 0.27431601 0.78600001 4285825438
-0.0066135 0.274665 0.787 4285825438
-0.0044884002 0.27466601 0.787 4285825438
-0.00236631 0.275015 0.78799999 4285760159
-0.00023881 0.27536401 0.78899997 4285628573
0.00189169 0.27536401 0.78899997 4285760159
0.00401199 0.27466601 0.787 4285760159
0.00612929 0.27431601 0.78600001 4285694366
0.0082621798 0.274665 0.787 4285496987
0.0104401 0.276061 0.79100001 4285628573
0.0125759 0.27605999 0.79100001 4285891231
0.0146932 0.275711 0.79000002 4285825436
0.0168263 0.27570999 0.79000002 4285890974
0.0189835 0.27605799 0.79100001 4285891229
0.021145999 0.276407 0.792 4285957022
0.0232551 0.276057 0.79100001 4285957022
0.0253908 0.27605599 0.79100001 4286089124
0.0274918 0.27570599 0.79000002 4285629087
0.0295873 0.27535599 0.78899997 4285760159
0.031717598 0.275354 0.78899997 4285825952
0.033805002 0.275004 0.78799999 4285760413
0.035978101 0.275352 0.78899997 4285694620
0.038059998 0.27500099 0.78799999 4285891999
0.040289499 0.27569801 0.79000002 4285891745
0.042475998 0.27604499 0.79100001 4285760159
0.044611499 0.276043 0.79100001 4285760159
0.046746999 0.27604201 0.79100001 4285825952
0.048944201 0.276389 0.792 4285694367
0.051082298 0.27638701 0.792 4285694367
0.053153101 0.27603599 0.79100001 4285563295
0.055218499 0.27568501 0.79000002 4285958053
0.057496302 0.27638099 0.792 4285957538
0.059558898 0.27603 0.79100001 4286023331
0.061772101 0.27637699 0.792 4285629087
0.063909903 0.27637401 0.792 4285694366
0.0661311 0.276721 0.79299998 4285957538
0.068185396 0.27636999 0.792 4285694366
0.070411898 0.27671599 0.79299998 4285694366
0.072460704 0.27636501 0.792 4285628573
0.074598297 0.276362 0.792 4285234329
0.076541997 0.275662 0.79000002 4285563808
0.0787737 0.27600801 0.79100001 4285629602
0.080908403 0.27600601 0.79100001 4285695141
0.083148099 0.27635199 0.792 4285695141
0.085285403 0.27634999 0.792 4285497762
0.087533101 0.276696 0.79299998 4285629348
0.089560002 0.276344 0.792 4285695395
0.091581397 0.27599299 0.79100001 4285629088
0.0935973 0.27564099 0.79000002 4285694880
0.095729001 0.27563801 0.79000002 4285563294
0.098232299 0.27668199 0.79299998 4285760673
0.100499 0.27702799 0.79400003 4285760673
0.1029 0.277724 0.796 4285629088
0.104783 0.27702299 0.79400003 4285431708
0.106791 0.27667099 0.79299998 4285497501
0.10893 0.276669 0.79299998 4285629087
0.11121 0.277015 0.79400003 4285563294
0.113352 0.27701199 0.79400003 4285563295
0.11564 0.277358 0.79500002 4285629087
0.117785 0.277356 0.79500002 4285563294
0.119779 0.277004 0.79400003 4285431708
0.121921 0.27700201 0.79400003 4285432222
0.124063 0.276999 0.79400003 4285760673
0.126046 0.27664801 0.79299998 4285629601
0.128185 0.276645 0.79299998 4285563808
0.13048901 0.27699199 0.79400003 4285760159
0.132631 0.27699 0.79400003 4285759645
0.135112 0.27768499 0.796 4285562007
0.139156 0.28152001 0.80699998 4285494932
0.14746299 0.29372799 0.84200001 4285494932
0.157915 0.30977201 0.88800001 4285494932
0.160852 0.310817 0.89099997 4285428109
0.16380601 0.31186101 0.89399999 4284177496
0.166775 0.312906 0.89700001 4284176718
0.169761 0.31395 0.89999998 4284637262
0.17238 0.31429699 0.90100002 4285031761
0.175199 0.31499299 0.903 4284965968
0.178029 0.31569001 0.90499997 4284373830
0.180869 0.31638601 0.90700001 4284965707
0.18331701 0.316385 0.90700001 4284768328
0.185559 0.316035 0.90600002 4284900174
0.188004 0.31603399 0.90600002 4284834639
0.190659 0.31638199 0.90700001 4285163606
0.193745 0.31742799 0.91000003 4285096786
0.196201 0.31742701 0.91000003 4284965200
0.198438 0.31707799 0.90899998 4284175424
0.201112 0.31742701 0.91000003 4284241217
0.204016 0.31812501 0.912 4284504388
0.20693 0.31882301 0.91399997 4284439110
0.209168 0.31847501 0.91299999 4284570696
0.21186499 0.31882399 0.91399997 4284833868
0.21409699 0.318477 0.91299999 4284899146
0.2168 0.318827 0.91399997 4285426005
0.219267 0.31882799 0.91399997 4284176452
0.221735 0.31883001 0.91399997 4284834635
0.223958 0.318483 0.91299999 4284768841
0.22691999 0.31918299 0.91500002 4285427025
0.229893 0.31988299 0.917 4285360716
0.23312999 0.32093301 0.92000002 4285163337
0.235103 0.32023799 0.91799998 4285425741
0.236807 0.319195 0.91500002 4285491536
0.23901799 0.31885001 0.91399997 4285491281
0.241752 0.31920299 0.91500002 4285360211
0.244225 0.31920701 0.91500002 4285622869
0.24669901 0.31921199 0.91500002 4285097040
0.24944501 0.31956601 0.91600001 4286216035
0.25192201 0.31957099 0.91600001 4286413671
0.25467601 0.31992599 0.917 4286282085
0.25687599 0.319583 0.91600001 4286545257
0.259637 0.31993899 0.917 4286479464
0.261832 0.31959701 0.91600001 4286676843
0.26488799 0.32030201 0.91799998 4286150242
0.26708201 0.31996101 0.917 4286018656
0.269858 0.32031801 0.91799998 4286150242
0.27234399 0.320326 0.91799998 4285821023
0.27483001 0.320335 0.91799998 4286084195
0.277316 0.32034501 0.91799998 4285952863
0.280108 0.320703 0.91900003 4285952609
0.282906 0.32106301 0.92000002 4285689437
0.2854 0.32107401 0.92000002 4285952609
0.28789401 0.32108501 0.92000002 4285886816
0.29007301 0.320748 0.91900003 4285886303
0.29192901 0.32006201 0.917 4286215268
0.29473901 0.32042399 0.91799998 4285623131
0.29723001 0.32043701 0.91799998 4285557852
0.30004901 0.32080001 0.91900003 4285886817
0.302544 0.32081401 0.91900003 4285886817
0.305704 0.321527 0.921 4285492059
0.30854201 0.32189199 0.92199999 4285623644
0.31037301 0.32121 0.92000002 4285755230
0.31219399 0.320528 0.91799998 4285558104
0.31434801 0.320196 0.917 4285755737
0.31718799 0.32056299 0.91799998 4286018394
0.32003501 0.32093 0.91900003 4285821016
0.322537 0.32094899 0.91900003 4286083673
0.325748 0.321668 0.921 4285820501
0.32790101 0.32133901 0.92000002 4286280538
0.33004999 0.32100999 0.91900003 4286214745
0.332194 0.320683 0.91799998 4285885780
0.33433399 0.320355 0.917 4285951573
0.33683601 0.32037801 0.917 4286346331
0.33934 0.320402 0.917 4285952087
0.34221801 0.32077599 0.91799998 4286083418
0.34435099 0.32045099 0.917 4286083673
0.347615 0.32117599 0.91900003 4286544224
0.35012901 0.32120299 0.91900003 4286281566
0.352644 0.32122999 0.91900003 4286347106
0.354774 0.32090899 0.91799998 4286281313
0.35728899 0.32093799 0.91799998 4286017628
0.35941401 0.320618 0.917 4286149213
0.361929 0.32064801 0.917 4286740836
0.36364999 0.31998 0.91500002 4286412376
0.366162 0.320012 0.91500002 4286543971
0.36867601 0.32004499 0.91500002 4286478178
0.37159699 0.32042801 0.91600001 4286346590
0.37411699 0.320463 0.91600001 4286544224
0.376638 0.320499 0.91600001 4286281304
0.379161 0.320535 0.91600001 4286675548
0.38210201 0.32092199 0.917 4286675808
0.38463101 0.320961 0.917 4286478945
0.38716099 0.32100001 0.917 4286543969
0.38969401 0.32104 0.917 4286807396
0.39137301 0.32038099 0.91500002 4286478431
0.39390299 0.32042301 0.91500002 4286478429
0.39643499 0.32046601 0.91500002 4286281050
0.39984199 0.32121101 0.917 4286215511
0.40282199 0.32160601 0.91799998 4286149204
0.404486 0.320952 0.91600001 4286214997
0.40658501 0.32064801 0.91500002 4286280276
0.409127 0.32069701 0.91500002 4286280275
0.41167101 0.320746 0.91500002 4285951825
0.414671 0.32114699 0.91600001 4285754446
0.41722199 0.32119799 0.91600001 4286148952
0.42023501 0.32160199 0.917 4285952087
0.422333 0.32130501 0.91600001 4285755222
0.42442799 0.32100901 0.91500002 4285952338
0.42651901 0.320714 0.91399997 4286018384
0.429077 0.32077199 0.91399997 4286018132
0.43258199 0.32153201 0.91600001 4286346583
0.435626 0.32194301 0.917 4286280285
0.438678 0.322355 0.91799998 4286083671
0.441257 0.322418 0.91799998 4286215763
0.44335601 0.32212999 0.917 4286412889
0.44496599 0.32149199 0.91500002 4286150487
0.447056 0.32120699 0.91399997 4286084701
0.44963601 0.321275 0.91399997 4285427292
0.453208 0.32204601 0.91600001 4284901977
0.456296 0.32246801 0.917 4287271038
0.459894 0.32324401 0.91900003 4287599238
0.461997 0.322965 0.91799998 4287401859
0.46510899 0.323392 0.91900003 4286941559
0.46721199 0.323116 0.91799998 4287664768
0.47084799 0.323897 0.92000002 4287533182
0.47244099 0.32327199 0.91799998 4287335803
0.47505999 0.32335299 0.91799998 4287531901
0.47716299 0.32308301 0.917 4287598198
0.47978699 0.32316601 0.917 4287335028
0.48241401 0.32325101 0.917 4287203695
0.48557401 0.32369 0.91799998 4288124289
0.48821101 0.32377899 0.91799998 4288190345
0.49192199 0.32457399 0.92000002 4287466622
0.49403599 0.32431301 0.91900003 4287664507
0.49722901 0.32475999 0.92000002 4287663991
0.499345 0.32450199 0.91900003 4287795577
-0.199184 0.307356 0.88800001 4284508787
-0.19745199 0.308395 0.89099997 4284508273
-0.195705 0.309434 0.89399999 4285099636
-0.193941 0.31047201 0.89700001 4286349957
-0.191947 0.311165 0.89899999 4286744452
-0.189732 0.31151199 0.89999998 4287270282
-0.187512 0.31185901 0.90100002 4287007615
-0.18487599 0.31151399 0.89999998 4287863176
-0.18265 0.31186199 0.90100002 4286350200
-0.18021899 0.31186301 0.90100002 4286349440
-0.178183 0.31255701 0.903 4284967789
-0.17574701 0.31255901 0.903 4285955199
-0.173311 0.31256101 0.903 4284705132
-0.170496 0.31187099 0.90100002 4284902010
-0.167879 0.311526 0.89999998 4284638836
-0.16526701 0.31118199 0.89899999 4284310377
-0.16248 0.31049299 0.89700001 4286547339
-0.16006 0.31049499 0.89700001 4286086278
-0.15799201 0.31119001 0.89899999 4286612108
-0.156086 0.312231 0.90200001 4287072651
-0.153653 0.312233 0.90200001 4288387217
-0.151219 0.31223601 0.90200001 4288913301
-0.14878599 0.31223899 0.90200001 4289176472
-0.146515 0.31258801 0.903 4289505437
-0.14392 0.31224501 0.90200001 4289439898
-0.141486 0.31224799 0.90200001 4289571484
-0.139053 0.312251 0.90200001 4289637023
-0.13677099 0.31259999 0.903 4289637277
-0.134186 0.31225699 0.90200001 4289506205
-0.131607 0.311914 0.90100002 4289506205
-0.129032 0.311571 0.89999998 4289242779
-0.126745 0.31191999 0.90100002 4289440158
-0.124314 0.31192401 0.90100002 4289505952
-0.121748 0.31158099 0.89999998 4289439645
-0.119054 0.31089199 0.898 4289636770
-0.116631 0.310895 0.898 4289768356
-0.114081 0.310552 0.89700001 4289570978
-0.111661 0.31055501 0.89700001 4289373598
-0.108997 0.30986601 0.89499998 4289768610
-0.106701 0.310215 0.89600003 4289702816
-0.104283 0.31021899 0.89600003 4289834402
-0.101979 0.310568 0.89700001 4289637789
-0.099336602 0.309879 0.89499998 4289768861
-0.096813098 0.30953601 0.89399999 4290032035
-0.094294898 0.30919299 0.89300001 4290032035
-0.091782004 0.30884901 0.89200002 4289965988
-0.089074098 0.307814 0.889 4290031781
-0.086577304 0.30746999 0.88800001 4290163367
-0.083896197 0.30643499 0.88499999 4289834917
-0.081231304 0.305399 0.88200003 4290163882
-0.078493103 0.30401599 0.87800002 4290164398
-0.075603098 0.30194199 0.87199998 4289770415
-0.071821399 0.296058 0.85500002 4288785573
-0.067318402 0.28671101 0.82800001 4290500338
-0.062568001 0.27563301 0.796 4290699775
-0.059812099 0.272865 0.78799999 4288461016
-0.057392102 0.27148199 0.78399998 4285960365
-0.055275701 0.27148399 0.78399998 4285892259
-0.053227 0.27183199 0.78500003 4286022817
-0.051107801 0.27183399 0.78500003 4286088605
-0.048988599 0.27183601 0.78500003 4286088605
-0.0468693 0.27183801 0.78500003 4285825179
-0.044806998 0.27218601 0.78600001 4285890972
-0.042739201 0.27253401 0.787 4285825432
-0.040665999 0.27288201 0.78799999 4285825433
-0.038587399 0.27322999 0.78899997 4286087835
-0.036364701 0.27253899 0.787 4285890458
-0.034152798 0.27184799 0.78500003 4285693595
-0.032033201 0.27184901 0.78500003 4285956767
-0.029913699 0.271851 0.78500003 4285957024
-0.027864899 0.27254501 0.787 4286022817
-0.0257726 0.272892 0.78799999 4285957024
-0.023674799 0.27323899 0.78899997 4285825179
-0.0215171 0.272894 0.78799999 4285890972
-0.0193647 0.27254799 0.787 4285825179
-0.0172395 0.272549 0.787 4285627800
-0.0151144 0.27254999 0.787 4286022558
-0.0130058 0.27289701 0.78799999 4285890972
-0.0108917 0.27324399 0.78899997 4285825436
-0.0087611601 0.27324399 0.78899997 4285825438
-0.00663898 0.27359101 0.79000002 4285496473
-0.0044999998 0.27324501 0.78899997 4286088610
-0.0023724099 0.27359101 0.79000002 4286154403
-0.00023912299 0.27359101 0.79000002 4285891231
0.00189417 0.27359101 0.79000002 4285891231
0.0040172599 0.27289799 0.78799999 4285891745
0.0061373399 0.27255201 0.787 4285957538
0.0082730204 0.27289799 0.78799999 4285891745
0.0104405 0.273936 0.79100001 4285694366
0.0126082 0.27462801 0.79299998 4285563034
0.0147124 0.27393499 0.79100001 4285891229
0.016869601 0.274281 0.792 4285891229
0.019008201 0.27428001 0.792 4285957022
0.0211735 0.27462599 0.79299998 4285694620
0.023256 0.27393201 0.79100001 4286154917
0.025391901 0.273931 0.79100001 4285563294
0.027527699 0.27393001 0.79100001 4285826466
0.029663499 0.273929 0.79100001 4285891745
0.031759098 0.273581 0.79000002 4285891745
0.033892099 0.27358001 0.79000002 4285825952
0.0360252 0.27357799 0.79000002 4285694620
0.038206398 0.27392301 0.79100001 4285826204
0.040393099 0.274268 0.792 4285563034
0.042638801 0.274959 0.79400003 4285957792
0.044669699 0.27426499 0.792 4285826206
0.046867002 0.274609 0.79299998 4285760159
0.048946101 0.274261 0.792 4285694366
0.051148701 0.27460501 0.79299998 4285825952
0.053222399 0.274257 0.792 4285497501
0.055290502 0.273909 0.79100001 4285760673
0.057498399 0.27425301 0.792 4285826466
0.059636399 0.27425101 0.792 4285628573
0.061930299 0.274941 0.79400003 4285562780
0.0640736 0.27493799 0.79400003 4286023331
0.0663836 0.27562901 0.796 4285694366
0.068360001 0.27493399 0.79400003 4285957538
0.070591897 0.27527699 0.79500002 4285496987
0.072646201 0.27492899 0.79400003 4286023331
0.074789204 0.27492601 0.79400003 4285892259
0.076835297 0.27457699 0.79299998 4285629087
0.078975499 0.274575 0.79299998 4285629088
0.0812179 0.27491799 0.79400003 4285498016
0.083360799 0.27491501 0.79400003 4285629602
0.085503504 0.27491301 0.79400003 4285563555
0.087756597 0.27525601 0.79500002 4285497762
0.089788899 0.27490699 0.79400003 4285498016
0.091815703 0.27455801 0.79299998 4285498016
0.093955599 0.274555 0.79299998 4285958052
0.096216597 0.27489799 0.79400003 4285826466
0.098606803 0.27558801 0.796 4285958052
0.100755 0.275585 0.796 4285694880
0.102902 0.27558199 0.796 4286023331
0.104918 0.275233 0.79500002 4285825952
0.107198 0.27557701 0.796 4285628573
0.109071 0.27488101 0.79400003 4285694880
0.111353 0.27522501 0.79500002 4285760673
0.113498 0.275222 0.79500002 4285497501
0.115788 0.275565 0.796 4285431708
0.117787 0.27521601 0.79500002 4285826466
0.119781 0.274867 0.79400003 4285431708
0.122077 0.27521101 0.79500002 4285234843
0.124378 0.275554 0.796 4285432222
0.126525 0.27555099 0.796 4285563808
0.128673 0.27554899 0.796 4285629601
0.13082001 0.27554601 0.796 4285629601
0.132967 0.27554399 0.796 4285759645
0.13562401 0.27658001 0.79900002 4285693593
0.140021 0.281077 0.81199998 4285297807
0.148341 0.29319 0.847 4285297807
0.158095 0.307726 0.889 4285297807
0.160854 0.30841601 0.89099997 4285033605
0.163624 0.30910599 0.89300001 4284638047
0.166591 0.31014201 0.89600003 4284571476
0.16957401 0.31117901 0.89899999 4284308042
0.17219099 0.31152299 0.89999998 4284834128
0.174813 0.311867 0.90100002 4284834382
0.177637 0.312558 0.903 4284505416
0.180273 0.312902 0.90399998 4284505416
0.182712 0.31290099 0.90399998 4284571209
0.184946 0.31255299 0.903 4284702796
0.18717501 0.312206 0.90200001 4284571469
0.18981899 0.31255099 0.903 4285097813
0.192681 0.31324199 0.90499997 4284965714
0.195554 0.313934 0.90700001 4283978305
0.19778299 0.31358701 0.90600002 4283978045
0.200449 0.31393301 0.90700001 4284110145
0.20312101 0.31427899 0.90799999 4284241217
0.206251 0.315317 0.91100001 4284110145
0.208709 0.31531799 0.91100001 4284504903
0.21116801 0.31531799 0.91100001 4284373316
0.213393 0.314973 0.91000003 4284636742
0.21585 0.31497401 0.91000003 4284702796
0.21830601 0.31497499 0.91000003 4283913280
0.220763 0.31497601 0.91000003 4284110912
0.223221 0.314978 0.91000003 4284505669
0.225926 0.31532601 0.91100001 4285229132
0.22888801 0.31602001 0.91299999 4284900165
0.23186 0.316715 0.91500002 4285097546
0.23407599 0.31637201 0.91399997 4285162569
0.235769 0.31533599 0.91100001 4285359181
0.237707 0.31464699 0.90899998 4285228109
0.240427 0.31499699 0.91000003 4285491284
0.24288701 0.31500101 0.91000003 4285228112
0.245885 0.315698 0.912 4285030993
0.24835099 0.31570199 0.912 4285558364
0.25164101 0.316746 0.91500002 4285953122
0.25411499 0.316751 0.91500002 4286479980
0.255748 0.315718 0.912 4286414187
0.25821501 0.31572399 0.912 4286282601
0.260396 0.31538501 0.91100001 4286084708
0.26343799 0.316084 0.91299999 4286282085
0.26620001 0.31643701 0.91399997 4286216547
0.26896799 0.316791 0.91500002 4286084706
0.27144501 0.31679901 0.91500002 4286479466
0.27362299 0.316461 0.91399997 4286282087
0.27579701 0.31612399 0.91299999 4286347880
0.27857399 0.31648001 0.91399997 4286281832
0.28105101 0.31648901 0.91399997 4286216039
0.283838 0.31684601 0.91500002 4286282087
0.286318 0.31685701 0.91500002 4286676590
0.28879899 0.31686801 0.91500002 4286216039
0.29096201 0.316533 0.91399997 4286676590
0.29344201 0.31654501 0.91399997 4286610797
0.29592201 0.316558 0.91399997 4286545006
0.298729 0.31691799 0.91500002 4286808178
0.30088401 0.316585 0.91399997 4286478959
0.303698 0.316946 0.91500002 4286216041
0.30651799 0.317307 0.91600001 4286150501
0.30833301 0.31662899 0.91399997 4286018915
0.310137 0.315952 0.912 4286217061
0.312617 0.31596899 0.912 4286085473
0.31578901 0.316679 0.91399997 4286413671
0.31827599 0.316697 0.91399997 4286347878
0.32076401 0.316715 0.91399997 4285887329
0.32360601 0.31707999 0.91500002 4286149988
