# .PCD v0.7 - Point Cloud Data file format
VERSION 0.7
FIELDS x y z rgb
SIZE 4 4 4 4
TYPE F F F U
COUNT 1 1 1 1
WIDTH 1205
HEIGHT 1
VIEWPOINT 0 0 0 1 0 0 0
POINTS 1205
DATA ascii
0.41094801 0.35436001 1.013 4289376939
0.41373399 0.354399 1.013 4288587423
0.41611099 0.35408801 1.012 4288718495
0.41806999 0.35342801 1.01 4287994771
0.42002001 0.35277 1.008 4287862671
0.42196101 0.352112 1.006 4287928464
0.42431501 0.351805 1.005 4288257430
0.427091 0.35184899 1.005 4288060565
0.42986801 0.35189399 1.005 4288060311
0.432648 0.35194001 1.005 4288981927
0.43499601 0.35163701 1.0039999 4289179306
0.437341 0.35133499 1.003 4287732114
0.438804 0.35033301 1 4287665807
0.44113699 0.35003299 0.99900001 4287797392
0.44346601 0.34973499 0.99800003 4287073669
0.44623899 0.349787 0.99800003 4287467913
0.44856399 0.34948999 0.99699998 4287138948
0.45133901 0.349545 0.99699998 4287533960
0.45366099 0.349251 0.99599999 4285756779
0.45689601 0.349659 0.99699998 4285427814
0.45967901 0.34971699 0.99699998 4287336580
0.462464 0.34977701 0.99699998 4285823341
0.46478501 0.34948799 0.99599999 4285296998
0.46804199 0.34990099 0.99699998 4284573526
0.47177899 0.350667 0.99900001 4285231719
0.47505501 0.35108301 1 4285231719
0.47738501 0.35079801 0.99900001 4284770400
0.48019201 0.35086599 0.99900001 4284375643
0.48300201 0.350936 0.99900001 4284770401
0.486788 0.35170901 1.001 4284704608
0.49058801 0.35248399 1.003 4284376157
0.494894 0.35361299 1.006 4285297259
0.49773699 0.35368899 1.006 4285428845
-0.19834501 0.37902901 1.095 4285754979
-0.19557001 0.37937799 1.096 4285097306
-0.192965 0.38007399 1.098 4286018408
-0.189656 0.37938499 1.096 4286084202
-0.1867 0.379388 1.096 4285952616
-0.183743 0.37939101 1.096 4286347634
-0.180622 0.37904799 1.095 4286478960
-0.17766801 0.37905201 1.095 4286873718
-0.174714 0.37905601 1.095 4285952876
-0.17191701 0.37940499 1.096 4286347120
-0.16896001 0.37940899 1.096 4287531394
-0.165852 0.379067 1.095 4287269251
-0.162898 0.37907001 1.095 4286348149
-0.159797 0.378728 1.094 4287730318
-0.156846 0.378732 1.094 4287467146
-0.15389401 0.37873599 1.094 4287796111
-0.150805 0.37839401 1.0930001 4287861904
-0.147991 0.37874401 1.094 4287532423
-0.144907 0.37840101 1.0930001 4287071358
-0.141958 0.378405 1.0930001 4286347635
-0.139136 0.37875599 1.094 4285886569
-0.136309 0.37910599 1.095 4286149741
-0.133232 0.378764 1.094 4285821291
-0.130161 0.37842101 1.0930001 4286018670
-0.127212 0.378425 1.0930001 4286610807
-0.124262 0.378429 1.0930001 4286873979
-0.121313 0.37843299 1.0930001 4286479735
-0.118363 0.37843701 1.0930001 4286808700
-0.115519 0.37878701 1.094 4286808186
-0.112773 0.37948301 1.096 4286545014
-0.109714 0.379141 1.095 4287005564
-0.106564 0.378452 1.0930001 4287137150
-0.103425 0.377763 1.091 4286611321
-0.100572 0.378113 1.092 4287072386
-0.097535297 0.37777001 1.091 4288059283
-0.094677299 0.37812001 1.092 4286809731
-0.091729797 0.37812299 1.092 4286612352
-0.088863499 0.37847301 1.0930001 4286348410
-0.085834503 0.37812901 1.092 4286217079
-0.082962699 0.378479 1.0930001 4286743423
-0.079939 0.37813601 1.092 4286809984
-0.076920599 0.377792 1.091 4286152054
-0.073839799 0.377103 1.089 4286152054
-0.070899896 0.377105 1.089 4285823603
-0.0680224 0.37745401 1.09 4286481533
-0.065020002 0.37711099 1.089 4286481019
-0.062022898 0.37676701 1.0880001 4286678398
-0.0590312 0.376423 1.087 4286875777
-0.056044798 0.37607899 1.086 4287270535
-0.053210501 0.37677401 1.0880001 4287467144
-0.050272901 0.37677601 1.0880001 4286282870
-0.047335301 0.37677801 1.0880001 4287730316
-0.044356901 0.376434 1.087 4287598730
-0.041421901 0.37643501 1.087 4287335558
-0.038522199 0.37678301 1.0880001 4287071874
-0.035551801 0.37643799 1.087 4287138181
-0.032646701 0.37678599 1.0880001 4287795597
-0.029654199 0.376095 1.086 4288256407
-0.026697099 0.37575001 1.085 4288716958
-0.023745401 0.37540501 1.084 4288257177
-0.0207799 0.374713 1.082 4289046693
-0.0178582 0.37471399 1.082 4289967795
-0.0149364 0.37471399 1.082 4288586141
-0.0120147 0.374715 1.082 4288191383
-0.0090760803 0.37402299 1.08 4287993235
-0.0061482899 0.37333 1.0779999 4288651165
-0.00323129 0.37263799 1.076 4289111971
-0.00032569101 0.37263799 1.076 4289243557
0.0025823 0.37298399 1.077 4289178278
0.0054906001 0.37298399 1.077 4288520602
0.0083676903 0.37159899 1.073 4289178278
0.0112442 0.370906 1.071 4289177509
0.014123 0.37055901 1.0700001 4288519579
0.017012401 0.37055799 1.0700001 4288256407
0.019845899 0.36951801 1.067 4289505962
0.022705801 0.36917099 1.066 4289440681
0.025560301 0.36882401 1.0650001 4288849313
0.028462799 0.369169 1.066 4288848544
0.031282399 0.36847499 1.064 4288980383
0.034155399 0.36847401 1.064 4287730318
0.036958799 0.36778 1.062 4287532939
0.039788902 0.367432 1.061 4287335560
0.042613499 0.367084 1.0599999 4286875009
0.045432601 0.36673599 1.059 4285822835
0.0482007 0.366041 1.057 4286677628
0.051054601 0.36603901 1.057 4286283386
0.0539595 0.36638299 1.058 4285887598
0.056977 0.36741999 1.061 4285426532
0.059841599 0.36741799 1.061 4285294432
0.062706001 0.36741501 1.061 4284965721
0.065508701 0.367066 1.0599999 4285031514
0.068370298 0.367064 1.0599999 4285557858
0.071299098 0.36740699 1.061 4285557857
0.074233301 0.367751 1.062 4284373583
0.077100202 0.36774799 1.062 4283846982
0.080042303 0.36809099 1.063 4283649603
0.0829897 0.36843401 1.064 4284044362
0.086023197 0.369124 1.066 4284307791
0.088984102 0.36946699 1.067 4284110412
0.091864102 0.36946401 1.067 4284636756
0.094566502 0.36876801 1.0650001 4284899927
0.097349502 0.36841801 1.064 4284965974
0.100315 0.368761 1.0650001 4284702802
0.103287 0.369104 1.066 4285031510
0.106064 0.368754 1.0650001 4284768341
0.108938 0.36875001 1.0650001 4284965467
0.111813 0.368747 1.0650001 4285886569
0.114902 0.36943501 1.067 4285360225
0.117892 0.36977801 1.068 4285491811
0.120887 0.37011999 1.069 4285557858
0.123772 0.37011701 1.069 4284768341
0.126775 0.37045899 1.0700001 4284570962
0.12954099 0.37010899 1.069 4285953129
0.13217799 0.36941299 1.067 4285295199
0.135057 0.36940899 1.067 4284966234
0.138065 0.36975101 1.068 4285756004
0.14121 0.37044001 1.0700001 4284965972
0.144097 0.37043601 1.0700001 4284966488
0.146984 0.37043199 1.0700001 4285296221
0.150011 0.370774 1.071 4285690725
0.15290099 0.37077001 1.071 4286085744
0.15579 0.370767 1.071 4285888365
0.158531 0.370417 1.0700001 4286085744
0.16141801 0.37041301 1.0700001 4285164897
0.16399799 0.369717 1.068 4285559139
0.166566 0.369021 1.066 4285427553
0.169283 0.368671 1.0650001 4285493348
0.172479 0.36936 1.067 4285953129
0.175686 0.370049 1.069 4286413680
0.178737 0.37039199 1.0700001 4285755751
0.181454 0.370042 1.069 4285689958
0.18450999 0.37038499 1.0700001 4285361246
0.187222 0.37003601 1.069 4285689957
0.19010501 0.370033 1.069 4285229921
0.192628 0.36933801 1.067 4286743674
0.19569001 0.369681 1.068 4286085746
0.198571 0.369679 1.068 4286875007
0.201452 0.36967599 1.068 4286084977
0.203951 0.368981 1.066 4286413942
0.20702 0.36932501 1.067 4286412913
0.20989899 0.36932299 1.067 4287070843
0.212778 0.36932099 1.067 4286347634
0.215454 0.36897299 1.066 4286873978
0.218125 0.368626 1.0650001 4286611574
0.22058401 0.36793199 1.063 4286874232
0.223662 0.36827701 1.064 4286413681
0.22674599 0.368622 1.0650001 4286545267
0.22961999 0.36862099 1.0650001 4286151025
0.232494 0.36862099 1.0650001 4287006334
0.235147 0.368274 1.064 4286546042
0.238242 0.36862001 1.0650001 4287335558
0.24134301 0.36896601 1.066 4285953905
0.24422 0.368967 1.066 4286940800
0.246402 0.36792901 1.063 4287006848
0.249037 0.36758301 1.062 4286678397
0.25190401 0.367585 1.062 4286020721
0.25501099 0.36793199 1.063 4285494377
0.25788099 0.36793399 1.063 4286349686
0.260506 0.367589 1.062 4286547325
0.26312599 0.367246 1.061 4286020982
0.265991 0.367248 1.061 4286744705
0.26910999 0.36759701 1.062 4286678912
0.271723 0.36725399 1.061 4287138948
0.274589 0.36725801 1.061 4287533190
0.277455 0.36726201 1.061 4286348918
0.28058699 0.367612 1.062 4287598730
0.28319001 0.36727101 1.061 4288059281
0.286327 0.36762199 1.062 4287467914
0.28892499 0.36728099 1.061 4286481019
0.291244 0.36659399 1.059 4286941570
0.29355201 0.365908 1.057 4287665546
0.29613 0.365569 1.056 4287797646
0.29898599 0.365576 1.056 4286876804
0.30184299 0.365583 1.056 4287995285
0.30383399 0.36455199 1.053 4288192151
0.30697501 0.364907 1.054 4287797653
0.30982801 0.364916 1.054 4287337102
0.312978 0.365271 1.0549999 4287732114
0.315236 0.36458799 1.053 4287666321
0.31748301 0.363906 1.051 4287732114
0.320025 0.36357099 1.05 4286810497
0.32286999 0.36358199 1.05 4286481532
0.32571599 0.363594 1.05 4286678397
0.32824901 0.36326 1.049 4287994257
0.33077699 0.36292601 1.048 4287730832
0.33330101 0.362593 1.0470001 4288060311
0.33581999 0.362261 1.046 4288192412
0.33898199 0.36262199 1.0470001 4288850342
0.34149799 0.36228999 1.046 4288455586
0.344008 0.36195999 1.045 4288981928
0.346183 0.361283 1.043 4287995032
0.34901601 0.36129999 1.043 4287271309
0.351513 0.360971 1.0420001 4289310892
0.35468501 0.36133599 1.043 4288587423
0.35683599 0.36066201 1.041 4287929239
0.35897601 0.359988 1.039 4288981927
0.360062 0.35827601 1.034 4288653216
0.36322799 0.358643 1.035 4288258458
0.3664 0.35901099 1.036 4289245099
0.36922199 0.35903299 1.036 4289705650
0.37132701 0.358363 1.034 4288850341
0.37378401 0.35804 1.033 4289442478
0.37587199 0.357371 1.031 4289574064
0.377951 0.35670301 1.029 4288521630
0.38076001 0.35672799 1.029 4288916134
0.38319701 0.356408 1.028 4289903283
0.38563001 0.356089 1.027 4289245353
0.38768101 0.35542399 1.025 4288719009
0.38972199 0.35475901 1.023 4289573803
0.39213699 0.354442 1.022 4287863953
0.39454901 0.35412499 1.021 4287271563
0.39734501 0.354157 1.021 4288126872
0.39935899 0.353495 1.0190001 4288258458
0.40175799 0.353181 1.018 4288784802
0.40415299 0.35286799 1.017 4288521630
0.40654501 0.35255599 1.016 4288587423
0.40852901 0.351897 1.0140001 4289508525
0.410505 0.35124001 1.012 4289310892
0.41287899 0.35093001 1.011 4288126618
0.41607201 0.35131499 1.012 4288586909
0.41844401 0.35100701 1.011 4287796879
0.420396 0.350353 1.0089999 4287928464
0.42233899 0.3497 1.007 4287928464
0.42469499 0.34939501 1.006 4287994258
0.427472 0.34943801 1.006 4288060051
0.42982301 0.34913501 1.005 4287666321
0.43173999 0.34848499 1.003 4288982181
0.434082 0.34818399 1.002 4289047974
0.43641999 0.34788299 1.001 4287797907
0.43875501 0.34758401 1 4287600528
0.44152799 0.347633 1 4287600013
0.44385901 0.34733599 0.99900001 4286942597
0.44663301 0.347388 0.99900001 4287468427
0.44896001 0.34709299 0.99800003 4287270534
0.45128399 0.34679899 0.99699998 4287730571
0.453605 0.346506 0.99599999 4285690988
0.45638099 0.346562 0.99599999 4285690986
0.45915899 0.34661901 0.99599999 4287138685
0.46193999 0.34667799 0.99599999 4285362788
0.46518999 0.34708601 0.99699998 4285099618
0.468918 0.347844 0.99900001 4284310616
0.47218701 0.34825501 1 4285296998
0.47499001 0.34831899 1 4285297512
0.47779599 0.34838399 1 4284836193
0.48060399 0.34845099 1 4284309849
0.48341599 0.348519 1 4284836194
0.48622999 0.348589 1 4284441950
0.489537 0.34900799 1.001 4284705122
0.49334401 0.349778 1.003 4284770915
0.49766099 0.35089901 1.006 4285231466
-0.198167 0.375736 1.094 4285820772
-0.19539399 0.37608299 1.095 4285294685
-0.192792 0.376773 1.097 4285821029
-0.189833 0.37677601 1.097 4286215788
-0.18704399 0.377123 1.098 4286018409
-0.18391401 0.376784 1.097 4286281841
-0.18062501 0.3761 1.095 4286216302
-0.17750899 0.375761 1.094 4286347888
-0.174558 0.37576401 1.094 4285755751
-0.172077 0.37679899 1.097 4286150255
-0.168964 0.376459 1.096 4287137150
-0.166007 0.376463 1.096 4287138179
-0.16305 0.37646699 1.096 4286677628
-0.15994699 0.37612799 1.095 4287598730
-0.15685 0.375788 1.094 4287269765
-0.153898 0.37579301 1.094 4287532937
-0.150947 0.375797 1.094 4288124560
-0.148131 0.37614399 1.095 4287532423
-0.145044 0.37580499 1.094 4287137150
-0.142222 0.37615299 1.095 4286018669
-0.13913999 0.37581301 1.094 4285886823
-0.13631301 0.37616101 1.095 4285755237
-0.13323601 0.37582201 1.094 4285821290
-0.130165 0.37548199 1.0930001 4286150256
-0.127332 0.37582999 1.094 4286939772
-0.12438 0.37583399 1.094 4286545014
-0.121539 0.37618101 1.095 4286545528
-0.118475 0.37584201 1.094 4286873979
-0.115629 0.37618899 1.095 4286808186
-0.112879 0.37687999 1.097 4286348404
-0.109818 0.37654099 1.096 4286611576
-0.106665 0.375857 1.094 4287006334
-0.103523 0.37517399 1.092 4286743421
-0.100576 0.37517801 1.092 4286875007
-0.097538903 0.37483799 1.091 4288125074
-0.094680697 0.37518501 1.092 4286940802
-0.091733202 0.37518799 1.092 4286414973
-0.0888668 0.37553501 1.0930001 4286348410
-0.085837796 0.375195 1.092 4286479996
-0.082965903 0.37554201 1.0930001 4286677630
-0.080015302 0.375545 1.0930001 4286940800
-0.076994099 0.37520501 1.092 4286086261
-0.073978297 0.37486401 1.091 4286020468
-0.070967801 0.37452301 1.09 4285955189
-0.068087503 0.37487 1.091 4286284154
-0.065141998 0.374872 1.091 4286546812
-0.062082399 0.37418801 1.089 4286414456
-0.059087899 0.37384701 1.0880001 4287006593
-0.056150299 0.373849 1.0880001 4287401351
-0.053310499 0.37453899 1.09 4287598216
-0.0503674 0.37454101 1.09 4286611321
-0.047380801 0.374199 1.089 4287729802
-0.0443995 0.37385699 1.0880001 4287861388
-0.0414236 0.37351599 1.087 4287664009
-0.038523901 0.37386101 1.0880001 4287335044
-0.035553299 0.373519 1.087 4287203458
-0.032618001 0.37351999 1.087 4287598216
-0.029655499 0.37317801 1.086 4288190869
-0.026698301 0.37283599 1.085 4288783006
-0.0237465 0.372493 1.084 4288191383
-0.0208 0.37215099 1.0829999 4288849314
-0.017859001 0.37180799 1.082 4290033588
-0.0149233 0.371465 1.081 4288191384
-0.0119819 0.37077799 1.079 4288586142
-0.0090596601 0.370435 1.0779999 4288520349
-0.00614285 0.370092 1.077 4288520348
-0.00323443 0.370092 1.077 4288651934
-0.00032570501 0.369748 1.076 4289178278
0.0025776201 0.369405 1.075 4289310118
0.0054806299 0.36940399 1.075 4288651934
0.0083602499 0.36837301 1.072 4289309095
0.0112447 0.368029 1.071 4289440683
0.0141236 0.36768499 1.0700001 4288782239
0.017029 0.36802801 1.071 4288519067
0.019865399 0.36699599 1.068 4289111204
0.0227281 0.36665201 1.067 4289505960
0.0256094 0.366651 1.067 4288783006
0.028517401 0.36699301 1.068 4289045923
0.0313426 0.36630499 1.066 4288980385
0.034189001 0.36596 1.0650001 4287861904
0.036995199 0.365271 1.063 4287598732
0.0397905 0.364582 1.061 4287467146
0.042615201 0.36423701 1.0599999 4286940802
0.045434501 0.36389101 1.059 4285953907
0.048202701 0.36320201 1.057 4286611837
0.0510084 0.362856 1.056 4286217077
0.053910598 0.36319801 1.057 4285953905
0.056871898 0.36388299 1.059 4285032544
0.059787601 0.36422399 1.0599999 4284703579
0.062649503 0.36422101 1.0599999 4284769370
0.065573096 0.364562 1.061 4284900442
0.068502001 0.364903 1.062 4285032028
0.071436301 0.365244 1.063 4285294685
0.074236199 0.364898 1.062 4284176458
0.077103101 0.36489499 1.062 4283650114
0.079970002 0.36489099 1.062 4283584067
0.083070897 0.36591899 1.0650001 4284175948
0.086187899 0.366947 1.068 4283913033
0.089154102 0.36728701 1.069 4284044619
0.092039697 0.36728299 1.069 4284439376
0.094747603 0.366593 1.067 4284965974
0.097535998 0.36624601 1.066 4284768341
0.100413 0.36624199 1.066 4284570962
0.103387 0.36658201 1.067 4284833877
0.106267 0.36657801 1.067 4284834135
0.109249 0.366918 1.068 4284833881
0.112131 0.366914 1.068 4285623397
0.115229 0.367598 1.0700001 4285426018
0.118117 0.367594 1.0700001 4285426018
0.121117 0.36793301 1.071 4285097307
0.123891 0.36758599 1.0700001 4284768341
0.12666 0.36723799 1.069 4284768341
0.12942401 0.366891 1.068 4286085485
0.13205799 0.3662 1.066 4285164642
0.135061 0.366539 1.067 4284966749
0.138069 0.36687899 1.068 4285689957
0.141082 0.36721799 1.069 4284769623
0.143967 0.36721399 1.069 4284572244
0.146714 0.36686599 1.068 4285164895
0.149735 0.36720601 1.069 4285362276
0.152619 0.36720201 1.069 4285691502
0.15579399 0.36788499 1.071 4286020467
0.158535 0.36753699 1.0700001 4285954928
0.161422 0.367533 1.0700001 4285559400
0.164001 0.36684299 1.068 4285559653
0.16672599 0.36649501 1.067 4285164895
0.169605 0.36649099 1.067 4285361507
0.17280599 0.36717501 1.069 4285624679
0.175854 0.36751401 1.0700001 4286216816
0.17874099 0.367511 1.0700001 4285690474
0.18162701 0.36750701 1.0700001 4285361507
0.184514 0.367504 1.0700001 4285164383
0.1874 0.36750001 1.0700001 4285624679
0.18993101 0.36680999 1.068 4285624679
0.19263101 0.36646399 1.067 4286809467
0.195509 0.36646101 1.067 4285823089
0.198388 0.366458 1.067 4286744191
0.201455 0.36679801 1.068 4286019698
0.204144 0.36645201 1.067 4286348663
0.20702299 0.36645001 1.067 4286217077
0.20990101 0.366447 1.067 4286743421
0.21278 0.366445 1.067 4286085491
0.21565799 0.36644301 1.067 4286546297
0.21833199 0.36609799 1.066 4286677881
0.221 0.36575201 1.0650001 4287006334
0.223664 0.36540699 1.064 4286216816
0.22674701 0.36575001 1.0650001 4286742646
0.229836 0.366092 1.066 4286414195
0.232494 0.365747 1.0650001 4287072125
0.235147 0.365403 1.064 4286611574
0.237795 0.36505899 1.063 4287269506
0.24089 0.36540201 1.064 4285822060
0.24399 0.36574599 1.0650001 4287072127
0.246401 0.36505899 1.063 4286940541
0.249036 0.36471599 1.062 4286677369
0.25213999 0.36506 1.063 4286743160
0.25524899 0.36540499 1.064 4286151537
0.258122 0.36540601 1.064 4286348916
0.26074901 0.365064 1.063 4286546811
0.26361901 0.36506599 1.063 4286809984
0.26623899 0.36472499 1.062 4286810498
0.26910701 0.36472699 1.062 4286744705
0.27197599 0.36473 1.062 4286941570
0.275103 0.36507601 1.063 4287270534
0.277713 0.36473599 1.062 4286349433
0.28031799 0.36439699 1.061 4287532937
0.28291801 0.36405799 1.0599999 4287861902
0.28578299 0.36406201 1.0599999 4287533707
0.28837499 0.36372301 1.059 4286809214
0.29068801 0.363042 1.057 4287073156
0.293268 0.36270401 1.056 4287599499
0.296123 0.36271 1.056 4287863439
0.29897901 0.362717 1.056 4286942598
0.301835 0.36272401 1.056 4288061079
0.304115 0.36204401 1.054 4288389790
0.30696699 0.36205199 1.054 4287666067
0.30981901 0.36206001 1.054 4287731346
0.31296799 0.36241201 1.0549999 4288257944
0.31522599 0.36173499 1.053 4287731600
0.31717101 0.36071399 1.05 4287994772
0.31970999 0.36037999 1.049 4286876290
0.32224399 0.36004701 1.048 4286678911
0.325394 0.36040199 1.049 4286744190
0.327611 0.359727 1.0470001 4287731085
0.33013299 0.359395 1.046 4287796879
0.332333 0.35872099 1.044 4288060311
0.33516401 0.35873401 1.044 4288587169
0.33831999 0.359092 1.045 4288850342
0.34083 0.358762 1.044 4288455584
0.34366301 0.35877699 1.044 4288850342
0.34649801 0.35879299 1.044 4287929239
0.34866399 0.35812199 1.0420001 4288060826
0.35115799 0.357795 1.041 4289310893
0.35398701 0.357813 1.041 4288587170
0.35647401 0.35748699 1.04 4287863447
0.35895699 0.357162 1.039 4289310893
0.36073899 0.35615 1.036 4288521376
0.36320701 0.35582599 1.035 4288324251
0.366025 0.355847 1.035 4289179306
0.368844 0.355869 1.035 4289508271
0.37130401 0.35554701 1.034 4288652962
0.37412199 0.35556999 1.034 4289508272
0.37657699 0.35524899 1.033 4289442478
0.37829301 0.354242 1.03 4288719009
0.380734 0.35392299 1.029 4288850341
0.38317001 0.353605 1.028 4289771697
0.38597801 0.35363099 1.028 4289113767
0.38765299 0.35262701 1.025 4288718755
0.39007401 0.35231099 1.024 4289508011
0.39210799 0.35165101 1.022 4287994772
0.39490399 0.35168099 1.022 4287665807
0.39731401 0.351367 1.021 4288521116
0.399719 0.351055 1.02 4288258458
0.40172499 0.350398 1.018 4288653216
0.40451699 0.350431 1.018 4287995286
0.40691 0.35012099 1.017 4288916388
0.408494 0.349123 1.0140001 4289639857
0.41046801 0.34847 1.012 4289179307
0.41325 0.348506 1.012 4288520863
0.415622 0.34819901 1.011 4288520862
0.418405 0.34823799 1.011 4287665553
0.419523 0.346899 1.007 4287862672
0.42187801 0.34659499 1.006 4287796879
0.42423001 0.34629101 1.005 4288060050
0.42785299 0.34702301 1.007 4287994257
0.42977899 0.34637699 1.005 4287732113
0.43169501 0.34573099 1.003 4289047974
0.43360299 0.34508699 1.001 4289113767
0.436373 0.34513301 1.001 4287929493
0.43870699 0.344836 1 4287600528
0.44192001 0.345229 1.001 4287534474
0.444253 0.344933 1 4286877058
0.447476 0.34532899 1.001 4287403148
0.44980699 0.345036 1 4286942083
0.45168301 0.34439799 0.99800003 4287270534
0.454005 0.344107 0.99699998 4285625709
0.45632499 0.343817 0.99599999 4285559400
0.45864099 0.343528 0.995 4287007101
0.46188101 0.34393099 0.99599999 4285625962
0.46466401 0.34399 0.99599999 4285165411
0.46791801 0.34439501 0.99699998 4284770653
0.47070801 0.344457 0.99699998 4285231205
0.47397599 0.34486499 0.99800003 4285559916
0.47725299 0.34527501 0.99900001 4284901986
0.48149899 0.34637699 1.002 4284309849
0.48383099 0.34609801 1.001 4284770915
0.48664701 0.346167 1.001 4284573536
0.48897699 0.345891 1 4284244571
0.49278 0.346654 1.002 4284902501
0.49709201 0.34776399 1.005 4285099880
-0.198533 0.37347099 1.096 4286018408
-0.195755 0.373815 1.097 4285163099
-0.19297101 0.37415999 1.098 4285689697
-0.19001 0.374163 1.098 4286281580
-0.187388 0.37484899 1.1 4286018408
-0.18425401 0.37451199 1.099 4286281580
-0.180959 0.37383401 1.097 4286413166
-0.17767499 0.37315699 1.095 4286545006
-0.174722 0.37316099 1.095 4286018662
-0.17208099 0.37384599 1.097 4286084715
-0.169122 0.373851 1.097 4287071611
-0.166163 0.37385499 1.097 4287203972
-0.163055 0.37351799 1.096 4286611835
-0.159952 0.373182 1.095 4287664009
-0.156854 0.37284499 1.094 4287466630
-0.15390299 0.37285 1.094 4287795595
-0.150951 0.37285399 1.094 4288255632
-0.14827 0.37354001 1.096 4287531909
-0.14518 0.37320301 1.095 4286939771
-0.142226 0.37320799 1.095 4286478960
-0.139144 0.37287101 1.094 4285755236
-0.136068 0.37253499 1.0930001 4285886822
-0.133119 0.37253901 1.0930001 4285952616
-0.130169 0.37254301 1.0930001 4286478960
-0.127336 0.372888 1.094 4286741879
-0.124498 0.373234 1.095 4286741879
-0.121654 0.373579 1.096 4286808186
-0.118804 0.37392399 1.097 4286742392
-0.115738 0.37358701 1.096 4286742392
-0.112883 0.373932 1.097 4286282611
-0.109622 0.372913 1.094 4286677369
-0.106572 0.372576 1.0930001 4287072127
-0.103432 0.37189901 1.091 4286875007
-0.100579 0.37224299 1.092 4287072386
-0.097631902 0.37224701 1.092 4287796109
-0.094684303 0.372251 1.092 4287006595
-0.091736697 0.37225401 1.092 4286611582
-0.088788897 0.37225801 1.092 4286414203
-0.085919701 0.37260199 1.0930001 4286479996
-0.083044998 0.37294599 1.094 4286546044
-0.080018498 0.37260899 1.0930001 4286743421
-0.076997198 0.372271 1.092 4286217847
-0.0740491 0.37227401 1.092 4286283639
-0.071100898 0.37227699 1.092 4286415740
-0.068090297 0.371939 1.091 4286349433
-0.065085001 0.37160099 1.09 4286612605
-0.062142 0.371604 1.09 4286677628
-0.059144702 0.37126499 1.089 4286809214
-0.0562043 0.371268 1.089 4287532423
-0.053312801 0.371611 1.09 4287532423
-0.050369602 0.371613 1.09 4286413942
-0.047382802 0.37127399 1.089 4287729802
-0.0444014 0.37093499 1.0880001 4287861388
-0.041463502 0.37093699 1.0880001 4287598216
-0.038525499 0.37093899 1.0880001 4287466630
-0.0355548 0.37059999 1.087 4287269765
-0.032619499 0.370601 1.087 4287532937
-0.0296841 0.370603 1.087 4288256660
-0.0266994 0.36992201 1.085 4288520602
-0.0237475 0.369582 1.084 4288191383
-0.0207817 0.36890101 1.082 4288783521
-0.0178432 0.368561 1.081 4289770162
-0.0149239 0.36856201 1.081 4288322716
-0.0119935 0.368222 1.08 4288717728
-0.0090684704 0.367881 1.079 4288322970
-0.0061545302 0.367881 1.079 4288651934
-0.0032375799 0.36754099 1.0779999 4288717727
-0.00032602201 0.36719999 1.077 4289178278
0.00257773 0.36651799 1.075 4289046946
0.0054706801 0.36583599 1.073 4289046692
0.00834502 0.364813 1.0700001 4289506474
0.0112346 0.36481199 1.0700001 4288914339
0.0141375 0.36515301 1.071 4288585374
0.017045701 0.365493 1.072 4288584860
0.0198662 0.36412799 1.068 4288979618
0.022729101 0.36378601 1.067 4289505962
0.025610499 0.363785 1.067 4288585372
0.028492 0.36378399 1.067 4288914337
0.0313439 0.363442 1.066 4288585627
0.034190498 0.36309901 1.0650001 4287533453
0.0369968 0.362416 1.063 4287532939
0.039792199 0.36173201 1.061 4287730318
0.042617101 0.36138999 1.0599999 4287203974
0.045393601 0.360706 1.058 4286546044
0.0482504 0.360704 1.058 4286874493
0.051107202 0.36070201 1.058 4286084977
0.054014899 0.36104 1.059 4286085232
0.056928001 0.361379 1.0599999 4285164130
0.059846502 0.36171699 1.061 4284703579
0.062651999 0.36137399 1.0599999 4284900958
0.065513998 0.36137101 1.0599999 4284900958
0.068311296 0.36102799 1.059 4285031774
0.071304798 0.361707 1.061 4285426785
0.074169204 0.36170399 1.061 4284570962
0.0771062 0.362041 1.062 4283913286
0.079897903 0.36169699 1.061 4284110154
0.0831521 0.363399 1.066 4284044361
0.0861912 0.364077 1.068 4284241741
0.089157604 0.36441401 1.069 4284241741
0.091871001 0.363729 1.067 4284044362
0.094751097 0.36372599 1.067 4284505169
0.097631201 0.363722 1.067 4284636752
0.100511 0.363718 1.067 4284899670
0.103294 0.36337399 1.066 4284965463
0.106271 0.363711 1.067 4284768085
0.109253 0.364048 1.068 4285031514
0.11224 0.364384 1.069 4285557604
0.115341 0.365062 1.071 4285689190
0.118231 0.365058 1.071 4285360225
0.121234 0.36539501 1.072 4285294686
0.124011 0.36504999 1.071 4285032028
0.126664 0.364364 1.069 4284768855
0.129307 0.36367801 1.067 4286019437
0.132062 0.36333299 1.066 4285098849
0.135065 0.36366999 1.067 4284967263
0.138202 0.36434701 1.069 4285559141
0.141219 0.36468399 1.0700001 4284703832
0.144106 0.36467901 1.0700001 4284769625
0.146718 0.363994 1.068 4285362276
0.149739 0.36432999 1.069 4285165412
0.152623 0.364326 1.069 4286020467
0.155798 0.36500299 1.071 4285888881
0.158687 0.364999 1.071 4285690986
0.161577 0.364995 1.071 4285427814
0.164159 0.36430901 1.069 4284901723
0.166886 0.36396399 1.068 4285164895
0.16976701 0.36396 1.068 4285624679
0.17297199 0.364638 1.0700001 4285887851
0.17585801 0.36463401 1.0700001 4285756265
0.178744 0.36463001 1.0700001 4285755497
0.18180101 0.36496699 1.071 4285953130
0.18503401 0.36564499 1.073 4285624165
0.18775401 0.36530101 1.072 4285427300
0.19029 0.36461601 1.0700001 4286019439
0.19281501 0.363931 1.068 4286677883
0.195696 0.36392701 1.068 4285757296
0.19839101 0.363583 1.067 4286415226
0.20145699 0.36392099 1.068 4285757296
0.204147 0.36357701 1.067 4286349433
0.207219 0.363915 1.068 4286020468
0.209904 0.363572 1.067 4286546812
0.212981 0.36390999 1.068 4285823089
0.21586201 0.36390799 1.068 4286875776
0.218539 0.363565 1.067 4286612090
0.221002 0.362881 1.0650001 4287072127
0.223875 0.36287901 1.0650001 4285756265
0.226749 0.36287799 1.0650001 4286545781
0.22962201 0.362876 1.0650001 4286414195
0.23249499 0.36287501 1.0650001 4287006332
0.235148 0.362533 1.064 4285953644
0.237795 0.36219099 1.063 4287203711
0.24066401 0.36219099 1.063 4285887851
0.243532 0.36219001 1.063 4287006334
0.246169 0.36184901 1.062 4287137920
0.24927001 0.36219001 1.063 4286479990
0.25261399 0.362872 1.0650001 4286151023
0.25548801 0.36287299 1.0650001 4285625195
0.25787801 0.362192 1.063 4286546297
0.26050201 0.36185199 1.062 4286809984
0.26312199 0.36151299 1.061 4286678398
0.26573601 0.36117399 1.0599999 4287204742
0.26859799 0.36117601 1.0599999 4286678398
0.27171701 0.36151901 1.061 4287533707
0.27484101 0.36186299 1.062 4286875777
0.27770999 0.361866 1.062 4286283640
0.280314 0.36152801 1.061 4287270535
0.28264701 0.36085001 1.059 4287599500
0.28523901 0.36051399 1.058 4287467914
0.287826 0.36017799 1.057 4286875007
0.290683 0.36018199 1.057 4287336328
0.293262 0.35984701 1.056 4287533706
0.29611701 0.35985199 1.056 4287665293
0.29868901 0.35951799 1.0549999 4287073930
0.30125701 0.35918301 1.054 4288126619
0.303819 0.35884899 1.053 4288455584
0.306959 0.35919699 1.054 4287468689
0.309811 0.35920501 1.054 4287797139
0.31266299 0.35921299 1.054 4287731600
0.315516 0.35922199 1.054 4287468428
0.31806701 0.35889 1.053 4287600014
0.32030901 0.35821801 1.051 4287204995
0.322541 0.35754699 1.049 4286481786
0.32538301 0.35755801 1.049 4287073409
0.32759899 0.35688701 1.0470001 4287665292
0.329806 0.356217 1.045 4287468428
0.33232 0.35588801 1.044 4287994518
0.33515099 0.355901 1.044 4288849828
0.33862999 0.35659599 1.046 4288389791
0.341142 0.356269 1.045 4288389791
0.34397799 0.35628301 1.045 4289113513
0.34648201 0.355957 1.044 4287600274
0.34864801 0.35529101 1.0420001 4288455583
0.350804 0.35462499 1.04 4289310893
0.35363001 0.354642 1.04 4288060826
0.35611299 0.35431901 1.039 4287600277
0.35893801 0.35433701 1.039 4289837239
0.360719 0.35333201 1.036 4288389790
0.363538 0.35335201 1.036 4288389790
0.36600399 0.35303101 1.035 4289113767
0.36882201 0.35305101 1.035 4289574318
0.37128201 0.352732 1.034 4288718755
0.3741 0.352754 1.034 4289639857
0.37655401 0.35243499 1.033 4289442732
0.37826899 0.35143599 1.03 4288653216
0.379969 0.350436 1.027 4288521630
0.38239899 0.35012001 1.026 4289771697
0.38520101 0.350146 1.026 4289047720
0.38762599 0.34983101 1.025 4288850341
0.39042699 0.34985799 1.025 4289310632
0.39246199 0.34920299 1.023 4287797393
0.39526099 0.34923199 1.023 4287599760
0.397672 0.348921 1.022 4288389276
0.39968699 0.348268 1.02 4288126618
0.40169299 0.347617 1.018 4288587169
0.40408701 0.34730801 1.017 4287666067
0.406876 0.347341 1.017 4289508271
0.40886199 0.34669101 1.015 4289310892
0.41083801 0.34604299 1.013 4289113514
0.41321301 0.34573701 1.012 4288126105
0.41558501 0.34543201 1.011 4288718241
0.41795301 0.345128 1.01 4288060311
0.4199 0.344482 1.008 4287534221
0.42225701 0.34417999 1.007 4287994772
0.424611 0.343878 1.006 4287928978
0.427811 0.34426099 1.007 4288126611
0.430163 0.34396201 1.006 4287732113
0.432082 0.343321 1.0039999 4288982181
0.43355799 0.34233999 1.001 4288850595
0.435891 0.34204301 1 4287863700
0.43865901 0.342089 1 4287403149
0.441872 0.34247801 1.001 4287468681
0.44420299 0.34218499 1 4286942337
0.446978 0.34223399 1 4287666574
0.44930601 0.341943 0.99900001 4287073669
0.45163 0.34165201 0.99800003 4286941570
0.45440701 0.34170499 0.99800003 4285427561
0.456269 0.34107399 0.99599999 4285493354
0.45858401 0.34078699 0.995 4286941055
0.46136001 0.34084299 0.995 4285822572
0.46507099 0.34158599 0.99699998 4285231205
0.46785799 0.341645 0.99699998 4284375896
0.47111899 0.34204799 0.99800003 4285296230
0.474388 0.34245199 0.99900001 4285362023
0.47814399 0.34320101 1.001 4284704607
0.48239401 0.34429401 1.0039999 4284046677
0.48521399 0.34435999 1.0039999 4284770914
0.487551 0.34408399 1.003 4284376156
0.490374 0.34415299 1.003 4284244571
0.49418399 0.34490901 1.005 4284968294
0.49800801 0.345667 1.007 4285363052
-0.198355 0.37018099 1.095 4285821029
-0.195401 0.37018499 1.095 4285163099
-0.192624 0.370527 1.096 4285623904
-0.19001301 0.371207 1.098 4285952615
-0.187222 0.37154901 1.099 4286215787
-0.184258 0.371553 1.099 4286084201
-0.181128 0.37121999 1.098 4286413420
-0.178004 0.370886 1.097 4286347625
-0.175045 0.37088999 1.097 4285821283
-0.172242 0.371232 1.098 4285887336
-0.16928101 0.37123701 1.098 4287005818
-0.166319 0.371241 1.098 4287335044
-0.16320799 0.37090799 1.097 4286874493
-0.16010199 0.370574 1.096 4287729802
-0.157002 0.37024 1.095 4287269251
-0.154048 0.37024501 1.095 4287861388
-0.151094 0.37024999 1.095 4287795081
-0.148139 0.37025401 1.095 4287202944
-0.14518499 0.37025899 1.095 4286873464
-0.14223 0.37026301 1.095 4286478960
-0.139149 0.36993 1.094 4285755490
-0.13607199 0.369596 1.0930001 4285558111
-0.13324501 0.369939 1.094 4285557857
-0.130293 0.36994299 1.094 4286215788
-0.12745699 0.37028599 1.095 4286610292
-0.124502 0.37029001 1.095 4286478706
-0.121547 0.370294 1.095 4286676086
-0.1187 0.370637 1.096 4286873979
-0.115742 0.37064099 1.096 4286808185
-0.112784 0.37064499 1.096 4286151025
-0.109526 0.36963499 1.0930001 4286612090
-0.106478 0.36930099 1.092 4286941053
-0.103531 0.36930501 1.092 4286940800
-0.100675 0.369647 1.0930001 4287006593
-0.097725101 0.36965099 1.0930001 4287664523
-0.094687998 0.36931601 1.092 4286743423
-0.091740303 0.36932001 1.092 4286546044
-0.088792503 0.369324 1.092 4286348665
-0.086001799 0.370004 1.094 4286677116
-0.082972497 0.36966899 1.0930001 4286874493
-0.080021702 0.369672 1.0930001 4286742907
-0.077141397 0.37001401 1.094 4286413942
-0.0741878 0.37001699 1.094 4286282870
-0.071168996 0.36968201 1.0930001 4286283640
-0.068093203 0.36900899 1.091 4286546812
-0.0651474 0.36901101 1.091 4286546812
-0.062201701 0.36901399 1.091 4286677628
-0.059310101 0.36935499 1.092 4287203458
-0.056309901 0.369019 1.091 4287334529
-0.053364001 0.36902201 1.091 4287663494
-0.0503718 0.36868599 1.09 4286742392
-0.047384899 0.36835 1.089 4287532678
-0.0444034 0.36801401 1.0880001 4287993229
-0.041465301 0.36801499 1.0880001 4287269765
-0.0384918 0.367679 1.087 4287467144
-0.035556398 0.367681 1.087 4287401606
-0.0325909 0.36734399 1.086 4287533192
-0.0296581 0.36734501 1.086 4287796879
-0.026675999 0.36667001 1.084 4288652188
-0.023748601 0.366671 1.084 4288060311
-0.0208019 0.36633399 1.0829999 4288980900
-0.0178605 0.36599699 1.082 4289770416
-0.0149246 0.365659 1.081 4288454302
-0.011994 0.36532101 1.08 4288651935
-0.0090772798 0.36532199 1.08 4288454555
-0.0061547998 0.36498401 1.079 4288586141
-0.0032437299 0.36532301 1.08 4288849313
-0.000326643 0.36498401 1.079 4289046692
0.0025826399 0.364308 1.077 4288915106
0.0054760301 0.36329299 1.074 4288586141
0.0083531998 0.36227801 1.071 4289309865
0.0112562 0.362616 1.072 4289178279
0.0141645 0.36295301 1.073 4288980130
0.0170941 0.36362901 1.075 4288848544
0.0199416 0.36261299 1.072 4288716958
0.022794001 0.361936 1.0700001 4289506476
0.025683699 0.36193499 1.0700001 4288586142
0.0285466 0.361595 1.069 4288651935
0.0313747 0.360917 1.067 4288520348
0.034192 0.360239 1.0650001 4287599246
0.0370332 0.3599 1.064 4287269765
0.039868999 0.35956001 1.063 4287796111
0.042619001 0.35854301 1.0599999 4287006595
0.045438401 0.35820299 1.059 4286480249
0.048298098 0.358201 1.059 4286545528
0.051157702 0.35819799 1.059 4286281842
0.0541193 0.35887301 1.061 4286084462
0.057037901 0.35920799 1.062 4284966235
0.0599619 0.35954401 1.063 4284900442
0.062713802 0.35886499 1.061 4284769372
0.065578498 0.35886201 1.061 4284769886
0.068443201 0.358859 1.061 4284900958
0.071442202 0.35953301 1.063 4285426786
0.074312098 0.35953 1.063 4284374098
0.077254601 0.35986501 1.064 4283847239
0.080127098 0.359862 1.064 4283913033
0.083311498 0.361211 1.068 4284110412
0.086194597 0.36120799 1.068 4283846729
0.089077704 0.361204 1.068 4283978315
0.091874599 0.36086199 1.067 4284439120
0.094843604 0.36119699 1.068 4284768084
0.097817898 0.36153099 1.069 4284768338
0.100703 0.361527 1.069 4284834131
0.103589 0.361523 1.069 4284570962
0.106474 0.36151901 1.069 4285031514
0.109461 0.36185399 1.0700001 4285097307
0.112454 0.36218801 1.071 4285360993
0.115452 0.36252201 1.072 4285229921
0.118345 0.362517 1.072 4285295714
0.121238 0.36251301 1.072 4285032797
0.124131 0.36250901 1.072 4284769884
0.12678701 0.361828 1.0700001 4284375126
0.12943199 0.361148 1.068 4285954160
0.132314 0.36114299 1.068 4285033572
0.13544901 0.36181501 1.0700001 4284769370
0.138595 0.36248699 1.072 4285953129
0.141487 0.36248299 1.072 4284440658
0.144379 0.36247799 1.072 4284769623
0.146997 0.361797 1.0700001 4285427553
0.150024 0.362131 1.071 4285296483
0.152913 0.36212701 1.071 4285888367
0.156093 0.36279801 1.073 4285888367
0.158692 0.36211801 1.071 4285822058
0.161732 0.362452 1.072 4285427300
0.164317 0.36177099 1.0700001 4285099104
0.16720299 0.36176699 1.0700001 4285098590
0.17008901 0.36176199 1.0700001 4285427555
0.17313799 0.36209601 1.071 4285887851
0.176191 0.36243001 1.072 4286151023
0.17891499 0.36208799 1.071 4286084202
0.181804 0.362084 1.071 4286281580
0.184866 0.362418 1.072 4285689444
0.187932 0.36275199 1.073 4285886823
0.190649 0.36241099 1.072 4286281842
0.193179 0.36173099 1.0700001 4286479735
0.19606601 0.361727 1.0700001 4285822319
0.19876599 0.36138499 1.069 4286480249
0.201649 0.36138201 1.069 4286348663
0.20434099 0.36104101 1.068 4285954674
0.207222 0.361038 1.068 4285428844
0.209906 0.360697 1.067 4286349946
0.21278501 0.36069399 1.067 4285757809
0.215865 0.361029 1.068 4287007876
0.21874601 0.361027 1.068 4286875262
0.22141901 0.360686 1.067 4286743676
0.224088 0.36034599 1.066 4285888367
0.22675 0.360006 1.0650001 4286743676
0.229624 0.36000401 1.0650001 4286348918
0.232279 0.35966501 1.064 4286612858
0.235149 0.35966301 1.064 4286151537
0.23802 0.359662 1.064 4287006846
0.241117 0.359999 1.0650001 4286019951
0.243762 0.35966 1.064 4286743674
0.24663299 0.35966 1.064 4287203711
0.249505 0.35965899 1.064 4286282611
0.25237599 0.35965899 1.064 4286085232
0.25500801 0.359321 1.063 4286216563
0.257635 0.35898399 1.062 4286677114
0.26099199 0.35966101 1.064 4286677628
0.263616 0.35932401 1.063 4286875007
0.26623499 0.358987 1.062 4287269765
0.26859599 0.35831299 1.0599999 4286875007
0.27197 0.358991 1.062 4287599500
0.27509701 0.35933101 1.063 4286809984
0.27770701 0.35899499 1.062 4286415225
0.28031099 0.35866001 1.061 4287204741
0.28264299 0.357988 1.059 4287402121
0.28523499 0.35765299 1.058 4287402121
0.28809401 0.35765699 1.058 4286875777
0.29067799 0.35732299 1.057 4287138949
0.29353499 0.357328 1.057 4287533707
0.296112 0.35699499 1.056 4287796879
0.29896599 0.35700101 1.056 4286810759
0.30182201 0.357007 1.056 4288587170
0.304389 0.356675 1.0549999 4288521376
0.306952 0.35634401 1.054 4287468688
0.30980301 0.35635099 1.054 4287600014
0.31235799 0.35602099 1.053 4287007877
0.31550699 0.35636699 1.054 4287402635
0.31805801 0.356038 1.053 4287731086
0.320604 0.35570899 1.052 4287270534
0.32253101 0.35470399 1.049 4286744444
0.32537201 0.35471401 1.049 4287204995
0.32727501 0.35371 1.046 4287336581
0.329478 0.35304499 1.044 4287402635
0.33230799 0.35305601 1.044 4288060565
0.33546001 0.353407 1.045 4288784035
0.338617 0.35375699 1.046 4288323998
0.341454 0.353771 1.046 4288323998
0.343963 0.35344601 1.045 4288784549
0.346136 0.35278401 1.043 4287534481
0.34863299 0.35246101 1.0420001 4288521377
0.351125 0.35213801 1.041 4289376688
0.35429299 0.35249299 1.0420001 4288192414
0.35678101 0.352171 1.041 4287534484
0.359611 0.352189 1.041 4289705653
0.361397 0.351192 1.038 4288192412
0.36422101 0.35121101 1.038 4288587170
0.36633801 0.35055301 1.036 4288981927
0.369158 0.35057399 1.036 4289442732
0.37162 0.350256 1.035 4288784548
0.374439 0.35027701 1.035 4289705650
0.37689501 0.34996101 1.034 4288916388
0.37787801 0.34829199 1.029 4288587423
0.37957501 0.34729999 1.026 4288455837
0.38162899 0.34664699 1.024 4289705904
0.38517499 0.34734899 1.026 4288718755
0.38759899 0.347036 1.025 4288784548
0.39039999 0.347063 1.025 4289112999
0.392818 0.346751 1.024 4287468428
0.395619 0.34678 1.024 4287994004
0.39803201 0.34647 1.023 4288849567
0.40044001 0.34616101 1.022 4288389276
0.40166199 0.34483701 1.018 4288718495
0.40405399 0.344529 1.017 4288192665
0.40684301 0.34456101 1.017 4289508271
0.40963301 0.344594 1.017 4289376685
0.411614 0.34395099 1.015 4289113513
0.413178 0.342969 1.012 4287994518
0.415548 0.342666 1.011 4288520862
0.417501 0.342024 1.0089999 4287863700
0.41986099 0.341723 1.008 4287929493
0.42263699 0.34176099 1.008 4287995285
0.42499301 0.341461 1.007 4287929746
0.42776999 0.34150201 1.007 4287929746
0.42969301 0.34086499 1.005 4287600527
0.43203801 0.34056801 1.0039999 4288521630
0.433947 0.33993301 1.002 4288521630
0.43628201 0.33963701 1.001 4287995286
0.438613 0.33934301 1 4287665807
0.44182399 0.33972901 1.001 4287534474
0.44415501 0.33943701 1 4286744958
0.44692901 0.339486 1 4288060818
0.448805 0.33885601 0.99800003 4286810751
0.45203099 0.33924699 0.99900001 4286678397
0.45480901 0.33929801 0.99900001 4285165158
0.45713201 0.339012 0.99800003 4285361768
0.459912 0.339066 0.99800003 4287401351
0.46223101 0.33878201 0.99699998 4285756779
0.465013 0.33883801 0.99699998 4285494377
0.46779901 0.33889601 0.99699998 4284572505
0.470586 0.33895499 0.99699998 4285296483
0.47385201 0.33935499 0.99800003 4285427814
0.47712499 0.339757 0.99900001 4284835679
0.48088801 0.34050101 1.001 4284046931
0.48418099 0.34090501 1.002 4284836447
0.48748299 0.34131199 1.003 4284507228
0.490794 0.341719 1.0039999 4284376157
0.494605 0.34246901 1.006 4285099880
0.49793601 0.34288001 1.007 4285297259
-0.19854 0.36756799 1.096 4285623397
-0.19576199 0.367908 1.097 4284965721
-0.19297899 0.368247 1.098 4285492064
-0.190191 0.36858699 1.099 4286149994
-0.187397 0.368927 1.1 4286150248
-0.184597 0.369266 1.101 4286084453
-0.181462 0.36893499 1.1 4286216039
-0.178333 0.368604 1.099 4286610797
-0.175209 0.368274 1.098 4285821283
-0.17224699 0.368278 1.098 4285887336
-0.169439 0.36861801 1.099 4286874232
-0.16632301 0.368287 1.098 4286743421
-0.163361 0.368292 1.098 4286546297
-0.160399 0.36829701 1.098 4287532937
-0.157437 0.36830199 1.098 4286940800
-0.15433399 0.367971 1.097 4287598730
-0.151236 0.36763999 1.096 4287729287
-0.14814401 0.367309 1.095 4287005564
-0.145322 0.36765 1.096 4286873464
-0.14236499 0.367654 1.096 4286149995
-0.13940801 0.367659 1.096 4285689443
-0.13620099 0.36699301 1.094 4285755490
-0.133371 0.36733299 1.095 4285426525
-0.13053501 0.36767301 1.096 4286149994
-0.12757801 0.36767799 1.096 4286610546
-0.124507 0.367347 1.095 4286676085
-0.12144 0.36701599 1.094 4286807671
-0.118488 0.36702001 1.094 4286742392
-0.115641 0.36736 1.095 4286808185
-0.112686 0.36736399 1.095 4286019439
-0.10953 0.366698 1.0930001 4286875262
-0.106482 0.366366 1.092 4287072639
-0.103535 0.36637101 1.092 4286809214
-0.100679 0.36671001 1.0930001 4286809214
-0.097907797 0.367385 1.095 4287203972
-0.0948653 0.36705399 1.094 4286940800
-0.091828004 0.36672199 1.0930001 4286348665
-0.088877402 0.36672601 1.0930001 4286611323
-0.086005397 0.36706501 1.094 4286742907
-0.082975999 0.36673301 1.0930001 4287268737
-0.080025099 0.36673599 1.0930001 4286940286
-0.077144697 0.367075 1.094 4286611321
-0.074190997 0.36707899 1.094 4286677114
-0.071237199 0.367082 1.094 4286546042
-0.0681585 0.36641401 1.092 4286743421
-0.06521 0.36641699 1.092 4286677628
-0.062261399 0.36641899 1.092 4286875007
-0.059367102 0.36675799 1.0930001 4286874493
-0.0563641 0.36642501 1.092 4287071357
-0.053415298 0.366427 1.092 4287466369
-0.050374001 0.36575899 1.09 4286479220
-0.047387 0.36542499 1.089 4287663494
-0.044405401 0.36509201 1.0880001 4288059022
-0.041467201 0.36509401 1.0880001 4287335558
-0.038529001 0.365096 1.0880001 4287532937
-0.035590701 0.36509699 1.0880001 4287664778
-0.032622401 0.36476299 1.087 4287664778
-0.029686799 0.36476499 1.087 4287862672
-0.026726499 0.36443099 1.086 4288389016
-0.023771601 0.36409599 1.085 4288257690
-0.020822 0.36376199 1.084 4289047207
-0.017877899 0.36342701 1.0829999 4290165688
-0.0149529 0.363428 1.0829999 4288585888
-0.0120168 0.36309299 1.082 4288256923
-0.0090777101 0.36242199 1.08 4288322970
-0.0061550899 0.36208701 1.079 4288651934
-0.0032378701 0.361752 1.0779999 4288849313
-0.00032665799 0.36208701 1.079 4289178278
0.0025827701 0.36141601 1.077 4289112485
0.00548138 0.36074501 1.075 4288849313
0.0083613899 0.35973799 1.072 4289046692
0.0112567 0.35973701 1.072 4288783520
0.0141652 0.36007199 1.073 4289046693
0.0170631 0.360071 1.073 4288651935
0.019923899 0.35939899 1.071 4288651935
0.0227738 0.35872701 1.069 4289112232
0.0256369 0.35839099 1.068 4288454556
0.0284945 0.35805401 1.067 4288322970
0.031317402 0.35738099 1.0650001 4288651934
0.034161501 0.35704401 1.064 4287072902
0.037000101 0.35670701 1.063 4287467914
0.039870799 0.35670501 1.063 4287861902
0.042620901 0.35569599 1.0599999 4286809214
0.045440499 0.35535899 1.059 4286546042
0.0483003 0.35535699 1.059 4286414197
0.051256601 0.35602599 1.061 4286150255
0.054223701 0.35669401 1.063 4286150509
0.057147801 0.35702699 1.064 4285163614
0.0599645 0.35668901 1.063 4284834649
0.062716603 0.356015 1.061 4284966235
0.065519601 0.35567701 1.0599999 4284966751
0.0683816 0.355674 1.0599999 4284769372
0.071445301 0.35667801 1.063 4285492579
0.074175499 0.35600299 1.061 4284242512
0.077185303 0.35667101 1.063 4284044618
0.080130398 0.357003 1.064 4283649860
0.083315 0.35834199 1.068 4284439120
0.086117499 0.35800299 1.067 4284241741
0.088914499 0.35766399 1.066 4284044362
0.091792203 0.35766 1.066 4284768084
0.0947586 0.35799199 1.067 4284768338
0.097730301 0.35832301 1.068 4284834388
0.100425 0.35764799 1.066 4284768595
0.103399 0.35798001 1.067 4284834388
0.106179 0.35764 1.066 4284768341
0.109261 0.358307 1.068 4284768855
0.112143 0.35830301 1.068 4285360993
0.115134 0.358634 1.069 4285295714
0.118129 0.35896501 1.0700001 4285230435
0.12113 0.35929599 1.071 4285033311
0.12402 0.359292 1.071 4284704861
0.126555 0.35828099 1.068 4284309333
0.129558 0.358612 1.069 4286085746
0.132566 0.35894299 1.0700001 4284901472
0.13558 0.359274 1.071 4285426786
0.13846999 0.35926899 1.071 4285953129
0.141359 0.35926399 1.071 4284308304
0.144384 0.359595 1.072 4285097820
0.147276 0.35959101 1.072 4285426785
0.150308 0.35992101 1.073 4285624679
0.15306 0.35958099 1.072 4285887853
0.15595201 0.359577 1.072 4285822060
0.158548 0.35890099 1.0700001 4285953130
0.161736 0.359568 1.072 4285822058
0.16432101 0.35889199 1.0700001 4285427555
0.167207 0.358888 1.0700001 4285295969
0.169935 0.35854799 1.069 4285559141
0.173142 0.35921401 1.071 4285887851
0.17603099 0.35921001 1.071 4286085230
0.179087 0.359541 1.072 4286413167
0.181639 0.35886601 1.0700001 4286676339
0.184697 0.35919699 1.071 4286149995
0.18776099 0.35952801 1.072 4285689190
0.190653 0.35952401 1.072 4286807672
0.19336399 0.35918501 1.071 4286808186
0.196252 0.35918099 1.071 4286282356
0.198955 0.35884199 1.0700001 4286742907
0.201841 0.35883799 1.0700001 4286217077
0.20453601 0.35849899 1.069 4286085746
0.20722499 0.358161 1.068 4285362791
0.210106 0.35815701 1.068 4285823602
0.212787 0.35781899 1.067 4285955188
0.215868 0.35815099 1.068 4286744704
0.218339 0.35747799 1.066 4286612604
0.221007 0.35714 1.0650001 4286546811
0.22387999 0.35713699 1.0650001 4285691502
0.226752 0.357135 1.0650001 4286743676
0.229625 0.357133 1.0650001 4286481018
0.23228 0.356796 1.064 4286744190
0.23537201 0.35712901 1.0650001 4285757295
0.238245 0.35712799 1.0650001 4287006848
0.241345 0.35746199 1.066 4285954160
0.243992 0.35712501 1.0650001 4286809467
0.246866 0.357124 1.0650001 4287072639
0.249505 0.35678801 1.064 4286348918
0.25237599 0.35678801 1.064 4286085746
0.25500801 0.35645199 1.063 4286413942
0.25787699 0.35645199 1.063 4286677114
0.26099101 0.35678801 1.064 4286611321
0.26361501 0.35645401 1.063 4286348663
0.26598299 0.355784 1.061 4287532937
0.268594 0.35545 1.0599999 4286875007
0.27196899 0.35612199 1.062 4287796879
0.274836 0.35612401 1.062 4286875777
0.27796599 0.35646099 1.063 4286481019
0.28030801 0.355793 1.061 4287270534
0.28317401 0.35579601 1.061 4287402635
0.28577101 0.35546401 1.0599999 4287073670
0.288634 0.35546699 1.0599999 4287073156
0.29094899 0.354801 1.058 4287599500
0.29352999 0.35447001 1.057 4287599500
0.29638699 0.35447401 1.057 4287665039
