# .PCD v0.7 - Point Cloud Data file format
VERSION 0.7
FIELDS x y z rgb
SIZE 4 4 4 4
TYPE F F F U
COUNT 1 1 1 1
WIDTH 1206
HEIGHT 1
VIEWPOINT 0 0 0 1 0 0 0
POINTS 1206
DATA ascii
0.26564199 0.35536501 1.095 4288455583
0.26859599 0.35536399 1.095 4287073931
0.27105501 0.35471401 1.0930001 4288060828
0.27400401 0.35471299 1.0930001 4288587175
0.276954 0.35471299 1.0930001 4287600281
0.27990401 0.35471299 1.0930001 4287534487
0.28259501 0.35438901 1.092 4289179312
0.284758 0.353416 1.089 4288061345
0.28716999 0.352768 1.087 4288653482
0.28957 0.35212001 1.085 4289508792
0.29277 0.35244599 1.086 4288653483
0.295158 0.35179901 1.084 4289640380
0.297535 0.351152 1.082 4289179829
0.29962501 0.35018101 1.079 4289640380
0.302259 0.349859 1.0779999 4290100161
0.30460501 0.34921399 1.076 4289771196
0.306941 0.34856799 1.074 4290165954
0.30955499 0.348248 1.073 4289508024
0.31216401 0.34792799 1.072 4289573817
0.31476799 0.347608 1.071 4290692298
0.31677401 0.34663999 1.068 4290100161
0.318764 0.34567201 1.0650001 4290100162
0.32134199 0.34535399 1.064 4289903297
0.32391599 0.345036 1.063 4291219157
0.326792 0.345043 1.063 4291416022
0.32904899 0.344401 1.061 4290626506
0.33129501 0.34376001 1.059 4290297540
0.333215 0.34279501 1.056 4290758091
0.33543801 0.34215501 1.054 4291152850
0.33668801 0.34054101 1.049 4290758606
0.33823499 0.33925301 1.045 4290890706
0.33943501 0.33763999 1.04 4291680738
0.34126699 0.33667701 1.0369999 4290760150
0.34242001 0.33506501 1.0319999 4290629079
0.34388 0.33377799 1.028 4290694872
0.34531999 0.33249199 1.024 4290299600
0.34707901 0.33153099 1.021 4291350743
0.348822 0.33057001 1.018 4290956240
0.350896 0.32993501 1.016 4288850090
0.35261101 0.32897499 1.013 4288389539
0.35466099 0.32834101 1.011 4289047470
0.35705599 0.32803199 1.01 4288389797
0.360158 0.32837299 1.011 4287928989
0.363267 0.328715 1.012 4286284421
0.366743 0.329382 1.0140001 4285626233
0.37059599 0.33037499 1.017 4285888889
0.37520099 0.332019 1.022 4285625971
0.38205299 0.335612 1.033 4284901733
0.394555 0.34408101 1.059 4284835940
0.41245401 0.35710099 1.099 4284638815
0.42452401 0.364923 1.123 4284637792
0.43063399 0.36754799 1.131 4283716692
0.43448901 0.36822399 1.133 4282203696
0.437969 0.36857599 1.1339999 4283124282
0.44106799 0.368604 1.1339999 4283058744
0.44455901 0.368958 1.135 4282597938
0.44766399 0.36898801 1.135 4282730294
0.45116699 0.36934301 1.136 4282532914
0.45427701 0.36937499 1.136 4282796601
0.45779201 0.36973301 1.137 4282665015
0.460908 0.369766 1.137 4282730294
0.464026 0.36980101 1.137 4282795317
0.46632501 0.369185 1.135 4281874215
0.46985501 0.36954701 1.136 4282071594
0.47339201 0.36991 1.137 4282269743
0.47567999 0.36929801 1.135 4283059005
0.47837999 0.369012 1.1339999 4282138164
0.48107699 0.368727 1.133 4282400822
0.484198 0.36876801 1.133 4282597686
0.48646101 0.36816001 1.131 4282531893
0.48958001 0.36820301 1.131 4282400307
0.49270201 0.36824799 1.131 4282334768
0.495388 0.36796799 1.13 4282926905
0.49807 0.36768901 1.1289999 4283124284
0.49986199 0.36675999 1.126 4282926651
-0.197295 0.350564 1.089 4286348412
-0.194536 0.35089099 1.09 4286545791
-0.191773 0.35121799 1.091 4287203719
-0.18900301 0.35154599 1.092 4287072133
-0.18622801 0.35187301 1.0930001 4287072649
-0.18311299 0.35155699 1.092 4287204237
-0.180168 0.35156199 1.092 4287335568
-0.176898 0.35092399 1.09 4288058777
-0.17379799 0.35060701 1.089 4287927191
-0.17070401 0.35029101 1.0880001 4287466640
-0.167769 0.350297 1.0880001 4287729812
-0.164985 0.350624 1.089 4287861912
-0.16234501 0.35127401 1.091 4288125084
-0.159256 0.35095701 1.09 4288388256
-0.15617201 0.35064101 1.089 4288783014
-0.152953 0.350003 1.087 4288191130
-0.149882 0.349686 1.086 4287796372
-0.146817 0.34937 1.085 4287795858
-0.143757 0.349053 1.084 4287927958
-0.140962 0.349381 1.085 4287795858
-0.138161 0.34970799 1.086 4287795858
-0.135355 0.350036 1.087 4287993239
-0.132422 0.350041 1.087 4287664274
-0.12948801 0.35004601 1.087 4287598481
-0.126206 0.34908599 1.084 4287796119
-0.123166 0.34876901 1.0829999 4288059807
-0.120132 0.348452 1.082 4287994012
-0.11732 0.34877899 1.0829999 4288059807
-0.114186 0.34814 1.081 4288389025
-0.111165 0.34782299 1.08 4288191646
-0.10835 0.34815001 1.081 4287731095
-0.105627 0.34879899 1.0829999 4288586404
-0.102703 0.34880301 1.0829999 4289310127
-0.099779703 0.34880799 1.0829999 4288783528
-0.096676998 0.34816799 1.081 4289046186
-0.093585096 0.34752899 1.079 4289375151
-0.090587802 0.347211 1.0779999 4289507253
-0.087677203 0.347215 1.0779999 4289902011
-0.0848452 0.347541 1.079 4290231490
-0.081855699 0.34722301 1.0779999 4290165697
-0.078798398 0.34658301 1.076 4290560456
-0.075751796 0.34594199 1.074 4290889420
-0.072648004 0.34498 1.071 4289770939
-0.0696906 0.344661 1.0700001 4289639353
-0.066863403 0.34498599 1.071 4290099905
-0.063911296 0.34466699 1.0700001 4289770940
-0.060907502 0.344026 1.068 4290626249
-0.057914399 0.34338501 1.066 4290626249
-0.0550352 0.34338799 1.066 4290692045
-0.052107099 0.34306899 1.0650001 4291284179
-0.049091902 0.342105 1.062 4291021007
-0.046179801 0.34178501 1.061 4290823628
-0.043232299 0.34114301 1.059 4290428870
-0.040333699 0.34082299 1.058 4290889421
-0.037404999 0.34018099 1.056 4290757835
-0.034519698 0.33985999 1.0549999 4290626249
-0.031639799 0.33954 1.054 4290626248
-0.028710701 0.33857501 1.051 4289902526
-0.025797701 0.33761001 1.048 4289836733
-0.0229447 0.33728901 1.0470001 4289573307
-0.020116299 0.33728999 1.0470001 4288454826
-0.017271399 0.33696899 1.046 4289113010
-0.0144042 0.33600399 1.043 4289244596
-0.0115866 0.33600399 1.043 4288389286
-0.0087604998 0.33568299 1.0420001 4288783016
-0.0059512202 0.336005 1.043 4288651428
-0.00313353 0.33600599 1.043 4288387742
-0.00031553599 0.33568299 1.0420001 4288190363
0.00249706 0.335361 1.041 4288322977
0.00529915 0.33471701 1.039 4287731095
0.0081138304 0.33503899 1.04 4288257437
0.0109129 0.33471599 1.039 4286744198
0.0137329 0.33503699 1.04 4286151286
0.0165266 0.334714 1.039 4286348665
0.0193334 0.33471301 1.039 4286019184
0.0221189 0.33439001 1.038 4285493354
0.0249229 0.334389 1.038 4285295461
0.027780401 0.33503199 1.04 4285295461
0.0306192 0.33535299 1.041 4286150770
0.033495501 0.33599499 1.043 4285558633
0.0363129 0.33599299 1.043 4285229670
0.039167799 0.33631399 1.044 4285229668
0.042068198 0.33695599 1.046 4284637531
0.044979401 0.337598 1.048 4284505945
0.047947001 0.33856201 1.051 4284900189
0.050834101 0.33888099 1.052 4285229153
0.0538285 0.339845 1.0549999 4284439638
0.056785401 0.340487 1.057 4284110673
0.059865899 0.34177199 1.061 4284439637
0.0629678 0.34305799 1.0650001 4283847500
0.066153198 0.34466499 1.0700001 4285294946
0.069236398 0.34562799 1.073 4284176719
0.072402999 0.34691301 1.077 4285032028
0.075381301 0.34723201 1.0779999 4283978826
0.0784375 0.34787199 1.08 4284307791
0.081353799 0.347868 1.08 4284110158
0.084504098 0.34883001 1.0829999 4284571223
0.0875898 0.349471 1.085 4284110672
0.0906028 0.34978801 1.086 4283913293
0.093621001 0.350106 1.087 4284373584
0.096644603 0.35042399 1.0880001 4284505423
0.099764898 0.351064 1.09 4284176204
0.102896 0.35170299 1.092 4284637009
0.106038 0.35234201 1.094 4284176205
0.109091 0.35266 1.095 4283781194
0.112046 0.35265499 1.095 4283912780
0.115002 0.35264999 1.095 4283978320
0.117958 0.35264501 1.095 4284702295
0.120913 0.35264 1.095 4284768088
0.124095 0.35327899 1.097 4284176465
0.12740301 0.35423899 1.1 4284702809
0.13049001 0.35455599 1.101 4284045394
0.13334 0.354229 1.1 4284440407
0.13618501 0.353901 1.099 4284638300
0.139277 0.35421801 1.1 4284572252
0.14250401 0.35485601 1.102 4285032289
0.145477 0.35485101 1.102 4284900189
0.14858501 0.355167 1.103 4284373845
0.15156101 0.35516101 1.103 4284768088
0.15453701 0.355156 1.103 4285031260
0.15751299 0.35515001 1.103 4284768602
0.160925 0.35611001 1.1059999 4284308051
0.164057 0.35642701 1.107 4284571223
0.167043 0.35642099 1.107 4284637017
0.16987599 0.35609299 1.1059999 4284899674
0.172859 0.356087 1.1059999 4284373584
0.17568301 0.35576001 1.105 4284373583
0.178664 0.35575399 1.105 4284768341
0.18180899 0.356071 1.1059999 4284505169
0.18495899 0.35638699 1.107 4284965720
0.18794399 0.356381 1.107 4285360993
0.191103 0.35669801 1.108 4285228893
0.19391599 0.35637 1.107 4285492065
0.19690099 0.356365 1.107 4284570709
0.199706 0.356038 1.1059999 4284702295
0.20287199 0.35635501 1.107 4285426532
0.20585699 0.35634899 1.107 4285295461
0.208654 0.356022 1.1059999 4284309080
0.21182799 0.35633901 1.107 4285033573
0.21481299 0.35633501 1.107 4285559402
0.217995 0.35665199 1.108 4285625195
0.22078399 0.356325 1.107 4285032803
0.22356699 0.35599899 1.1059999 4286414456
0.226345 0.355672 1.105 4286348918
0.229325 0.35566801 1.105 4285493354
0.23230501 0.35566401 1.105 4286085491
0.234859 0.35501701 1.103 4286546297
0.238049 0.355335 1.104 4286217332
0.240808 0.35500899 1.103 4286019698
0.244004 0.35532799 1.104 4285756526
0.246534 0.35468099 1.102 4285822319
0.249506 0.354678 1.102 4287335558
0.252478 0.35467499 1.102 4287007109
0.254987 0.354029 1.1 4287073931
0.25771901 0.35370401 1.099 4287139723
0.26021001 0.35305801 1.097 4287929497
0.26340899 0.353378 1.098 4287600275
0.26588601 0.35273299 1.096 4288389790
0.268843 0.352732 1.096 4287468689
0.27130401 0.35208699 1.094 4288126619
0.274005 0.35176399 1.0930001 4288521379
0.276701 0.35144201 1.092 4287929499
0.27939099 0.35111901 1.091 4287666073
0.282336 0.35111901 1.091 4289047469
0.28449601 0.35015401 1.0880001 4288061345
0.28690401 0.349511 1.086 4288588204
0.28956899 0.34919 1.085 4289311927
0.29249901 0.34919101 1.085 4288719792
0.295156 0.34887099 1.084 4289706173
0.29753301 0.34822899 1.082 4288982450
0.299622 0.34726599 1.079 4289640380
0.30225599 0.34694701 1.0779999 4290297540
0.30431899 0.34598401 1.075 4289639610
0.30693701 0.34566501 1.074 4290100931
0.309551 0.34534699 1.073 4289705403
0.312451 0.34535101 1.073 4289639610
0.31476301 0.34471199 1.071 4290758091
0.316769 0.343752 1.068 4290231747
0.31875801 0.34279099 1.0650001 4290363333
0.32103401 0.34215301 1.063 4289771711
0.32390901 0.342159 1.063 4291219157
0.326785 0.34216601 1.063 4291350229
0.32935101 0.341851 1.062 4290955471
0.331287 0.340893 1.059 4290429126
0.33352199 0.34025699 1.057 4291152592
0.33511099 0.33897799 1.053 4291152592
0.33667901 0.33770001 1.049 4290692298
0.33790201 0.336099 1.044 4290693327
0.33909899 0.33450001 1.039 4291943910
0.34059799 0.333222 1.035 4290825943
0.342076 0.331945 1.031 4290497239
0.34386799 0.330991 1.028 4290563286
0.34530801 0.32971501 1.024 4290430672
0.34706599 0.32876101 1.021 4291087571
0.34846601 0.32748601 1.017 4291547607
0.350191 0.326534 1.0140001 4288652712
0.35155201 0.325259 1.01 4288455332
0.35429499 0.32527399 1.01 4288192161
0.35703999 0.32528901 1.01 4287928989
0.36049801 0.32594901 1.012 4287073680
0.36289001 0.32564399 1.011 4285692027
0.366364 0.326305 1.013 4285429108
0.370213 0.32728899 1.016 4285560694
0.375182 0.32924101 1.022 4285033580
0.38203299 0.33280399 1.033 4284967527
0.39416099 0.34087899 1.058 4284835941
0.412431 0.35411099 1.099 4284441183
0.42412201 0.361545 1.122 4284178010
0.43022799 0.36414799 1.13 4283716943
0.43407899 0.36481801 1.132 4282203698
0.437942 0.36548799 1.1339999 4282598454
0.44142899 0.36583799 1.135 4282730294
0.444922 0.36618799 1.136 4282796087
0.44763401 0.365895 1.135 4282664501
0.45113599 0.366247 1.136 4282401328
0.45384601 0.365955 1.135 4282665014
0.45735699 0.36630899 1.136 4282664500
0.46046901 0.36634201 1.136 4282861365
0.46358401 0.36637601 1.136 4282927158
0.46628901 0.366088 1.135 4282466607
0.469818 0.36644599 1.136 4282137642
0.47252199 0.36615899 1.135 4282466352
0.47522199 0.36587399 1.1339999 4282795319
0.47834101 0.365913 1.1339999 4282663994
0.48103699 0.36562899 1.133 4282137905
0.483729 0.365347 1.132 4282466354
0.48598799 0.36474299 1.13 4281874217
0.488671 0.364463 1.1289999 4282465840
0.49222201 0.36482999 1.13 4281940010
0.49446499 0.36422801 1.128 4282531893
0.497141 0.363951 1.127 4282597686
0.49937001 0.363352 1.125 4282794552
-0.19748101 0.34795299 1.09 4286216826
-0.19472 0.34827799 1.091 4286677377
-0.191778 0.34828299 1.091 4287335305
-0.18883599 0.34828901 1.091 4287203719
-0.186064 0.34861299 1.092 4286809477
-0.182951 0.34830001 1.091 4287072649
-0.18000799 0.348306 1.091 4287335823
-0.17690299 0.347992 1.09 4288059291
-0.173804 0.34767899 1.089 4288125339
-0.170709 0.34736499 1.0880001 4287466640
-0.16762 0.34705201 1.087 4288124570
-0.16499101 0.34769601 1.089 4288124570
-0.162053 0.347702 1.089 4288519842
-0.159116 0.347707 1.089 4288322718
-0.155891 0.34707499 1.087 4288717476
-0.153099 0.34740001 1.0880001 4288388509
-0.14988799 0.34676701 1.086 4287862419
-0.14682201 0.34645301 1.085 4287467407
-0.14376201 0.34614 1.084 4287862165
-0.140967 0.34646499 1.085 4287598993
-0.13816699 0.34678999 1.086 4287598993
-0.135112 0.34647599 1.085 4287730067
-0.132305 0.34680101 1.086 4287927446
-0.129375 0.34680599 1.086 4287335568
-0.126444 0.34681201 1.086 4287269777
-0.123285 0.346178 1.084 4287665049
-0.120249 0.345864 1.0829999 4288388772
-0.117434 0.34618899 1.084 4288520358
-0.114297 0.34555501 1.082 4288322977
-0.111273 0.34524101 1.081 4287994267
-0.108355 0.34524599 1.081 4287993753
-0.105632 0.345889 1.0829999 4288651683
-0.102803 0.346214 1.084 4289178286
-0.099692203 0.34558001 1.082 4289046700
-0.096681498 0.345265 1.081 4289177772
-0.0935895 0.34463 1.079 4289572530
-0.090676203 0.34463501 1.079 4289177774
-0.087762803 0.344639 1.079 4289704632
-0.084927902 0.34496301 1.08 4290231490
-0.0818597 0.34432799 1.0779999 4289770939
-0.078729004 0.34337401 1.075 4290560456
-0.075684898 0.34273899 1.073 4290692042
-0.072719403 0.34242299 1.072 4290034111
-0.069759198 0.342107 1.071 4289573560
-0.0668668 0.34211099 1.071 4289836733
-0.063854799 0.34147501 1.069 4289968319
-0.060910501 0.34115899 1.068 4290626249
-0.057917301 0.340523 1.066 4290692042
-0.054986399 0.340206 1.0650001 4290625995
-0.0521098 0.34020901 1.0650001 4291086800
-0.049094401 0.33925301 1.062 4290692042
-0.0461387 0.338617 1.0599999 4290955214
-0.043152899 0.337661 1.057 4290363077
-0.040259499 0.33734399 1.056 4290955214
-0.037406899 0.33734599 1.056 4290494409
-0.034554299 0.33734801 1.056 4290692042
-0.031671502 0.33702999 1.0549999 4290692042
-0.028739501 0.33607301 1.052 4289639354
-0.025799099 0.33479699 1.048 4289705147
-0.022967899 0.33479801 1.048 4289507514
-0.0201366 0.33479899 1.048 4288652459
-0.017272299 0.33416101 1.046 4289441975
-0.014405 0.333204 1.043 4288718252
-0.0115761 0.332885 1.0420001 4288455079
-0.0087609598 0.332885 1.0420001 4288454565
-0.0059515401 0.33320501 1.043 4288783016
-0.00313069 0.33288601 1.0420001 4288256156
-0.00031525001 0.33256701 1.041 4287992984
0.0024971899 0.33256701 1.041 4288388256
0.0053096302 0.33256599 1.041 4287467923
0.0081298603 0.33288601 1.0420001 4288125337
0.010924 0.33224601 1.04 4286283133
0.0137337 0.33224499 1.04 4285690480
0.0165275 0.331925 1.039 4286611582
0.0193344 0.33192399 1.039 4286019186
0.022141401 0.33192301 1.039 4285624426
0.024948301 0.33192199 1.039 4285163875
0.027781799 0.33223999 1.04 4285690219
0.0306208 0.33255801 1.041 4286019184
0.033497199 0.333195 1.043 4285558635
0.036349598 0.33351299 1.044 4285032805
0.0391698 0.33351099 1.044 4284966496
0.0420302 0.333828 1.045 4284637531
0.044938799 0.334465 1.0470001 4284308566
0.0479495 0.33574 1.051 4284900189
0.050933301 0.336696 1.054 4284965981
0.053882301 0.33733201 1.056 4284702810
0.056841999 0.33796799 1.058 4284439638
0.059868898 0.33892301 1.061 4284637016
0.063030101 0.34051701 1.066 4284044879
0.066156499 0.34179199 1.0700001 4285163360
0.069304399 0.34306601 1.074 4284110412
0.072473802 0.34434 1.0779999 4284966235
0.075454898 0.34465599 1.079 4284044870
0.078586601 0.34560999 1.082 4284307791
0.081508398 0.34560701 1.082 4284175952
0.0846643 0.34656101 1.085 4284439638
0.0876747 0.346876 1.086 4284505431
0.090690501 0.34719101 1.087 4284373845
0.093625396 0.34718701 1.087 4284373330
0.096649103 0.34750199 1.0880001 4284176458
0.0998611 0.34845501 1.091 4284571216
0.102807 0.34845001 1.091 4284834134
0.105946 0.34908399 1.0930001 4284702292
0.109096 0.349718 1.095 4284110159
0.112154 0.35003299 1.096 4283912526
0.115112 0.35002699 1.096 4283912526
0.117963 0.34970301 1.095 4284833882
0.121029 0.35001701 1.096 4284965468
0.124213 0.35065001 1.098 4284308052
0.127524 0.351603 1.101 4284834396
0.130614 0.351917 1.102 4284044880
0.13334499 0.351273 1.1 4284308566
0.136314 0.35126701 1.1 4284769631
0.13940901 0.35158101 1.101 4285032289
0.142639 0.35221401 1.103 4285163361
0.14574701 0.35252699 1.104 4285031775
0.148726 0.352521 1.104 4284439124
0.151567 0.35219601 1.103 4284570710
0.154403 0.35187101 1.102 4284899675
0.157519 0.35218501 1.103 4284834395
0.16107599 0.35345599 1.107 4284308051
0.164211 0.353769 1.108 4284636502
0.1672 0.35376301 1.108 4284899674
0.17018899 0.35375801 1.108 4284965467
0.173177 0.35375199 1.108 4284241744
0.17584801 0.35310701 1.1059999 4284373584
0.178831 0.35310099 1.1059999 4284834135
0.181814 0.35309601 1.1059999 4284966235
0.184964 0.35340899 1.107 4284768602
0.18795 0.353403 1.107 4285229153
0.19128101 0.354036 1.109 4284965467
0.194096 0.35371101 1.108 4285360225
0.19708499 0.353706 1.108 4284241745
0.199892 0.35338101 1.107 4284965468
0.203061 0.35369501 1.108 4285558119
0.206049 0.35368899 1.108 4285361254
0.20903701 0.35368401 1.108 4284309080
0.211833 0.35336 1.107 4284901987
0.214818 0.35335401 1.107 4285625195
0.21799999 0.35366899 1.108 4285690733
0.220589 0.35302499 1.1059999 4284836194
0.223369 0.35270101 1.105 4286152054
0.226144 0.35237801 1.104 4286743421
0.229329 0.35269201 1.105 4285362538
0.232519 0.35300699 1.1059999 4285823089
0.23528799 0.35268399 1.105 4286151539
0.23805299 0.35236099 1.104 4286086260
0.240812 0.35203701 1.103 4286085491
0.24378601 0.352034 1.103 4285690733
0.24676099 0.35203001 1.103 4285624940
0.24950901 0.35170799 1.102 4287336074
0.25202301 0.35106599 1.1 4286876038
0.25452599 0.350425 1.098 4287139724
0.257487 0.35042199 1.098 4287468689
0.260212 0.35010099 1.097 4288061085
0.26341099 0.350418 1.098 4287666325
0.26588699 0.34977701 1.096 4288126876
0.26884401 0.349776 1.096 4287534482
0.27155301 0.349455 1.095 4288126621
0.27450699 0.34945399 1.095 4288521377
0.276701 0.34849501 1.092 4287534484
0.279136 0.34785599 1.09 4287665816
0.28207701 0.34785599 1.09 4288916137
0.28449601 0.34721699 1.0880001 4288061345
0.28690401 0.34657899 1.086 4288653999
0.28956801 0.34626099 1.085 4289246650
0.29249701 0.34626201 1.085 4288851378
0.29515401 0.34594399 1.084 4289640380
0.29753101 0.34530699 1.082 4289179829
0.299898 0.34467 1.08 4289574587
0.30225399 0.34403399 1.0779999 4290231747
0.30431601 0.343079 1.075 4289574587
0.306934 0.34276301 1.074 4290298310
0.30954701 0.34244701 1.073 4289311415
0.31244701 0.34245101 1.073 4289706173
0.315052 0.342136 1.072 4290429896
0.31705999 0.34118301 1.069 4290034883
0.318753 0.33991101 1.0650001 4290034883
0.32102799 0.33927801 1.063 4289837506
0.323598 0.338965 1.062 4291284950
0.32677799 0.33928999 1.063 4291416536
0.329344 0.33897701 1.062 4290758606
0.33159199 0.338346 1.0599999 4290429126
0.333514 0.337396 1.057 4291021006
0.334784 0.33580801 1.052 4291152592
0.33634901 0.33454001 1.048 4290758091
0.337569 0.33295199 1.043 4290561741
0.33876199 0.331366 1.038 4291747045
0.34025899 0.33009899 1.034 4290760665
0.34140199 0.328513 1.029 4290694872
0.34318799 0.327566 1.026 4290431700
0.345296 0.32693899 1.024 4289772741
0.347054 0.325993 1.021 4289836990
0.348111 0.32440901 1.016 4289902782
0.34948701 0.32314399 1.012 4287599770
0.35119 0.3222 1.0089999 4287994782
0.35428101 0.32253301 1.01 4289179056
0.357025 0.322548 1.01 4287797403
0.36012599 0.322882 1.011 4287731609
0.362874 0.322898 1.011 4286415749
0.36634699 0.323553 1.013 4284376420
0.37019601 0.32452899 1.016 4284705385
0.374796 0.32614401 1.021 4284441697
0.38164401 0.32967699 1.0319999 4284441697
0.39414001 0.33800301 1.058 4284507490
0.41203299 0.35080299 1.098 4284375389
0.42409801 0.35849401 1.122 4284309850
0.430204 0.361074 1.13 4283585357
0.43443701 0.362057 1.133 4282006319
0.43868801 0.36304101 1.136 4282401077
0.441401 0.362748 1.135 4282006317
0.444502 0.362775 1.135 4282137903
0.44760501 0.36280301 1.135 4282138157
0.45110601 0.363152 1.136 4281677606
0.45421499 0.36318201 1.136 4281940778
0.45732501 0.36321199 1.136 4281940778
0.460437 0.363244 1.136 4282269228
0.46314201 0.362957 1.135 4282203435
0.46625501 0.36299101 1.135 4282137128
0.46936899 0.36302501 1.135 4281939749
0.47248599 0.36306101 1.135 4282269228
0.47476599 0.36245701 1.133 4282203180
0.478302 0.36281499 1.1339999 4282072112
0.480997 0.36253399 1.133 4282334514
0.48368901 0.36225301 1.132 4282531631
0.48637599 0.361974 1.131 4281808163
0.489494 0.36201501 1.131 4282005542
0.492614 0.36205801 1.131 4282137128
0.49485901 0.361462 1.1289999 4282794803
0.49709499 0.36086601 1.127 4283518526
0.49932301 0.36027199 1.125 4283321149
-0.19802999 0.34597 1.0930001 4286282619
-0.194904 0.34565899 1.092 4286348412
-0.19195899 0.34566399 1.092 4286612098
-0.188841 0.34535399 1.091 4286480766
-0.186069 0.345676 1.092 4286546559
-0.18312401 0.345682 1.092 4287138442
-0.180344 0.34600401 1.0930001 4287138442
-0.17723399 0.34569401 1.092 4287993751
-0.173969 0.34506601 1.09 4287993751
-0.170872 0.34475601 1.089 4287204235
-0.16778 0.34444499 1.0880001 4287927960
-0.165149 0.34508401 1.09 4288125339
-0.16205899 0.34477401 1.089 4288454049
-0.15912201 0.34478 1.089 4287927705
-0.15604 0.34446901 1.0880001 4288388256
-0.153246 0.34479201 1.089 4287927960
-0.150031 0.34416401 1.087 4287796374
-0.146963 0.34385401 1.086 4287598995
-0.14390001 0.34354299 1.085 4287796374
-0.141103 0.34386501 1.086 4287664788
-0.138172 0.343871 1.086 4287401361
-0.135242 0.34387699 1.086 4288059291
-0.132433 0.344199 1.087 4287664533
-0.129618 0.34452099 1.0880001 4287335570
-0.12656599 0.34421 1.087 4286941326
-0.123404 0.343582 1.085 4287862428
-0.120254 0.34295401 1.0829999 4288257186
-0.117439 0.34327599 1.084 4288717737
-0.114407 0.34296501 1.0829999 4288519842
-0.111381 0.34265301 1.082 4288388256
-0.10856 0.34297499 1.0829999 4287927446
-0.105539 0.342664 1.082 4288585635
-0.102523 0.342352 1.081 4289046188
-0.099420398 0.341723 1.079 4289243567
-0.096507303 0.341728 1.079 4288914602
-0.0935072 0.341416 1.0779999 4289836218
-0.090680599 0.341737 1.079 4288980907
-0.087929703 0.34237501 1.081 4289967804
-0.085089304 0.34269601 1.082 4289968318
-0.081939697 0.34175 1.079 4289836732
-0.0787329 0.340487 1.075 4290428870
-0.075759299 0.34017399 1.074 4290626249
-0.072858803 0.34017801 1.074 4289836733
-0.069893003 0.339865 1.073 4289770940
-0.066995099 0.33986801 1.073 4289836733
-0.063977502 0.33923799 1.071 4290099905
-0.061027698 0.338925 1.0700001 4290560456
-0.057974599 0.33797699 1.067 4290757835
-0.0550409 0.33766401 1.066 4290494663
-0.052161399 0.337666 1.066 4291217872
-0.0491894 0.33703601 1.064 4290560455
-0.0462282 0.33640501 1.062 4290757834
-0.043196 0.33513999 1.058 4290494663
-0.040299799 0.33482501 1.057 4291086800
-0.0374089 0.33451101 1.056 4290757581
-0.034588799 0.334829 1.057 4290625995
-0.0317032 0.33451399 1.056 4290560456
-0.0287684 0.33356601 1.053 4289310389
-0.0258251 0.33230001 1.049 4289705147
-0.022991 0.33230099 1.049 4289376182
-0.020137699 0.33198601 1.048 4288981423
-0.017289801 0.33166999 1.0470001 4289376182
-0.0144196 0.33072001 1.044 4289047474
-0.0115878 0.33040401 1.043 4288192165
-0.00876984 0.330405 1.043 4287994528
-0.00594615 0.330089 1.0420001 4288389286
-0.0031278599 0.329772 1.041 4288059805
-0.00031556899 0.330089 1.0420001 4287993498
0.0024973301 0.329772 1.041 4288585635
0.0053150202 0.330089 1.0420001 4287927705
0.0081302999 0.33008799 1.0420001 4287993237
0.0109351 0.32977101 1.041 4286611584
0.0137344 0.32945299 1.04 4285690480
0.0165124 0.32881901 1.038 4286479996
0.019335501 0.329135 1.039 4286085493
0.0221639 0.32945099 1.04 4285888114
0.024973599 0.329449 1.04 4285295977
0.02781 0.32976499 1.041 4285427563
0.0306224 0.329763 1.041 4285822321
0.033498999 0.33039501 1.043 4285493101
0.036351498 0.33070999 1.044 4285229417
0.039209399 0.331025 1.045 4284834398
0.042032398 0.33102199 1.045 4284702810
0.044941202 0.33165401 1.0470001 4284702810
0.047906298 0.33260101 1.05 4284637017
0.050984301 0.33418301 1.0549999 4284965981
0.053936101 0.334813 1.057 4284702810
0.056898698 0.335444 1.059 4284439638
0.059928399 0.336391 1.062 4284702810
0.0630925 0.33797199 1.067 4284176465
0.066283502 0.33955199 1.072 4284900188
0.069372401 0.34049901 1.075 4284241998
0.0724774 0.34144601 1.0779999 4285097307
0.075528599 0.34207499 1.08 4284439377
0.0786632 0.34302199 1.0829999 4284307791
0.081587799 0.343018 1.0829999 4284241744
0.084668398 0.343647 1.085 4284439124
0.087759703 0.34427601 1.087 4284570709
0.090694897 0.34427199 1.087 4284308051
0.093629897 0.34426701 1.087 4284505170
0.0966537 0.34457901 1.0880001 4284242251
0.099865802 0.345525 1.091 4284308044
0.103 0.34615299 1.0930001 4284834388
0.105951 0.34614801 1.0930001 4284307790
0.109001 0.34646001 1.094 4283912780
0.111954 0.34645501 1.094 4284110159
0.115012 0.346766 1.095 4283912780
0.118076 0.347078 1.096 4285031261
0.121255 0.34770599 1.098 4284702810
0.124332 0.34801701 1.099 4284440152
0.127414 0.34832799 1.1 4284505431
0.130382 0.348322 1.1 4284110673
0.133351 0.348317 1.1 4284243028
0.13631999 0.34831101 1.1 4284703324
0.139541 0.34893799 1.102 4285229668
0.142774 0.34956601 1.104 4284965982
0.146017 0.35019299 1.1059999 4284702296
0.148866 0.34987101 1.105 4284373331
0.15171 0.34954801 1.104 4284570709
0.154549 0.34922501 1.103 4284965467
0.157667 0.349536 1.104 4284702809
0.161082 0.35047999 1.107 4284570709
0.164069 0.350474 1.107 4284702295
0.167206 0.350784 1.108 4284833881
0.17004099 0.35046199 1.107 4284702295
0.17302699 0.350456 1.107 4284636502
0.17601299 0.35045001 1.107 4284504916
0.179161 0.35076001 1.108 4284768088
0.18214899 0.35075399 1.108 4284899674
0.185137 0.350748 1.108 4284571223
0.18795601 0.35042599 1.107 4285360479
0.191286 0.351053 1.109 4285097307
0.194102 0.35073 1.108 4285097053
0.19726799 0.35104099 1.109 4284439124
0.199717 0.350086 1.1059999 4284768089
0.20288301 0.35039699 1.107 4285294949
0.20568199 0.35007399 1.1059999 4285229670
0.20885301 0.35038501 1.107 4284440666
0.21202999 0.35069701 1.108 4284770401
0.21501701 0.35069099 1.108 4285362538
0.21780799 0.35036901 1.107 4285625710
0.22079299 0.350364 1.107 4285165159
0.22377899 0.35035899 1.107 4286415226
0.226559 0.35003799 1.1059999 4286415225
0.229333 0.34971699 1.105 4285559916
0.23231301 0.34971201 1.105 4285888882
0.235293 0.34970799 1.105 4285954674
0.238272 0.34970301 1.105 4286151284
0.241034 0.349383 1.104 4286414456
0.244232 0.349695 1.105 4285624940
0.246988 0.34937501 1.104 4285624940
0.249512 0.34873801 1.102 4287599246
0.25179699 0.347785 1.099 4286744452
0.25429699 0.34714901 1.097 4287073931
0.25749001 0.34746301 1.098 4287666068
0.26068899 0.347776 1.099 4288521377
0.26389301 0.34808999 1.1 4287797656
0.26637501 0.34745499 1.098 4288389791
0.26909101 0.34713599 1.097 4287468691
0.27180201 0.346818 1.096 4287863449
0.27475899 0.346816 1.096 4288258464
0.27720901 0.34618199 1.094 4287600534
0.27939299 0.34523201 1.091 4287732120
0.28181899 0.344598 1.089 4289311152
0.28449601 0.34428099 1.0880001 4288258724
0.28690401 0.34364799 1.086 4288653999
0.28983501 0.34364799 1.086 4289378236
0.29249701 0.34333199 1.085 4288719792
0.295425 0.34333301 1.085 4289969345
0.29780501 0.34270099 1.0829999 4289574587
0.30045101 0.34238601 1.082 4289245622
0.30253199 0.34143901 1.079 4290232517
0.30459601 0.34049201 1.076 4289771711
0.30693099 0.33986101 1.074 4289903811
0.30983201 0.33986399 1.074 4289377467
0.31244299 0.339551 1.073 4289640639
0.31504801 0.33923799 1.072 4290627020
0.317352 0.33860901 1.0700001 4290100676
0.319646 0.33798099 1.068 4290100162
0.32192901 0.33735299 1.066 4290100676
0.324202 0.336725 1.064 4291219157
0.326772 0.33641401 1.063 4291548122
0.329337 0.33610401 1.062 4290758606
0.33158499 0.33547801 1.0599999 4290626505
0.33319101 0.33421901 1.056 4291086799
0.335094 0.33327699 1.053 4290889677
0.33698201 0.332335 1.05 4290890447
0.33820701 0.33076099 1.045 4290693327
0.33940601 0.32918701 1.04 4291747046
0.340249 0.32729799 1.034 4290102735
0.341723 0.32604101 1.03 4290300114
0.34317699 0.32478499 1.026 4290102735
0.345622 0.32448 1.025 4290036427
0.34738201 0.32354099 1.022 4291153364
0.348441 0.32196999 1.017 4291613400
0.34947401 0.3204 1.012 4288915630
0.35152501 0.31977901 1.01 4289047216
0.354267 0.31979299 1.01 4289244849
0.35701001 0.31980699 1.01 4288521126
0.359754 0.31982201 1.01 4287797402
0.362858 0.32015401 1.011 4286679175
0.36596799 0.32048601 1.012 4285823866
0.36981401 0.32145301 1.015 4285692280
0.37441099 0.32305399 1.02 4285034348
0.380885 0.32623899 1.03 4284178525
0.39263001 0.33386001 1.054 4283389008
0.41051099 0.346551 1.094 4283060043
0.42331901 0.35480899 1.12 4283388494
0.42979899 0.357683 1.1289999 4283520334
0.434412 0.35897499 1.133 4281940271
0.43866301 0.35995001 1.136 4282730042
0.441764 0.35997501 1.136 4282795833
0.444475 0.359685 1.135 4282796087
0.44797099 0.36002901 1.136 4282598708
0.45067999 0.35973999 1.135 4282467122
0.453385 0.35945299 1.1339999 4282730040
0.45568401 0.35884899 1.132 4282401329
0.459189 0.35919601 1.133 4282795319
0.462293 0.35922799 1.133 4282926903
0.466221 0.35989499 1.135 4282334507
0.46933499 0.359929 1.135 4282005542
0.47203401 0.35964599 1.1339999 4282663217
0.474729 0.35936499 1.133 4282663219
0.47742099 0.35908401 1.132 4282334514
0.48010999 0.35880399 1.131 4282728758
0.48279399 0.35852599 1.13 4282729012
0.48547599 0.358248 1.1289999 4282268714
0.48858699 0.358289 1.1289999 4282597677
0.49169999 0.35833001 1.1289999 4282268712
0.49437699 0.35805601 1.128 4282992437
0.496609 0.357465 1.126 4283452988
0.499277 0.35719201 1.125 4283584319
-0.19839799 0.343656 1.095 4286677379
-0.195089 0.34303501 1.0930001 4286611584
-0.191965 0.34272701 1.092 4286874756
-0.18884701 0.342419 1.091 4286545789
-0.18590499 0.34242499 1.091 4286875270
-0.18313 0.34274501 1.092 4287006856
-0.18035001 0.34306499 1.0930001 4287270028
-0.17724 0.34275699 1.092 4287796372
-0.17397501 0.34213501 1.09 4287862165
-0.17103501 0.342141 1.09 4287204235
-0.167786 0.34152001 1.0880001 4288190618
-0.16515499 0.342154 1.09 4288190618
-0.162065 0.34184599 1.089 4288190877
-0.159128 0.34185201 1.089 4287927705
-0.156046 0.341544 1.0880001 4288388256
-0.153111 0.34154999 1.0880001 4287927960
-0.15003701 0.34124199 1.087 4287665302
-0.14710499 0.34124801 1.087 4287533202
-0.144437 0.34188199 1.089 4287730581
-0.141498 0.34188801 1.089 4287270289
-0.13856 0.341894 1.089 4287401875
-0.135497 0.34158599 1.0880001 4287467154
-0.13256 0.34159201 1.0880001 4287664533
-0.12974299 0.341912 1.089 4287270291
-0.126688 0.34160301 1.0880001 4287138705
-0.123524 0.34098101 1.086 4287730842
-0.12037 0.340359 1.084 4288257186
-0.117553 0.34067801 1.085 4288586151
-0.114518 0.34036899 1.084 4288519844
-0.111592 0.34037501 1.084 4288190877
-0.108666 0.34038001 1.084 4288058777
-0.105739 0.34038499 1.084 4288453537
-0.102623 0.339762 1.082 4288980395
-0.099517398 0.33913901 1.08 4289177774
-0.096511997 0.33882999 1.079 4289111981
-0.093511797 0.33851999 1.0779999 4289244081
-0.090600997 0.338525 1.0779999 4289178286
-0.087771401 0.33884299 1.079 4290099388
-0.084857702 0.33884799 1.079 4290034111
-0.0817919 0.33822399 1.077 4289836732
-0.078663699 0.337286 1.074 4290692042
-0.075692602 0.33697599 1.073 4290363077
-0.072794698 0.33697999 1.073 4289902526
-0.069831498 0.336669 1.072 4289705147
-0.066936098 0.33667299 1.072 4289968319
-0.0639809 0.336362 1.071 4290165698
-0.060973901 0.33573699 1.069 4290889421
-0.057977699 0.33511201 1.067 4290692042
-0.054992199 0.33448699 1.0650001 4290823114
-0.0520663 0.334176 1.064 4291152078
-0.049145799 0.33386499 1.063 4290560455
-0.046143599 0.33292499 1.0599999 4290823627
-0.043198299 0.33229899 1.058 4290494663
-0.0402257 0.331359 1.0549999 4290889421
-0.0374109 0.33167499 1.056 4290560459
-0.034557998 0.33167699 1.056 4290560202
-0.031644899 0.33105099 1.054 4290691788
-0.0287426 0.33042499 1.052 4289836733
-0.025851101 0.32979801 1.05 4289770940
-0.023014201 0.329799 1.05 4289441975
-0.0201388 0.32917199 1.048 4289178802
-0.017274201 0.328545 1.046 4289507767
-0.0144342 0.32823199 1.045 4288849838
-0.0115996 0.32791799 1.044 4288520873
-0.0087787397 0.32791901 1.044 4288257700
-0.0059407698 0.32697701 1.041 4288520872
-0.0031250301 0.32666299 1.04 4288322979
-0.00031528401 0.326978 1.041 4288191393
0.00249986 0.327292 1.0420001 4288059807
0.0053204098 0.32760501 1.043 4287796633
0.0081385504 0.32760501 1.043 4287862165
0.0109357 0.326976 1.041 4286216826
0.0137484 0.326976 1.041 4286151031
0.0165611 0.32697499 1.041 4286348410
0.0193737 0.326974 1.041 4286151031
0.0222077 0.32728699 1.0420001 4285887859
0.025023 0.32728499 1.0420001 4285427563
0.027838301 0.32728401 1.0420001 4285493356
0.030682901 0.32759699 1.043 4285953907
0.033500802 0.327595 1.043 4285624687
0.036353499 0.327907 1.044 4285164136
0.039174002 0.327905 1.044 4284637017
0.0420749 0.328531 1.046 4284702810
0.044943601 0.328843 1.0470001 4284965982
0.0479545 0.33009601 1.051 4284308052
0.050987002 0.33135 1.0549999 4284965981
0.053939 0.33197501 1.057 4284702809
0.056901701 0.33260101 1.059 4284571223
0.059931502 0.33353999 1.062 4284506200
0.063154899 0.335421 1.068 4284374098
0.066348799 0.336988 1.073 4284703063
0.069440603 0.337926 1.076 4284241998
0.072548397 0.33886501 1.079 4284702549
0.075532503 0.33917499 1.08 4284241998
0.078594498 0.33979899 1.082 4284110412
0.081667297 0.34042299 1.084 4284373584
0.084750697 0.34104699 1.086 4284570709
0.087764099 0.34135699 1.087 4284373844
0.090782799 0.34166601 1.0880001 4284373844
0.093720697 0.34166199 1.0880001 4284505430
0.096836098 0.34228501 1.09 4284374097
0.099962197 0.34290799 1.092 4284505169
0.103193 0.34384501 1.095 4284702548
0.106246 0.344154 1.096 4284110412
0.109106 0.343835 1.095 4284044366
0.112164 0.34414399 1.096 4283912780
0.115123 0.34413901 1.096 4284439123
0.118189 0.34444699 1.097 4284768602
0.12115 0.34444201 1.097 4284834395
0.124224 0.34474999 1.098 4284440405
0.127304 0.34505799 1.099 4284571991
0.13038801 0.34536701 1.1 4284176465
0.133478 0.34567499 1.101 4284637017
0.13644899 0.345669 1.101 4284834396
0.13967399 0.34629101 1.103 4285163361
0.14278001 0.34659901 1.104 4285097568
0.145891 0.34690699 1.105 4284899674
0.148872 0.346901 1.105 4284768088
0.15185399 0.34689501 1.105 4284768342
0.154835 0.34688801 1.105 4284505684
0.157959 0.34719601 1.1059999 4284571223
0.161088 0.34750399 1.107 4284636502
0.16392601 0.347184 1.1059999 4284702295
0.16690999 0.34717801 1.1059999 4284504916
0.16989399 0.34717101 1.1059999 4284636502
0.173033 0.34747899 1.107 4284373331
0.176019 0.347473 1.107 4284044880
0.17932799 0.34809399 1.109 4285031261
0.182155 0.347774 1.108 4285031260
0.184976 0.34745401 1.107 4284570963
0.187792 0.34713399 1.1059999 4285426271
0.190947 0.347442 1.107 4284834134
0.193933 0.34743601 1.107 4285031514
0.196918 0.34742999 1.107 4284439124
0.199542 0.34679601 1.105 4285097054
0.202705 0.34710401 1.1059999 4285426533
0.205688 0.34709799 1.1059999 4284966496
0.208859 0.347406 1.107 4284703324
0.211844 0.34740099 1.107 4284572252
0.214829 0.347395 1.107 4285624940
0.217814 0.34739 1.107 4285559147
0.220599 0.34707001 1.1059999 4284968040
0.223379 0.346751 1.105 4286284154
0.22635899 0.346746 1.105 4286284154
0.22933801 0.34674099 1.105 4285231466
0.232528 0.34705001 1.1059999 4285954675
0.23529699 0.34673199 1.105 4286217847
0.238061 0.34641299 1.104 4286019698
0.24082001 0.346095 1.103 4286480249
0.24401499 0.34640399 1.104 4285624940
0.24699201 0.34639999 1.104 4285756526
0.249516 0.34576899 1.102 4287862418
0.2518 0.34482399 1.099 4287139209
0.25476399 0.34481999 1.099 4287073931
0.25772801 0.34481701 1.099 4287534482
0.260692 0.344814 1.099 4288258205
0.26341599 0.344497 1.098 4287731863
0.266377 0.344495 1.098 4288652965
0.268848 0.34386501 1.096 4287337109
0.27155599 0.34354901 1.095 4287928992
0.274259 0.34323299 1.094 4288455590
0.27721101 0.34323099 1.094 4287732381
0.279906 0.34291601 1.0930001 4287666074
0.28233701 0.34228799 1.091 4289047726
0.284758 0.34165901 1.089 4288192932
0.287168 0.34103099 1.087 4288916655
0.28983501 0.34071699 1.086 4289312443
0.292496 0.340404 1.085 4288720306
0.295425 0.340404 1.085 4289640894
0.29807901 0.34009099 1.084 4289311929
0.30045 0.33946499 1.082 4289311674
0.30252999 0.338525 1.079 4290100676
0.30459401 0.337585 1.076 4289838018
0.30692899 0.33695999 1.074 4290101192
0.30954099 0.336649 1.073 4289180090
0.31214899 0.33633801 1.072 4289706179
0.314751 0.336027 1.071 4290364109
0.31705201 0.335403 1.069 4290298057
0.31964201 0.33509299 1.068 4289969092
0.321924 0.33447 1.066 4290034885
0.323892 0.333534 1.063 4291087571
0.32645899 0.33322501 1.062 4291350998
0.32902101 0.332917 1.061 4290693068
0.331265 0.33229601 1.059 4290758091
0.333184 0.331361 1.056 4291218642
0.33540499 0.33074099 1.054 4290823884
0.33697399 0.32949299 1.05 4289969345
0.33819899 0.327932 1.045 4289640641
0.33972299 0.32668501 1.041 4290957530
0.34056801 0.32481101 1.035 4290891997
0.341382 0.32293701 1.029 4291221216
0.342832 0.32169199 1.025 4290760665
0.34459901 0.32076001 1.022 4290102220
0.34703001 0.32045701 1.021 4291219926
0.34842899 0.319213 1.017 4291614170
0.34980699 0.31797001 1.013 4288850094
0.35151201 0.31704 1.01 4288981677
0.35355201 0.316425 1.008 4289508020
0.356996 0.317067 1.01 4288258207
0.35973901 0.317081 1.01 4287666070
0.36284301 0.31740901 1.011 4287008140
0.36595199 0.31773901 1.012 4285560692
0.37016201 0.319011 1.016 4285889657
0.37476099 0.32059699 1.021 4285034348
0.381237 0.323755 1.031 4284508003
0.39298299 0.33131 1.0549999 4284442210
0.41049001 0.34357801 1.094 4284244571
0.42291901 0.35145101 1.119 4284112985
0.42939499 0.35429999 1.128 4283059783
0.433622 0.35526499 1.131 4282072626
0.43786499 0.356231 1.1339999 4282861626
0.441349 0.35657001 1.135 4282861879
0.44444901 0.35659599 1.135 4282532915
0.44755 0.35662299 1.135 4282796087
0.450652 0.35664999 1.135 4282467122
0.453356 0.35636401 1.1339999 4283190845
0.455654 0.35576501 1.132 4282729524
0.45875299 0.355795 1.132 4282795319
0.46185401 0.35582501 1.132 4283124284
0.46577799 0.35648599 1.1339999 4282597426
0.468474 0.356204 1.133 4281873703
0.471167 0.35592401 1.132 4282334254
0.473856 0.35564399 1.131 4282597426
0.477384 0.35599399 1.132 4282466354
0.47964701 0.35540199 1.13 4282465586
0.48275599 0.35543901 1.13 4282992184
0.48543599 0.35516301 1.1289999 4282071080
0.48854601 0.355203 1.1289999 4282663472
0.49122199 0.354929 1.128 4282071333
0.49389601 0.35465601 1.127 4282466093
0.496566 0.35438401 1.126 4283321916
0.49967599 0.35442799 1.126 4283255868
-0.198404 0.34071001 1.095 4286743170
-0.195273 0.34040499 1.094 4286414205
-0.192147 0.34009999 1.0930001 4286808963
-0.189026 0.33979499 1.092 4286677377
-0.186252 0.34011301 1.0930001 4286677377
-0.18347199 0.34042999 1.094 4287269514
-0.180521 0.34043601 1.094 4287204235
-0.177571 0.34044299 1.094 4287928212
-0.174141 0.339515 1.091 4287928212
-0.171198 0.339522 1.091 4287204489
-0.168101 0.33921701 1.09 4288124823
-0.165161 0.339223 1.09 4287927958
-0.162072 0.338918 1.089 4288059546
-0.159134 0.338925 1.089 4288059291
-0.156196 0.33893099 1.089 4288717990
-0.153258 0.33893701 1.089 4287796888
-0.15018199 0.33863199 1.0880001 4287796888
-0.14738099 0.33895001 1.089 4287467409
-0.144576 0.33926699 1.09 4287336337
-0.141764 0.33958399 1.091 4287467923
-0.13882001 0.33959001 1.091 4287467668
-0.13575201 0.33928499 1.09 4287664533
-0.132688 0.33897999 1.089 4287138703
-0.12963 0.33867401 1.0880001 4286941326
-0.126693 0.33868 1.0880001 4287204498
-0.123643 0.338375 1.087 4287796635
-0.120598 0.33806899 1.086 4288125600
-0.117558 0.33776301 1.085 4288586151
-0.114629 0.337769 1.085 4288388258
-0.111597 0.33746299 1.084 4287992986
-0.108771 0.33777899 1.085 4287992986
-0.105842 0.33778501 1.085 4288782502
-0.102723 0.33716699 1.0829999 4288980393
-0.0995223 0.336238 1.08 4289375151
-0.096427299 0.33561999 1.0779999 4289046700
-0.093603201 0.33593601 1.079 4289112495
-0.0906896 0.33594099 1.079 4288981423
-0.087857202 0.33625701 1.08 4290099904
-0.084862001 0.33594999 1.079 4289968318
-0.081796102 0.33533201 1.077 4289507767
-0.0788875 0.335336 1.077 4290626249
-0.075837597 0.33471701 1.075 4290165698
-0.072866298 0.33441001 1.074 4289770940
-0.069835201 0.33379099 1.072 4289639354
-0.0669396 0.333794 1.072 4290099904
-0.063924499 0.333175 1.0700001 4289902525
-0.060920101 0.33255601 1.068 4290823627
-0.057980798 0.332248 1.067 4290757834
-0.055046801 0.33193901 1.066 4290560455
-0.0521181 0.331631 1.0650001 4290823627
-0.0491485 0.331011 1.063 4290428869
-0.0462332 0.33070201 1.062 4290757834
-0.043282401 0.330082 1.0599999 4290626249
-0.040304199 0.32914999 1.057 4290889421
-0.037448399 0.32915199 1.057 4290428616
-0.034527101 0.328531 1.0549999 4290494409
-0.031646699 0.32822099 1.054 4290428616
-0.028716899 0.32728899 1.051 4289770686
-0.0258525 0.32697901 1.05 4289771197
-0.022993499 0.32666901 1.049 4289244853
-0.020139899 0.326359 1.048 4289113266
-0.0172917 0.32604799 1.0470001 4289507767
-0.0144626 0.326049 1.0470001 4288521129
-0.0116224 0.325739 1.046 4288323493
-0.0087792296 0.32511601 1.044 4287994528
-0.0059468099 0.324494 1.0420001 4288455079
-0.0031252 0.32387099 1.04 4288126114
-0.00031530199 0.32418299 1.041 4288257186
0.0024999999 0.324494 1.0420001 4288191393
0.0053207101 0.32480499 1.043 4288059807
0.0081468103 0.32511699 1.044 4287730581
0.0109573 0.32480499 1.043 4286019449
0.0137624 0.32449201 1.0420001 4286216826
0.016577899 0.32449201 1.0420001 4286282617
0.019393399 0.32449099 1.0420001 4286151031
0.0222302 0.324801 1.043 4285888629
0.025024399 0.32448801 1.0420001 4285099113
0.027866499 0.32479799 1.043 4285296491
0.0306846 0.32479599 1.043 4285756528
0.033534799 0.32510599 1.044 4285230184
0.036390301 0.32541499 1.045 4285361256
0.039213698 0.32541299 1.045 4284768603
0.042117398 0.32603401 1.0470001 4284899675
0.045031901 0.32665399 1.049 4285031261
0.048002802 0.327586 1.052 4284504916
0.050989799 0.32851699 1.0549999 4285097307
0.053941902 0.329137 1.057 4284571477
0.0569047 0.329757 1.059 4284308821
0.059934702 0.330688 1.062 4284111440
0.063099198 0.33224201 1.067 4284242512
0.0663523 0.33410701 1.073 4284966235
0.069508702 0.33534801 1.077 4284110412
0.072619401 0.336279 1.08 4284702548
0.0755364 0.33627501 1.08 4284439376
0.078598604 0.33689401 1.082 4284176204
0.081596099 0.337201 1.0829999 4284505169
0.0847551 0.33813101 1.086 4284570963
0.087768599 0.33843699 1.087 4284439377
0.090787403 0.33874401 1.0880001 4284308051
0.093811497 0.33905101 1.089 4284176465
0.096840903 0.33935699 1.09 4284308051
0.0999671 0.339975 1.092 4284241744
0.103198 0.340904 1.095 4284899674
0.106252 0.34121001 1.096 4284702296
0.109111 0.34089401 1.095 4283781194
0.112067 0.34088799 1.095 4284175952
0.115023 0.34088299 1.095 4283913294
0.118194 0.34150001 1.097 4284768602
0.121266 0.34180599 1.098 4284834649
0.124343 0.34211099 1.099 4284374867
0.12730899 0.34210601 1.099 4284308819
0.13027599 0.34209999 1.099 4283913547
0.133242 0.342094 1.099 4284637016
0.136455 0.34270999 1.101 4284900189
0.13968 0.34332699 1.103 4285097568
0.142786 0.34363201 1.104 4284834396
0.145897 0.34393701 1.105 4284900188
0.14887799 0.34393099 1.105 4284768602
0.151997 0.34423599 1.1059999 4284834135
0.154981 0.34423 1.1059999 4284703063
0.157965 0.34422299 1.1059999 4284899674
0.16094901 0.344217 1.1059999 4284439123
0.16393299 0.34421 1.1059999 4284702295
0.166916 0.34420401 1.1059999 4284702549
0.169746 0.34388599 1.105 4284833881
0.172727 0.34388 1.105 4284373330
0.17586599 0.34418499 1.1059999 4283847501
0.17917299 0.34480101 1.108 4284702296
0.182161 0.34479401 1.108 4285097053
0.184983 0.344477 1.107 4284636756
0.18779799 0.34415901 1.1059999 4285360478
0.190781 0.34415299 1.1059999 4284834641
0.193764 0.344147 1.1059999 4285360478
0.19674601 0.34414101 1.1059999 4284307537
0.19954801 0.34382299 1.105 4284768603
0.202711 0.34412801 1.1059999 4285031775
0.205694 0.34412199 1.1059999 4284834396
0.208676 0.344116 1.1059999 4284505945
0.211467 0.343799 1.105 4284505945
0.21464001 0.34410501 1.1059999 4285756526
0.217623 0.34409899 1.1059999 4285690733
0.22100399 0.34471601 1.108 4284704868
0.22358701 0.34408799 1.1059999 4286152568
0.22677401 0.344394 1.107 4286744705
0.229551 0.34407699 1.1059999 4285165419
0.232743 0.344383 1.107 4285888628
0.235089 0.343445 1.104 4285823089
0.23785 0.34312901 1.103 4285822319
0.240824 0.343124 1.103 4286677628
0.244019 0.343431 1.104 4285361768
0.24677201 0.343115 1.103 4285625710
0.249294 0.342489 1.101 4287994258
0.252033 0.34217399 1.1 4286941830
0.25499901 0.34217 1.1 4287139724
0.25796601 0.34216601 1.1 4287337103
0.26069501 0.34185201 1.099 4288126619
0.263419 0.34153801 1.098 4287666070
0.266137 0.34122401 1.097 4288784297
0.26885 0.34090999 1.096 4287402648
0.27155799 0.34059599 1.095 4287798176
0.274261 0.34028301 1.094 4288521899
0.27721199 0.34028101 1.094 4287666590
0.27990699 0.339968 1.0930001 4287468695
0.28233799 0.33934501 1.091 4289508278
0.28475901 0.33872101 1.089 4288324518
0.28716901 0.33809799 1.087 4289245620
0.28956801 0.33747599 1.085 4289377722
0.292496 0.337475 1.085 4288917171
0.29542401 0.337475 1.085 4289575101
0.298078 0.337165 1.084 4289311929
0.30017099 0.33623201 1.081 4289640894
0.30252901 0.33561099 1.079 4289640639
0.304593 0.33467901 1.076 4289969606
0.30664101 0.33374801 1.073 4289904327
0.30925 0.33343899 1.072 4289245883
0.31214601 0.33344099 1.072 4289771972
0.31445399 0.332822 1.0700001 4290429902
0.31704801 0.33251399 1.069 4290363850
0.31933799 0.33189601 1.067 4290232264
0.32192001 0.33158901 1.066 4290298055
0.32388699 0.33065999 1.063 4291284950
0.32645401 0.33035401 1.062 4291416791
0.32870501 0.32973701 1.0599999 4290758861
0.330946 0.32912001 1.058 4290429896
0.33286199 0.32819301 1.0549999 4290363333
0.33539799 0.327889 1.054 4289706173
0.33696699 0.32665101 1.05 4290495689
0.338191 0.32510301 1.045 4290890708
0.339715 0.32386699 1.041 4291878632
0.34088901 0.32232001 1.036 4290957790
0.34203601 0.32077301 1.031 4291221216
0.34315699 0.319226 1.026 4290694872
0.344926 0.31830299 1.023 4290496978
0.34667999 0.31738001 1.02 4291416536
0.34876001 0.31676799 1.018 4291153619
0.35014001 0.31553501 1.0140001 4288981680
0.35219499 0.314924 1.012 4288652712
0.35424 0.31431401 1.01 4289442481
0.35768899 0.31494999 1.012 4288324000
0.36008099 0.314652 1.011 4287600277
0.36282799 0.314666 1.011 4286744968
0.36557499 0.31468099 1.011 4285626485
0.37014601 0.31625301 1.016 4285626484
