# .PCD v0.7 - Point Cloud Data file format
VERSION 0.7
FIELDS x y z rgb
SIZE 4 4 4 4
TYPE F F F U
COUNT 1 1 1 1
WIDTH 1110
HEIGHT 1
VIEWPOINT 0 0 0 1 0 0 0
POINTS 1110
DATA ascii
0.39286301 0.338328 0.93000001 4287202395
0.39501101 0.338009 0.92900002 4287136604
0.397156 0.33769199 0.92799997 4287070812
0.398866 0.33701199 0.926 4286939487
0.40230101 0.33778799 0.92799997 4286939486
0.40531299 0.338202 0.92900002 4287071072
0.407893 0.33825201 0.92900002 4287005279
0.409592 0.337576 0.92699999 4286742107
0.411726 0.33726501 0.926 4286939226
0.41475201 0.33768299 0.92699999 4286807639
0.417786 0.338103 0.92799997 4286610258
0.42037499 0.33815899 0.92799997 4287005270
0.42342201 0.338581 0.92900002 4286676304
0.42555901 0.33827499 0.92799997 4286939476
0.427232 0.33760601 0.926 4286676305
0.42936099 0.33730301 0.92500001 4286610511
0.43241999 0.33772999 0.926 4286610511
0.43548799 0.33815899 0.92699999 4286609997
0.43761799 0.337859 0.926 4286675791
0.439271 0.33719501 0.92400002 4286741844
0.44091401 0.33653301 0.92199999 4286676053
0.44303101 0.33623701 0.921 4286413657
0.44562799 0.33630699 0.921 4284966984
0.448715 0.336743 0.92199999 4283651124
0.45181099 0.337181 0.92299998 4285888086
0.45442301 0.33725601 0.92299998 4287138406
0.457037 0.33733201 0.92299998 4286480729
0.46015301 0.33777401 0.92400002 4286808405
0.463278 0.33821899 0.92500001 4286742612
0.46540499 0.33793399 0.92400002 4286545488
0.467529 0.33765 0.92299998 4286808143
0.470669 0.338099 0.92400002 4286742350
0.47381899 0.33855 0.92500001 4286347592
0.47594801 0.33827001 0.92400002 4286413386
0.47807401 0.33799201 0.92299998 4287137372
0.48124 0.33844799 0.92400002 4287334497
0.48389199 0.33853999 0.92400002 4286544981
0.48707399 0.33899999 0.92500001 4286676821
0.488677 0.338361 0.92299998 4286874200
0.490805 0.33809099 0.92199999 4286676051
0.49400201 0.33855599 0.92299998 4287070809
0.49667099 0.33865601 0.92299998 4286741087
0.35223901 0.203924 0.54799998 4285558868
0.348133 0.200681 0.53899997 4285229903
0.34527299 0.198182 0.53200001 4285558615
0.34433001 0.196799 0.528 4285295698
0.342711 0.195044 0.523 4285032020
0.34172401 0.193661 0.51899999 4285360985
0.33939299 0.191531 0.51300001 4285361246
0.338359 0.190148 0.509 4285755497
0.33797199 0.18913899 0.50599998 4285689705
0.33824101 0.188504 0.50400001 4285623912
0.339178 0.188244 0.50300002 4285558121
-0.199131 0.331209 0.921 4285229140
-0.196431 0.33084899 0.92000002 4285229139
-0.193948 0.33084801 0.92000002 4285229139
-0.19146501 0.330847 0.92000002 4285623637
-0.18918701 0.33120701 0.921 4286544992
-0.186904 0.33156601 0.92199999 4287070820
-0.18501601 0.332645 0.92500001 4287333731
-0.182914 0.33336499 0.92699999 4287399514
-0.180801 0.334084 0.92900002 4288057443
-0.178486 0.33444399 0.93000001 4287530846
-0.17597701 0.334445 0.93000001 4288188523
-0.173654 0.33480501 0.93099999 4287596388
-0.171142 0.334806 0.93099999 4287925353
-0.16863 0.33480701 0.93099999 4287399007
-0.165939 0.33444899 0.93000001 4287925092
-0.16325399 0.33409101 0.92900002 4287202648
-0.160401 0.33337301 0.92699999 4287005794
-0.15790001 0.33337501 0.92699999 4286873704
-0.155902 0.33445501 0.93000001 4286939507
-0.153723 0.33517599 0.93199998 4287992952
-0.150884 0.33445901 0.93000001 4288124022
-0.148215 0.33410099 0.92900002 4288518266
-0.14555199 0.33374301 0.92799997 4288518266
-0.14320201 0.33410501 0.92900002 4288452473
-0.14069501 0.33410701 0.92900002 4288255094
-0.138189 0.33410901 0.92900002 4288124022
-0.13539 0.33339199 0.92699999 4288584573
-0.132746 0.33303499 0.926 4288321656
-0.130247 0.33303699 0.926 4288058484
-0.127887 0.333399 0.92699999 4287992691
-0.125251 0.333042 0.926 4287861619
-0.122885 0.333404 0.92699999 4287992950
-0.120383 0.33340701 0.92699999 4287663726
-0.118264 0.334488 0.93000001 4287728749
-0.115754 0.33449101 0.93000001 4287728489
-0.113367 0.33485299 0.93099999 4287794281
-0.110735 0.33449599 0.93000001 4288056678
-0.107993 0.33377901 0.92799997 4288122471
-0.105489 0.333781 0.92799997 4287398746
-0.102985 0.33378401 0.92799997 4287595614
-0.100589 0.33414599 0.92900002 4288187752
-0.097976297 0.33378899 0.92799997 4287464541
-0.095472001 0.33379099 0.92799997 4287924579
-0.093067802 0.33415401 0.92900002 4287924580
-0.090658203 0.33451599 0.93000001 4287793506
-0.088243201 0.334878 0.93099999 4288056423
-0.085730597 0.33487999 0.93099999 4287200861
-0.0833968 0.33560199 0.93300003 4287727205
-0.080878697 0.33560401 0.93300003 4288187756
-0.078360602 0.33560699 0.93300003 4287332702
-0.075761199 0.33524901 0.93199998 4288121959
-0.073245697 0.33525199 0.93199998 4287858786
-0.070654303 0.334894 0.93099999 4287792993
-0.068141401 0.334896 0.93099999 4288056165
-0.065628499 0.33489799 0.93099999 4287332442
-0.0631833 0.33526 0.93199998 4287464029
-0.0606676 0.335262 0.93199998 4287266650
-0.058151901 0.335264 0.93199998 4287069530
-0.0556361 0.33526599 0.93199998 4288385390
-0.0530633 0.33490801 0.93099999 4288517235
-0.0504959 0.33454999 0.93000001 4288649076
-0.047985401 0.33455101 0.93000001 4288518258
-0.045572601 0.33527201 0.93199998 4288255086
-0.0430567 0.33527401 0.93199998 4288517488
-0.040540699 0.33527499 0.93199998 4288582767
-0.037983902 0.33491701 0.93099999 4288583281
-0.035470601 0.33491799 0.93099999 4288583028
-0.0304111 0.33456099 0.93000001 4288517490
-0.0279004 0.334562 0.93000001 4288648821
-0.025389601 0.334562 0.93000001 4288386679
-0.0229035 0.334923 0.93099999 4286676576
-0.02039 0.33492401 0.93099999 4285229905
-0.0178765 0.334925 0.93099999 4285953375
-0.0153465 0.33456501 0.93000001 4286216800
-0.0128495 0.33492601 0.93099999 4287532658
-0.0103248 0.334566 0.93000001 4288124528
-0.0078139901 0.33456701 0.93000001 4288124520
-0.0053031398 0.33456701 0.93000001 4288189544
-0.0027923 0.33456701 0.93000001 4288518255
-0.00028174699 0.33492699 0.93099999 4288518257
0.0022342 0.33528599 0.93199998 4288321393
0.0047453502 0.33492699 0.93099999 4288452464
0.0072666998 0.33528599 0.93199998 4288584050
0.0097829401 0.33528599 0.93199998 4288452464
0.0123388 0.33636501 0.935 4288452464
0.0148313 0.33564499 0.93300003 4288517741
0.017350201 0.33564401 0.93300003 4288517743
0.019847799 0.33528399 0.93199998 4288254571
0.022412 0.33600199 0.93400002 4288319858
0.0249335 0.33600199 0.93400002 4288385904
0.027484501 0.33636099 0.935 4288189039
0.029976601 0.336 0.93400002 4288189039
0.032498099 0.33599901 0.93400002 4288254832
0.034944601 0.335278 0.93199998 4287991660
0.0373803 0.334557 0.93000001 4287992175
0.0398909 0.33455601 0.93000001 4288189554
0.042492699 0.33527401 0.93199998 4288320625
0.045201801 0.336712 0.93599999 4288123247
0.047728501 0.33671001 0.93599999 4287991661
0.050201502 0.33634901 0.935 4288189039
0.0526691 0.335987 0.93400002 4287991914
0.0552494 0.33634499 0.935 4287925867
0.0577733 0.33634299 0.935 4287925867
0.060361601 0.33670101 0.93599999 4288254833
0.062888101 0.33669901 0.93599999 4288254833
0.0654146 0.33669701 0.93599999 4287860335
0.067795798 0.335976 0.93400002 4287794282
0.070316799 0.33597401 0.93400002 4287860589
0.072837703 0.33597201 0.93400002 4287992175
0.075358599 0.335969 0.93400002 4288321140
0.077962898 0.33632699 0.935 4288386932
0.080572501 0.33668399 0.93599999 4288255346
0.083098598 0.33668199 0.93599999 4288255861
0.085533299 0.33632001 0.935 4288190070
0.088056602 0.336317 0.935 4287992436
0.090676799 0.33667499 0.93599999 4288189815
0.093003698 0.335953 0.93400002 4288123508
0.095524199 0.33594999 0.93400002 4288320372
0.0979397 0.33558801 0.93300003 4288386419
0.100673 0.33630499 0.935 4288057454
0.103306 0.33666199 0.93599999 4288386933
0.105832 0.33665901 0.93599999 4288255093
0.108242 0.33629701 0.935 4287860336
0.110884 0.33665401 0.93599999 4287926129
0.113409 0.33665201 0.93599999 4287663210
0.116059 0.33700901 0.93699998 4287597416
0.11846 0.336647 0.93599999 4286741847
0.120986 0.33664399 0.93599999 4287399777
0.123248 0.335922 0.93400002 4287530846
0.12576801 0.33592001 0.93400002 4287004502
0.128425 0.33627701 0.935 4287202135
0.130808 0.335915 0.93400002 4287201621
0.13332801 0.335913 0.93400002 4287004242
0.135702 0.33555099 0.93300003 4286938195
0.138368 0.335908 0.93400002 4287069783
0.140737 0.33554599 0.93300003 4286674772
0.14310101 0.33518401 0.93199998 4286674517
0.145303 0.334463 0.93000001 4286216531
0.14781199 0.334461 0.93000001 4285624659
0.15032101 0.33445901 0.93000001 4285754980
0.15315901 0.33517599 0.93199998 4287335020
0.155507 0.334815 0.93099999 4287531623
0.158188 0.33517301 0.93199998 4287925351
0.160703 0.33517101 0.93199998 4287925606
0.163568 0.33588901 0.93400002 4287728741
0.166088 0.335888 0.93400002 4287991913
0.168428 0.335527 0.93300003 4287334498
0.170762 0.33516601 0.93199998 4288190067
0.173463 0.33552501 0.93300003 4288321139
0.17616899 0.335884 0.93400002 4288386933
0.178689 0.33588299 0.93400002 4287860328
0.181016 0.33552301 0.93300003 4287465055
0.18373001 0.33588201 0.93400002 4287465053
0.186051 0.335522 0.93300003 4287991399
0.18836699 0.33516201 0.93199998 4287399776
0.19047301 0.334443 0.93000001 4287597156
0.19318999 0.33480299 0.93099999 4287531623
0.195914 0.335163 0.93199998 4287794543
0.198429 0.33516401 0.93199998 4287859305
0.20073 0.33480501 0.93099999 4287003735
0.203025 0.334447 0.93000001 4286740818
0.20575599 0.33480799 0.93099999 4286477133
0.20827 0.33480901 0.93099999 4286543439
0.21100999 0.33517 0.93199998 4287003731
0.213756 0.33553201 0.93300003 4287003988
0.216507 0.33589399 0.93400002 4286872656
0.21902999 0.33589599 0.93400002 4287464793
0.221315 0.33554 0.93300003 4287661918
0.22359499 0.33518299 0.93199998 4287464793
0.225628 0.33446699 0.93000001 4287201621
0.22814 0.33447099 0.93000001 4287201621
0.230653 0.334474 0.93000001 4287398487
0.23416901 0.335917 0.93400002 4287332694
0.23669299 0.335922 0.93400002 4286806091
0.239218 0.33592701 0.93400002 4286937677
0.240707 0.33449301 0.93000001 4287002700
0.24348301 0.334858 0.93099999 4287068493
0.24600001 0.33486399 0.93099999 4287002701
0.248785 0.33522999 0.93199998 4286937422
0.251306 0.335237 0.93199998 4287002963
0.25409901 0.335603 0.93300003 4287003477
0.25634801 0.335251 0.93199998 4287069522
0.25859201 0.33489901 0.93099999 4286937936
0.26027101 0.333828 0.92799997 4286741070
0.26278299 0.33383599 0.92799997 4286741069
0.26558101 0.334205 0.92900002 4287004242
0.268962 0.33529299 0.93199998 4286806863
0.27177799 0.33566299 0.93300003 4286938195
0.27401099 0.33531299 0.93199998 4286741070
0.276537 0.33532399 0.93199998 4287004241
0.279661 0.33605501 0.93400002 4287267154
0.28219301 0.33606601 0.93400002 4287135568
0.284421 0.33571899 0.93300003 4287332433
0.286643 0.33537099 0.93199998 4287267156
0.289482 0.33574399 0.93300003 4286477385
0.29201299 0.335758 0.93300003 4287069522
0.29423001 0.335412 0.93199998 4286937936
0.296442 0.335067 0.93099999 4286741070
0.29929101 0.33544201 0.93199998 4286412104
0.30149901 0.335098 0.93099999 4287004242
0.304355 0.33547401 0.93199998 4286741584
0.306559 0.33513099 0.93099999 4287070549
0.30942199 0.335509 0.93199998 4287201621
0.312291 0.33588701 0.93300003 4287464793
0.31449199 0.33554599 0.93199998 4287004241
0.31634799 0.33484501 0.93000001 4287069777
0.318537 0.33450499 0.92900002 4287332949
0.32141301 0.334885 0.93000001 4287201621
0.32464299 0.33562699 0.93199998 4287201621
0.32718399 0.33564901 0.93199998 4287201621
0.33007899 0.33603099 0.93300003 4286938449
0.33226699 0.33569399 0.93199998 4287004242
0.33445099 0.33535799 0.93099999 4287004242
0.336631 0.33502299 0.93000001 4286741070
0.33917099 0.33504799 0.93000001 4286938711
0.341712 0.33507401 0.93000001 4287004504
0.34425399 0.33510101 0.93000001 4287069783
0.34605101 0.33440799 0.92799997 4287004249
0.348591 0.334436 0.92799997 4286478675
0.351509 0.33482599 0.92900002 4286280526
0.354054 0.334856 0.92900002 4286017607
0.35698301 0.33524701 0.93000001 4285952068
0.35876 0.334557 0.92799997 4286214725
0.36091599 0.33422899 0.92699999 4286281024
0.363069 0.333902 0.926 4286412358
0.365612 0.33393601 0.926 4286149186
0.368554 0.33433101 0.92699999 4286478401
0.37110299 0.33436701 0.92699999 4286609987
0.37365299 0.33440399 0.92699999 4286543690
0.37661099 0.334802 0.92799997 4286609483
0.37875801 0.33447999 0.92699999 4286807377
0.38090199 0.334158 0.926 4287070548
0.38345599 0.33419901 0.926 4286741583
0.38642901 0.33460101 0.92699999 4286478412
0.38815001 0.33392099 0.92500001 4286807377
0.39070699 0.333965 0.92500001 4286938963
0.39284 0.333648 0.92400002 4287201883
0.395825 0.33405399 0.92500001 4286807640
0.398388 0.33410001 0.92500001 4287333730
0.40138501 0.33450899 0.926 4287071326
0.40308201 0.33383501 0.92400002 4287005533
0.40520799 0.33352301 0.92299998 4286742107
0.40777299 0.333574 0.92299998 4286676314
0.41034001 0.33362499 0.92299998 4287202397
0.412909 0.33367801 0.92299998 4287005018
0.41547999 0.33373201 0.92299998 4287005016
0.41850701 0.33414799 0.92400002 4286742098
0.42154101 0.334566 0.92500001 4286610512
0.42412499 0.33462399 0.92500001 4286544719
0.42578799 0.33395901 0.92299998 4286610512
0.42790699 0.333657 0.92199999 4286873684
0.43095699 0.33408001 0.92299998 4286938962
0.43307501 0.33377999 0.92199999 4286807376
0.43519101 0.333482 0.921 4286807377
0.43730301 0.333184 0.92000002 4286741584
0.43989101 0.333251 0.92000002 4286215240
0.442 0.33295599 0.91900003 4286018891
0.444107 0.33266199 0.91799998 4286149195
0.446697 0.33273199 0.91799998 4284111926
0.45026901 0.33352801 0.92000002 4283256364
0.45237899 0.33323801 0.91900003 4286874979
0.45547599 0.333675 0.92000002 4286809435
0.45808399 0.33375099 0.92000002 4286940507
0.46119601 0.33419099 0.921 4286808919
0.46331 0.33390701 0.92000002 4286940246
0.46592799 0.333987 0.92000002 4287202902
0.46854901 0.334068 0.92000002 4286610765
0.47168499 0.33451501 0.921 4286741837
0.47380099 0.334236 0.92000002 4286873423
0.476432 0.33432299 0.92000002 4286413902
0.479067 0.334411 0.92000002 4287268956
0.48118201 0.33413699 0.91900003 4287466335
0.484348 0.334591 0.92000002 4286807891
0.48699501 0.33468401 0.92000002 4286676305
0.49017701 0.335143 0.921 4287070809
0.492834 0.33523899 0.921 4287136604
0.49549499 0.33533701 0.921 4287070811
0.49816 0.335437 0.921 4286543951
0.35700899 0.20693099 0.56099999 4285690440
0.34723499 0.200394 0.54299998 4285032771
0.34056601 0.19569799 0.52999997 4285493075
0.338341 0.193584 0.52399999 4285164371
0.33673099 0.19183899 0.51899999 4285493085
0.335747 0.190464 0.51499999 4285492318
0.33474201 0.189089 0.51099998 4285492064
0.33437499 0.18808401 0.50800002 4285820776
0.33267 0.18633901 0.50300002 4285952363
0.332932 0.18570501 0.50099999 4285952879
-0.19891401 0.328365 0.92000002 4286938468
-0.196217 0.328008 0.91900003 4287267171
-0.193736 0.32800701 0.91900003 4287135585
-0.191256 0.32800701 0.91900003 4287530343
-0.188981 0.32836401 0.92000002 4286938203
-0.186904 0.32907799 0.92199999 4287135837
-0.184616 0.32943499 0.92299998 4287661920
-0.182322 0.32979301 0.92400002 4288188262
-0.180218 0.33050701 0.926 4286872916
-0.17772 0.33050799 0.926 4287662948
-0.174842 0.329795 0.92400002 4287728742
-0.17216299 0.32943901 0.92299998 4288056937
-0.169672 0.32944101 0.92299998 4286872663
-0.167363 0.329799 0.92400002 4287925351
-0.16486999 0.32980001 0.92400002 4287333730
-0.162026 0.329088 0.92199999 4286676061
-0.159711 0.329447 0.92299998 4286413920
-0.15773199 0.33051899 0.926 4286149991
-0.155569 0.33123499 0.92799997 4287795066
-0.153065 0.33123699 0.92799997 4288058482
-0.15007401 0.33016801 0.92500001 4288189300
-0.147579 0.33017001 0.92500001 4288583544
-0.14477 0.32945901 0.92299998 4288517751
-0.142433 0.32981801 0.92400002 4288780923
-0.139789 0.32946301 0.92299998 4288451958
-0.137299 0.32946599 0.92299998 4288518265
-0.13437 0.32839701 0.92000002 4288518265
-0.131888 0.32839999 0.92000002 4288321915
-0.129547 0.32875901 0.921 4287730037
-0.12720001 0.329119 0.92199999 4285624408
-0.124847 0.329478 0.92299998 4285361238
-0.122357 0.32948101 0.92299998 4285229913
-0.119866 0.32948399 0.92299998 4285295190
-0.117503 0.32984301 0.92400002 4286677351
-0.115134 0.330203 0.92500001 4287795573
-0.11276 0.33056301 0.926 4287992436
-0.110262 0.33056501 0.926 4288320626
-0.107647 0.33021101 0.92500001 4288451695
-0.105037 0.32985699 0.92400002 4288319850
-0.102432 0.32950199 0.92299998 4288583022
-0.099941798 0.329505 0.92299998 4288714608
-0.097451001 0.32950801 0.92299998 4288451695
-0.094960198 0.32951 0.92299998 4288122730
-0.092469297 0.32951301 0.92299998 4288516974
-0.089978397 0.32951599 0.92299998 4288188011
-0.0874874 0.32951799 0.92299998 4288451181
-0.085180603 0.330235 0.92500001 4288319595
-0.082862899 0.33095101 0.92699999 4288385388
-0.080361001 0.33095399 0.92699999 4288188262
-0.077859104 0.33095601 0.92699999 4287793504
-0.0751945 0.330244 0.92500001 4287661918
-0.0727764 0.33060399 0.926 4288056678
-0.070201099 0.33024901 0.92500001 4287924837
-0.067704402 0.33025101 0.92500001 4287859044
-0.065207601 0.33025301 0.92500001 4287793251
-0.0628464 0.33096901 0.92699999 4287595872
-0.060409199 0.33132899 0.92799997 4287727458
-0.057904199 0.33133101 0.92799997 4287530079
-0.0553395 0.330975 0.92699999 4288385388
-0.0528371 0.33097699 0.92699999 4288451697
-0.0502804 0.33062199 0.926 4288451695
-0.047780599 0.33062401 0.926 4288517490
-0.045378599 0.331339 0.92799997 4288385902
-0.042873401 0.331341 0.92799997 4288451697
-0.040368099 0.33134201 0.92799997 4288583283
-0.037822001 0.33098701 0.92699999 4288451695
-0.035357501 0.33134499 0.92799997 4288584051
-0.032816701 0.330989 0.92699999 4288517488
-0.0302814 0.33063301 0.926 4288649074
-0.0277513 0.330277 0.92500001 4288452465
-0.0251994 0.32956401 0.92299998 4288057200
-0.0226829 0.32920799 0.92199999 4285623130
-0.020193599 0.329209 0.92199999 4284899671
-0.017742701 0.32992399 0.92400002 4284439377
-0.0152645 0.33028099 0.92500001 4284175951
-0.0127809 0.330639 0.926 4284044362
-0.0102808 0.330639 0.926 4287597670
-0.0077722599 0.330282 0.92500001 4288255083
-0.0052805301 0.33063999 0.926 4288320876
-0.00278039 0.33063999 0.926 4288255083
-0.000280849 0.33135399 0.92799997 4288518257
0.00222469 0.33135399 0.92799997 4288452464
0.0047200401 0.33063999 0.926 4288320876
0.0072201798 0.33063999 0.926 4288386669
0.0097308103 0.33099601 0.92699999 4288255083
0.0122732 0.33206701 0.93000001 4288517741
0.0147841 0.33206701 0.93000001 4288517743
0.017294999 0.332066 0.93000001 4288385902
0.0197633 0.33135101 0.92799997 4288254316
0.0222688 0.33135 0.92799997 4288517490
0.024747601 0.330993 0.92699999 4288254316
0.027309099 0.33170599 0.92900002 4288451697
0.029817199 0.331705 0.92900002 4288320111
0.032360099 0.33206099 0.93000001 4288254318
0.034833301 0.33170199 0.92900002 4288320111
0.037261002 0.33098701 0.92699999 4288057200
0.0397636 0.33098599 0.92699999 4288123507
0.042311698 0.331341 0.92799997 4288123761
0.045058399 0.333125 0.93300003 4287926382
0.047526199 0.332766 0.93199998 4287860589
0.0500421 0.33276501 0.93199998 4288320625
0.052388899 0.33169201 0.92900002 4287991660
0.054955799 0.33204699 0.93000001 4287925867
0.057466201 0.33204499 0.93000001 4287860074
0.060105599 0.332757 0.93199998 4287925868
0.0626214 0.332755 0.93199998 4287729003
0.065067202 0.332396 0.93099999 4287860589
0.067507602 0.332037 0.93000001 4287992175
0.070017897 0.33203501 0.93000001 4287794795
0.072528102 0.332032 0.93000001 4287992175
0.075118899 0.332387 0.93099999 4287663724
0.077798501 0.33309901 0.93300003 4287861103
0.080316603 0.333096 0.93300003 4288124275
0.082745902 0.332737 0.93199998 4287993205
0.0852613 0.33273399 0.93199998 4287992950
0.087776601 0.33273199 0.93199998 4288190329
0.090291902 0.33272901 0.93199998 4288321915
0.092607901 0.33201301 0.93000001 4288255608
0.095117703 0.33201 0.93000001 4288518780
0.097627401 0.33200699 0.93000001 4288189300
0.100352 0.332719 0.93199998 4288321401
0.102867 0.33271599 0.93199998 4288058229
0.105382 0.33271301 0.93199998 4288190329
0.107782 0.33235401 0.93099999 4288058743
0.110175 0.331994 0.93000001 4288190329
0.112564 0.33163401 0.92900002 4287926898
0.115194 0.33198801 0.93000001 4287992689
0.11783 0.33234301 0.93099999 4288321139
0.120342 0.33234 0.93099999 4288321139
0.122722 0.33197999 0.93000001 4288518257
0.12509701 0.33162099 0.92900002 4288320878
0.12774099 0.33197501 0.93000001 4288517995
0.13025001 0.331972 0.93000001 4288386409
0.132616 0.331613 0.92900002 4288188778
0.13483199 0.330897 0.92699999 4288385902
0.137481 0.331251 0.92799997 4288122732
0.139985 0.331249 0.92799997 4287991146
0.142489 0.33124599 0.92799997 4287991408
0.14452399 0.33017299 0.92500001 4287005289
0.147019 0.33017099 0.92500001 4285031513
0.149515 0.33016899 0.92500001 4286478956
0.152339 0.330881 0.92699999 4287203689
0.15484001 0.330879 0.92699999 4287596379
0.157511 0.33123401 0.92799997 4288122469
0.159842 0.33087501 0.92699999 4287662434
0.16251899 0.33123001 0.92799997 4287926120
0.165022 0.33122799 0.92799997 4287926120
0.16752601 0.331227 0.92799997 4287729256
0.169664 0.33051199 0.926 4287860588
0.17234799 0.33086699 0.92699999 4287597416
0.17503799 0.33122301 0.92799997 4288254833
0.177733 0.331579 0.92900002 4287860074
0.18024001 0.33157799 0.92900002 4287530848
0.18274701 0.33157799 0.92900002 4287530848
0.185054 0.33122 0.92799997 4287991399
0.18755899 0.33122 0.92799997 4287531363
0.18965399 0.330506 0.926 4287531624
0.19236 0.330863 0.92699999 4287729003
0.19486199 0.330863 0.92699999 4287992174
0.197364 0.330863 0.92699999 4287990891
0.199866 0.33086401 0.92699999 4287004495
0.201932 0.33015001 0.92500001 4286609230
0.204429 0.33015099 0.92500001 4286411594
0.20715 0.33050901 0.926 4286411340
0.209876 0.33086801 0.92699999 4286608973
0.212837 0.33158299 0.92900002 4287069781
0.215578 0.33194199 0.93000001 4286938195
0.218089 0.33194399 0.93000001 4287398746
0.22036301 0.33159 0.92900002 4287661920
0.222633 0.33123499 0.92799997 4287069781
0.224897 0.330881 0.92699999 4285951554
0.227401 0.33088499 0.92699999 4287398487
0.22965699 0.330531 0.926 4287530073
0.23291101 0.331606 0.92900002 4287201363
0.235422 0.33160999 0.92900002 4286871882
0.238445 0.33232799 0.93099999 4286937675
0.24018399 0.33126199 0.92799997 4287002954
0.242955 0.331624 0.92900002 4286936907
0.24546599 0.33162901 0.92900002 4286740043
0.248245 0.331992 0.93000001 4286608457
0.25075999 0.33199799 0.93000001 4286805838
0.25327501 0.33200499 0.93000001 4287135317
0.25551599 0.33165401 0.92900002 4286806350
0.25747401 0.330948 0.92699999 4286806350
0.25942099 0.33024099 0.92500001 4286609484
0.26164201 0.32989201 0.92400002 4286675277
0.26414299 0.3299 0.92400002 4286741070
0.26722199 0.330623 0.926 4286609484
0.27031201 0.33134699 0.92799997 4286806609
0.273119 0.33171299 0.92900002 4286741070
0.27563599 0.331723 0.92900002 4287004241
0.278752 0.33244801 0.93099999 4287004495
0.28097299 0.332102 0.93000001 4287135568
0.283189 0.33175701 0.92900002 4287201361
0.28540099 0.331411 0.92799997 4287200849
0.28791699 0.331424 0.92799997 4287464021
0.290748 0.33179399 0.92900002 4287266895
0.29326901 0.331808 0.92900002 4287004237
0.295472 0.33146399 0.92799997 4287004237
0.29799101 0.33147901 0.92799997 4286938442
0.300188 0.331137 0.92699999 4286872908
0.30303201 0.33151001 0.92799997 4286807115
0.305554 0.33152601 0.92799997 4287004494
0.30840799 0.3319 0.92900002 4286609736
0.31060001 0.33155999 0.92799997 4287136081
0.31346101 0.331936 0.92900002 4287003982
0.31530899 0.33124 0.92699999 4286938189
0.31783199 0.33125901 0.92699999 4286938191
0.32035601 0.33127901 0.92699999 4287004492
0.323926 0.332371 0.93000001 4286938449
0.32610899 0.33203501 0.92900002 4286740816
0.328641 0.332057 0.92900002 4286740818
0.330461 0.33136499 0.92699999 4286872402
0.33298999 0.331388 0.92699999 4286872656
0.33552 0.33141199 0.92699999 4286938449
0.33841601 0.33179399 0.92799997 4286609998
0.340583 0.33146101 0.92699999 4287135828
0.343117 0.331487 0.92699999 4286938195
0.34490499 0.33079901 0.92500001 4286543437
0.34743601 0.33082601 0.92500001 4286938195
0.349967 0.33085501 0.92500001 4286937942
0.35288101 0.33124101 0.926 4286477644
0.35503399 0.33091301 0.92500001 4286608977
0.356796 0.33022901 0.92299998 4286741070
0.35893801 0.32990199 0.92199999 4286477897
0.36185899 0.33029199 0.92299998 4286938448
0.364393 0.33032501 0.92299998 4286609737
0.36692899 0.33035901 0.92299998 4286675276
0.36906499 0.33003601 0.92199999 4286412357
0.372004 0.33042899 0.92299998 4286675530
0.37494999 0.33082399 0.92400002 4286609737
0.37708601 0.33050299 0.92299998 4286609483
0.37962899 0.330542 0.92299998 4286346564
0.38217399 0.33058101 0.92299998 4286280771
0.38513699 0.33098 0.92400002 4286412358
0.38726899 0.330663 0.92299998 4286346311
0.38939601 0.330347 0.92199999 4286609483
0.39109501 0.32967299 0.92000002 4286477644
0.39406899 0.33007601 0.921 4286149447
0.39661899 0.33012101 0.921 4285755195
0.400038 0.33088401 0.92299998 4285952582
0.40172499 0.33021399 0.921 4286346835
0.403842 0.32990399 0.92000002 4286084431
0.40595499 0.32959399 0.91900003 4286347603
0.40851 0.32964501 0.91900003 4286741846
0.41106701 0.329696 0.91900003 4286544467
0.41362599 0.32974899 0.91900003 4287004502
0.41618699 0.32980299 0.91900003 4286872916
0.41920599 0.33021599 0.92000002 4287136088
0.42177501 0.330273 0.92000002 4286675537
0.42388499 0.32997099 0.91900003 4286873684
0.42645499 0.33002901 0.91900003 4286807890
0.42856199 0.32973 0.91799998 4287004755
0.43113399 0.32979101 0.91799998 4286873170
0.43323699 0.329494 0.917 4287136342
0.436288 0.329916 0.91799998 4286807377
0.438869 0.329981 0.91799998 4286938963
0.44049001 0.329328 0.91600001 4286610764
0.44258699 0.32903501 0.91500002 4286216268
0.44516799 0.32910401 0.91500002 4285033026
0.44872999 0.32989299 0.917 4284243002
0.45132199 0.329965 0.917 4286216798
0.45441201 0.33039701 0.91799998 4287137896
0.45651501 0.330111 0.917 4287269219
0.460118 0.33090699 0.91900003 4287071577
0.46222401 0.33062401 0.91799998 4287203163
0.46483499 0.33070299 0.91799998 4287400281
0.466939 0.330423 0.917 4286939730
0.469042 0.33014399 0.91600001 4286742351
0.47217101 0.330587 0.917 4286544972
0.47427499 0.330311 0.91600001 4286676557
0.47741801 0.33075801 0.917 4286677074
0.47899899 0.33012399 0.91500002 4287203418
0.48215199 0.33057401 0.91600001 4287137370
0.48478499 0.33066499 0.91600001 4286610258
0.48742199 0.33075801 0.91600001 4286939223
0.490062 0.330852 0.91600001 4286873432
0.49270701 0.330948 0.91600001 4286939226
0.49535599 0.33104599 0.91600001 4286676054
0.498009 0.33114499 0.91600001 4285951561
0.35707501 0.206313 0.56400001 4286149960
0.34545401 0.19873001 0.54299998 4285624645
0.33754301 0.19333901 0.528 4285821773
0.33275601 0.189775 0.51800001 4285689943
0.33113801 0.188041 0.51300001 4286084453
0.330143 0.186674 0.509 4286281580
0.33043 0.186041 0.50700003 4286544753
0.33005399 0.18504199 0.50400001 4286676082
0.32966301 0.18404201 0.50099999 4286544500
-0.199645 0.323048 0.912 4286807396
-0.197832 0.32411 0.91500002 4286412124
-0.195576 0.32446399 0.91600001 4287135331
-0.193315 0.32481799 0.917 4286872413
-0.19084001 0.324819 0.917 4286740827
-0.18857101 0.32517299 0.91799998 4286675801
-0.186093 0.325174 0.91799998 4286873179
-0.183816 0.32552901 0.91900003 4288188523
-0.181336 0.32552901 0.91900003 4287399262
-0.179051 0.32588401 0.92000002 4287597155
-0.176761 0.32624 0.921 4287202398
-0.174087 0.32588699 0.92000002 4287070558
-0.171231 0.32517999 0.91799998 4286675800
-0.168571 0.32482699 0.917 4287070559
-0.16645899 0.325537 0.91900003 4287596903
-0.163801 0.32518399 0.91799998 4286939740
-0.16150001 0.32554099 0.91900003 4286347611
-0.158848 0.32518801 0.91799998 4285097560
-0.157223 0.32696101 0.92299998 4288057992
-0.154732 0.32696399 0.92299998 4287729778
-0.152077 0.326612 0.92199999 4287860850
-0.149103 0.325551 0.91900003 4288386932
-0.14678299 0.32590801 0.92000002 4288452212
-0.143988 0.32520199 0.91799998 4288386419
-0.141665 0.32555801 0.91900003 4288517235
-0.139034 0.325207 0.91799998 4288123507
-0.136558 0.32520899 0.91799998 4288255093
-0.133935 0.32485801 0.917 4288387194
-0.13146099 0.32486001 0.917 4288387708
-0.128987 0.32486299 0.917 4287993209
-0.126237 0.324157 0.91500002 4285360732
-0.123497 0.32345101 0.91299999 4285229658
-0.121166 0.32380801 0.91399997 4284375118
-0.11896 0.32451999 0.91600001 4284571983
-0.116616 0.32487699 0.917 4285229652
-0.114266 0.325234 0.91799998 4286808682
-0.112032 0.32594499 0.92000002 4287268713
-0.109669 0.32630301 0.921 4288320372
-0.107184 0.326305 0.921 4288517490
-0.104471 0.3256 0.91900003 4288583281
-0.101991 0.32560199 0.91900003 4288911987
-0.0995114 0.32560501 0.91900003 4288451950
-0.0970314 0.32560799 0.91900003 4288386672
-0.094551302 0.325611 0.91900003 4288583281
-0.091971003 0.325259 0.91799998 4288649076
-0.089493603 0.32526201 0.91799998 4288517490
-0.087016098 0.32526499 0.91799998 4288648562
-0.084722698 0.32597601 0.92000002 4288385390
-0.082418501 0.32668701 0.92199999 4288648560
-0.07993 0.32668999 0.92199999 4288517227
-0.077273503 0.32598299 0.92000002 4288385641
-0.074709103 0.32563201 0.91900003 4288517227
-0.072307199 0.32598799 0.92000002 4288648813
-0.069823898 0.325991 0.92000002 4288254057
-0.0672675 0.32563901 0.91900003 4288516974
-0.064857297 0.325995 0.92000002 4288385643
-0.062441699 0.326352 0.921 4288188264
-0.0600207 0.32670799 0.92199999 4288451436
-0.057594199 0.32706499 0.92299998 4288254571
-0.0550429 0.32671201 0.92199999 4288188523
-0.0526109 0.32706901 0.92299998 4287991914
-0.050064899 0.32671601 0.92199999 4288122730
-0.047575898 0.326718 0.92199999 4288254318
-0.045086801 0.32671899 0.92199999 4288056939
-0.0425977 0.32672101 0.92199999 4288057453
-0.040108599 0.32672301 0.92199999 4288122732
-0.037578601 0.32637 0.921 4287794535
-0.035168301 0.32708001 0.92299998 4287662949
-0.0326409 0.326727 0.92199999 4287859558
-0.030151701 0.32672799 0.92199999 4288056937
-0.0276324 0.32637399 0.921 4287925614
-0.0250911 0.32566699 0.91900003 4288386166
-0.022560701 0.32495901 0.917 4287728750
-0.020041 0.324251 0.91500002 4287729012
-0.0175898 0.324606 0.91600001 4287269229
-0.0151661 0.32567 0.91900003 4287795057
-0.0127124 0.326379 0.921 4287926381
-0.0102479 0.327088 0.92299998 4288254832
-0.00774734 0.32673401 0.92199999 4288189293
-0.00525221 0.32638001 0.921 4288320109
-0.00276548 0.32638001 0.921 4288320109
-0.00027934599 0.32708901 0.92299998 4288255086
0.0022127901 0.32708901 0.92299998 4288452465
0.00469983 0.32673499 0.92199999 4288452978
0.00718146 0.32638001 0.921 4288255853
0.0096891802 0.327088 0.92299998 4288386669
0.0122209 0.32815099 0.926 4288189290
0.0147211 0.32815099 0.926 4288517488
0.0172027 0.32779601 0.92500001 4288253804
0.019657601 0.327086 0.92299998 4288122479
0.0221496 0.32708499 0.92299998 4288319856
0.024614999 0.32673001 0.92199999 4288057453
0.027163099 0.327438 0.92400002 4288254316
0.029689901 0.32779101 0.92500001 4288254316
0.0322221 0.32814401 0.926 4288188523
0.0346471 0.327434 0.92400002 4288188523
0.037181899 0.32778701 0.92500001 4288189039
0.039636299 0.32743201 0.92400002 4288189039
0.0421765 0.327784 0.92500001 4288255086
0.0447703 0.32849199 0.92699999 4287926381
0.047272898 0.32848999 0.92699999 4287926381
0.049721699 0.328134 0.926 4288255086
0.052108701 0.32742301 0.92400002 4288123500
0.0546031 0.32742101 0.92400002 4288189293
0.057097401 0.32741901 0.92400002 4288189292
0.059785198 0.32848001 0.92699999 4288189293
0.062220301 0.32812399 0.926 4288058221
0.064789802 0.32847601 0.92699999 4288189553
0.067146897 0.32776499 0.92500001 4287992174
0.069568403 0.327409 0.92400002 4287926381
0.0720625 0.32740599 0.92400002 4287992175
0.0745565 0.32740399 0.92400002 4287926898
0.077217199 0.32811001 0.926 4287795310
0.079716504 0.32810801 0.926 4287926896
0.082215801 0.328105 0.926 4288124277
0.084532 0.32739401 0.92400002 4288124536
0.087025799 0.327391 0.92400002 4288321915
0.089519396 0.32738799 0.92400002 4288387708
0.092112698 0.32774001 0.92500001 4288256122
0.094506703 0.32738301 0.92400002 4288256122
0.097105198 0.32773501 0.92500001 4288255608
0.099601403 0.327732 0.92500001 4288321915
0.102208 0.32808301 0.926 4288519294
0.104707 0.32808 0.926 4288519294
0.10709 0.327723 0.92500001 4288059000
0.109586 0.32771999 0.92500001 4287927414
0.111961 0.32736301 0.92400002 4287992950
0.114578 0.32771501 0.92500001 4287795826
0.1172 0.32806599 0.926 4287993205
0.119699 0.32806301 0.926 4288124275
0.122065 0.32770601 0.92500001 4288124528
0.124426 0.32734901 0.92400002 4288124528
0.127057 0.32769999 0.92500001 4288255599
0.12955201 0.32769799 0.92500001 4288058220
0.132191 0.328049 0.926 4288255346
0.134253 0.32698399 0.92299998 4288189553
0.13689101 0.327335 0.92400002 4288057453
0.13923299 0.326978 0.92299998 4288057967
0.141877 0.32732999 0.92400002 4287729516
0.14374501 0.32591099 0.92000002 4287269733
0.146386 0.326262 0.921 4284834135
0.148871 0.32626 0.921 4285889648
0.151848 0.32732099 0.92400002 4287335528
0.154174 0.32696399 0.92299998 4287531623
0.157004 0.32767001 0.92500001 4288056937
0.159327 0.32731399 0.92400002 4287859813
0.16199499 0.32766601 0.92500001 4287860327
0.164313 0.32731 0.92400002 4288057706
0.166806 0.327308 0.92400002 4288255086
0.16893201 0.32659799 0.92199999 4287859558
0.171606 0.326951 0.92299998 4287662179
0.174096 0.32695001 0.92299998 4287991144
0.17696901 0.32765701 0.92500001 4288649074
0.179271 0.32730201 0.92400002 4287662434
0.18176401 0.327301 0.92400002 4287530848
0.184058 0.32694599 0.92299998 4287925604
0.18654899 0.32694501 0.92299998 4287728741
0.188835 0.32659 0.92199999 4287268452
0.191323 0.32659 0.92199999 4287794796
0.193811 0.32659 0.92199999 4287925867
0.196299 0.32659 0.92199999 4287859558
0.198788 0.32659 0.92199999 4286543691
0.201058 0.32623601 0.921 4286608971
0.20354401 0.32623699 0.921 4286213954
0.20625401 0.326592 0.92199999 4286345285
0.209196 0.327301 0.92400002 4286411847
0.21214899 0.32801101 0.926 4286806350
0.214417 0.327658 0.92500001 4286937936
0.216915 0.32765999 0.92500001 4287332955
0.219175 0.327308 0.92400002 4287530079
0.221431 0.326956 0.92299998 4287332955
0.223681 0.32660401 0.92199999 4285951300
0.226171 0.32660699 0.92199999 4287070035
0.228662 0.32661 0.92199999 4287595866
0.231905 0.327676 0.92500001 4287398742
0.23415101 0.32732499 0.92400002 4286938191
0.236904 0.32768399 0.92500001 4287003468
0.238886 0.32697901 0.92299998 4286740296
0.241642 0.32733801 0.92400002 4287200849
0.244404 0.32769701 0.92500001 4286937677
0.246905 0.327703 0.92500001 4286674250
0.24967501 0.32806301 0.926 4286543180
0.25190699 0.327714 0.92500001 4287201369
0.254134 0.32736599 0.92400002 4286675023
0.256078 0.326664 0.92199999 4286477644
0.25829199 0.32631701 0.921 4286543439
0.260501 0.32596999 0.92000002 4286477644
0.26327699 0.32633299 0.921 4286543437
0.26634699 0.32704899 0.92299998 4286609232
0.269429 0.32776701 0.92500001 4286609230
0.271934 0.32777601 0.92500001 4286412105
0.27443901 0.327786 0.92500001 4286675276
0.277244 0.32815 0.926 4286806605
0.27945101 0.327806 0.92500001 4286740812
0.28165299 0.327463 0.92400002 4286938191
0.28415799 0.327474 0.92400002 4287003729
0.28666401 0.32748601 0.92400002 4287003729
0.28885701 0.327144 0.92299998 4286806603
0.291361 0.32715699 0.92299998 4286806605
0.294184 0.32752499 0.92400002 4286806603
0.29669201 0.327539 0.92400002 4286938444
0.29920101 0.327553 0.92400002 4286806858
0.30171099 0.32756799 0.92400002 4286872651
0.304221 0.327584 0.92400002 4286806856
0.307064 0.32795399 0.92500001 4286872651
0.30924401 0.32761699 0.92400002 4287201361
0.31141901 0.327279 0.92299998 4286806603
0.31393 0.327297 0.92299998 4287003982
0.316441 0.32731599 0.92299998 4287267156
0.31860799 0.32697999 0.92199999 4287004492
0.32181501 0.32770899 0.92400002 4287267413
0.32398099 0.32737499 0.92299998 4287397989
0.32720399 0.328105 0.92500001 4287200608
0.32901299 0.327418 0.92299998 4286806356
0.33153 0.32743999 0.92299998 4286938449
0.33404899 0.327463 0.92299998 4287201621
0.33693299 0.327842 0.92400002 4287070035
0.33908799 0.32751101 0.92299998 4287267414
0.34161001 0.32753599 0.92299998 4287070035
0.34338701 0.32685301 0.921 4286741070
0.34590599 0.32687899 0.921 4286872656
0.348425 0.32690701 0.921 4286543691
0.351327 0.32729 0.92199999 4286477898
0.35346901 0.32696399 0.921 4286608971
0.35560599 0.32663801 0.92000002 4286411851
0.35773799 0.326314 0.91900003 4286609232
0.36065099 0.3267 0.92000002 4286741070
0.36317599 0.32673201 0.92000002 4286741323
0.36610001 0.32712001 0.921 4287069775
0.36783001 0.326444 0.91900003 4286609224
0.37075901 0.32683399 0.92000002 4286346052
0.37329 0.32686901 0.92000002 4286477377
0.37541401 0.32655001 0.91900003 4286477377
0.37794501 0.326588 0.91900003 4286148926
0.38089201 0.32698101 0.92000002 4286083133
0.38343 0.327021 0.92000002 4286346052
0.38554901 0.32670501 0.91900003 4286543431
0.387243 0.32603499 0.917 4286477638
0.389777 0.32607701 0.917 4286609224
0.392313 0.32611999 0.917 4286543944
0.394851 0.32616401 0.917 4286149438
0.39739099 0.32620901 0.917 4286478412
0.39993301 0.32625601 0.917 4286215240
0.40203801 0.32594699 0.91600001 4286018638
0.40502301 0.32635099 0.917 4286018637
0.40712601 0.32604399 0.91600001 4285886535
0.40967399 0.326094 0.91600001 4286017607
0.411773 0.32578999 0.91500002 4285952068
0.41477501 0.32619801 0.91600001 4286083654
0.41687301 0.32589599 0.91500002 4286280779
0.41988501 0.326307 0.91600001 4286215240
0.42244399 0.326363 0.91600001 4286215240
0.42500499 0.32642001 0.91600001 4286281032
0.426635 0.32576501 0.91399997 4286412618
0.42919499 0.32582501 0.91399997 4286544204
0.43223101 0.326242 0.91500002 4286873169
0.435274 0.32666099 0.91600001 4286544204
0.436892 0.326011 0.91399997 4286741837
0.43898201 0.32571799 0.91299999 4287070802
0.441553 0.325784 0.91299999 4286610511
0.44412601 0.32585099 0.91299999 4285822024
0.44719201 0.32627699 0.91399997 4284243006
0.449774 0.32634699 0.91399997 4284374592
0.45235899 0.32641801 0.91399997 4286808933
0.45395201 0.32577601 0.912 4286809184
0.45703799 0.32620701 0.91299999 4287137886
0.46013299 0.32664001 0.91399997 4286939991
0.462731 0.32671699 0.91399997 4287137623
0.46482301 0.32643801 0.91299999 4287071832
0.4664 0.325802 0.91100001 4286807890
0.46951401 0.32624099 0.912 4286873937
0.47211999 0.32632399 0.912 4287005522
0.474729 0.326408 0.912 4286742350
0.47629401 0.32577801 0.91000003 4287203416
0.47995701 0.326581 0.912 4287466335
0.482577 0.326671 0.912 4286873684
0.486797 0.32783601 0.91500002 4286741844
0.48889801 0.32756999 0.91399997 4286807639
0.49099699 0.327306 0.91299999 4287268190
0.49255499 0.32668501 0.91100001 4287597156
0.49519101 0.32678199 0.91100001 4287333984
0.498925 0.32759899 0.91299999 4285951310
0.35712999 0.20568299 0.56699997 4285887041
0.34494799 0.197799 0.54500002 4285756225
0.335814 0.191724 0.528 4285493324
0.33041501 0.18782499 0.51700002 4285755996
0.32687801 0.185013 0.509 4286610292
0.32652301 0.184018 0.50599998 4286544752
0.32615301 0.183024 0.50300002 4286676339
0.32642001 0.182394 0.50099999 4286478706
-0.19898801 0.31953201 0.90899998 4286018915
-0.19696701 0.32023501 0.91100001 4286150242
-0.19493601 0.32093799 0.91299999 4286281827
-0.192261 0.320586 0.912 4286676071
-0.18979999 0.32058701 0.912 4286150234
-0.18775 0.32128999 0.91399997 4285821269
-0.185689 0.32199401 0.91600001 4287071334
-0.183217 0.32199499 0.91600001 4286610783
-0.180548 0.32164499 0.91500002 4287137127
-0.17827401 0.32199699 0.91600001 4287795057
-0.175611 0.32164699 0.91500002 4287400299
-0.17295299 0.32129699 0.91399997 4286413404
-0.169741 0.319893 0.91000003 4286610269
-0.16746899 0.32024601 0.91100001 4287728750
-0.165374 0.32095101 0.91299999 4286873703
-0.16308901 0.32130399 0.91399997 4284900174
-0.160623 0.32130599 0.91399997 4285755996
-0.15833101 0.32166001 0.91500002 4285492824
-0.15637299 0.32271701 0.91799998 4288059002
-0.154064 0.323071 0.91900003 4288059756
-0.151585 0.323073 0.91900003 4288124781
-0.148781 0.322373 0.917 4288650104
-0.14630701 0.322375 0.917 4288518518
-0.143676 0.32202601 0.91600001 4288649591
-0.141205 0.32202899 0.91600001 4288715384
-0.138431 0.321329 0.91399997 4288386679
-0.135965 0.32133099 0.91399997 4288386679
-0.13335299 0.32098299 0.91299999 4288650366
-0.13089 0.320986 0.91299999 4288454009
-0.128286 0.32063699 0.912 4288453501
-0.12555 0.31993699 0.91000003 4287795571
-0.122689 0.318885 0.90700001 4287137389
-0.120109 0.31853601 0.90600002 4287598453
-0.117924 0.319242 0.90799999 4287466361
-0.115728 0.31994799 0.91000003 4284439877
-0.113398 0.32030299 0.91100001 4285295439
-0.111183 0.32100901 0.91299999 4284570696
-0.108957 0.321715 0.91500002 4285886032
-0.106721 0.322422 0.917 4288254833
-0.104019 0.32172099 0.91500002 4288320111
-0.101328 0.32102099 0.91299999 4288451950
-0.098972797 0.321376 0.91399997 4288254571
-0.096506298 0.32137901 0.91399997 4288255085
-0.094142601 0.321733 0.91500002 4288452462
-0.091573 0.32138401 0.91399997 4288451950
-0.089106403 0.32138699 0.91399997 4288451695
-0.086639598 0.32139 0.91399997 4288517488
-0.084264897 0.32174399 0.91500002 4288254316
-0.081884801 0.322099 0.91600001 4288583022
-0.079412401 0.322101 0.91600001 4288517227
-0.076856099 0.32175201 0.91500002 4288320102
-0.074305102 0.321403 0.91399997 4288583274
-0.071837999 0.32140601 0.91399997 4288451434
-0.069522701 0.32211101 0.91600001 4288516974
-0.066977002 0.321762 0.91500002 4288451181
-0.064577602 0.32211599 0.91600001 4288517229
-0.0621727 0.32247001 0.917 4288649329
-0.0596973 0.32247201 0.917 4288386157
-0.057221901 0.322474 0.917 4288518257
-0.054686699 0.32212499 0.91600001 4288386672
-0.0522708 0.322478 0.917 4288386418
-0.049740899 0.32212901 0.91600001 4288386418
-0.047319598 0.32248199 0.917 4288583283
-0.0448929 0.322835 0.91799998 4288254832
-0.042460699 0.32318899 0.91900003 4288518004
-0.039935999 0.32283899 0.91799998 4288517490
-0.037416801 0.32248801 0.917 4288649074
-0.034979101 0.32284099 0.91799998 4288451695
-0.0324651 0.32249099 0.917 4288649074
-0.030022001 0.322844 0.91799998 4288649076
-0.0274834 0.322142 0.91600001 4288518005
-0.0250102 0.32214299 0.91600001 4288452212
-0.0224631 0.321089 0.91299999 4288188786
-0.0199761 0.32073799 0.912 4287795048
-0.017513599 0.320739 0.912 4287663463
-0.0150841 0.32144299 0.91399997 4287860841
-0.0126577 0.32249799 0.917 4287729246
-0.0102039 0.32320201 0.91900003 4287860327
-0.0077140299 0.322851 0.91799998 4287859558
-0.0052295998 0.32249901 0.917 4288056939
-0.00275357 0.32249901 0.917 4288188525
-0.000277844 0.322851 0.91799998 4287991660
0.0022008901 0.322851 0.91799998 4288057707
0.0046796198 0.322851 0.91799998 4287992427
0.00716615 0.32320201 0.91900003 4288058220
0.00965806 0.32355401 0.92000002 4287926120
0.0121554 0.32390499 0.921 4288451950
0.0146263 0.323553 0.92000002 4288582769
0.0170918 0.32319999 0.91900003 4288385135
0.019551801 0.32284799 0.91799998 4288451445
0.022030501 0.32284701 0.91799998 4288451444
0.024535799 0.32319799 0.91900003 4288320625
0.0270465 0.323549 0.92000002 4288254832
0.029594701 0.324251 0.92199999 4288189039
0.032049298 0.32389799 0.921 4288188523
0.034498401 0.32354501 0.92000002 4288056937
0.036901899 0.32284001 0.91799998 4288122730
0.039466199 0.323542 0.92000002 4288255086
0.0419956 0.323892 0.921 4288189293
0.044530399 0.324242 0.92199999 4288123246
0.047019601 0.32424101 0.92199999 4287926381
0.049508698 0.32423899 0.92199999 4288123500
0.0518286 0.32318199 0.91900003 4288189293
0.054368701 0.32353199 0.92000002 4288057707
0.056914099 0.323881 0.921 4288123499
0.0595938 0.32493401 0.92400002 4288123500
0.062020902 0.32458001 0.92299998 4287926381
0.064512499 0.32457799 0.92299998 4287992174
0.066858798 0.32387301 0.921 4287926896
0.069344901 0.32387 0.921 4288123761
0.071752898 0.32351601 0.92000002 4288057714
0.074155502 0.32316199 0.91900003 4288124277
0.076719403 0.323511 0.92000002 4288189554
0.079374701 0.32421201 0.92199999 4288321140
0.081863202 0.324209 0.92199999 4287861103
0.084351704 0.32420599 0.92199999 4287926643
0.086745903 0.323852 0.921 4288058229
0.089134701 0.323497 0.92000002 4287598194
0.091617599 0.323495 0.92000002 4288058745
0.094202697 0.323843 0.921 4288256122
0.096688204 0.32384101 0.921 4288255863
0.099173598 0.323838 0.921 4287927157
0.101659 0.32383499 0.921 4287796077
0.104257 0.32418299 0.92199999 4287927412
0.106745 0.32418001 0.92199999 4287927157
0.109233 0.324177 0.92199999 4287861621
0.1116 0.323823 0.921 4288058998
0.114085 0.32381999 0.921 4287861621
0.116697 0.324168 0.92199999 4287993205
0.119185 0.32416499 0.92199999 4288058482
0.121672 0.32416201 0.92199999 4288058735
0.12416 0.324159 0.92199999 4288190067
0.12664799 0.32415599 0.92199999 4287992942
0.129135 0.32415301 0.92199999 4288256114
0.131623 0.32415 0.92199999 4287926895
0.133965 0.323796 0.921 4288123760
0.13644899 0.32379299 0.921 4288123760
0.138633 0.32308701 0.91900003 4288057967
0.140958 0.32273301 0.91799998 4287926895
0.143122 0.322027 0.91600001 4287466859
0.14591201 0.32272699 0.91799998 4285162846
0.14855 0.32307601 0.91900003 4286610293
0.15119299 0.32342499 0.92000002 4287072613
0.15350799 0.323071 0.91900003 4287400551
0.156157 0.323421 0.92000002 4288057706
0.158639 0.32341799 0.92000002 4287859813
0.161121 0.32341599 0.92000002 4287860328
0.163426 0.32306299 0.91900003 4287991913
0.16572399 0.32270899 0.91799998 4287859558
0.168018 0.32235599 0.917 4287399007
0.170678 0.322705 0.91799998 4287596388
0.173343 0.323055 0.91900003 4287333216
0.17601401 0.323405 0.92000002 4288254318
0.178496 0.32340401 0.92000002 4287925351
0.180585 0.32269999 0.91799998 4287202144
0.182862 0.32234699 0.917 4287859813
0.18533701 0.322346 0.917 4287728742
0.188016 0.32269701 0.91799998 4287268452
0.190286 0.32234401 0.917 4287794796
0.19296999 0.322696 0.91799998 4287662696
0.195235 0.32234401 0.917 4287859560
0.197925 0.32269499 0.91799998 4286938195
0.200185 0.32234401 0.917 4286214213
0.20265999 0.32234401 0.917 4286805321
0.205135 0.32234401 0.917 4286936907
0.207836 0.32269701 0.91799998 4286542664
0.210315 0.322698 0.91799998 4287266387
0.213025 0.32304999 0.91900003 4286740816
0.215506 0.32305199 0.91900003 4287003990
0.21775 0.32270199 0.91799998 4287595872
0.219989 0.32235199 0.917 4286280267
0.222708 0.32270601 0.91799998 4286477646
0.225187 0.32270801 0.91799998 4286477898
0.227915 0.323062 0.91900003 4287267414
0.23089901 0.323769 0.921 4287464792
0.23338699 0.32377201 0.921 4287135570
0.235875 0.32377499 0.921 4287135054
0.238105 0.323428 0.92000002 4286937675
0.240853 0.32378301 0.921 4286806091
0.243606 0.324139 0.92199999 4287134801
0.246099 0.32414401 0.92199999 4286674766
0.24859101 0.32414901 0.92199999 4286346060
0.250267 0.3231 0.91900003 4287464541
0.25247699 0.32275501 0.91799998 4287464541
0.25468299 0.322409 0.917 4287332955
0.25772399 0.32311901 0.91900003 4287070297
0.26021099 0.32312599 0.91900003 4287004756
0.26298299 0.32348499 0.92000002 4287136088
0.26547301 0.323493 0.92000002 4287004502
0.267672 0.323149 0.91900003 4286543691
