# .PCD v0.7 - Point Cloud Data file format
VERSION 0.7
FIELDS x y z rgb
SIZE 4 4 4 4
TYPE F F F U
COUNT 1 1 1 1
WIDTH 1101
HEIGHT 1
VIEWPOINT 0 0 0 1 0 0 0
POINTS 1101
DATA ascii
0.0348204 -0.156242 0.68099999 4282398751
0.0367711 -0.156699 0.68300003 4282596128
0.038675901 -0.15692499 0.68400002 4282662175
0.0405268 -0.156923 0.68400002 4282727968
0.042377599 -0.15692 0.68400002 4282925347
0.0442283 -0.15691701 0.68400002 4282860068
0.046213701 -0.157373 0.68599999 4282794791
0.048209701 -0.157829 0.68800002 4282926377
0.050071001 -0.15782499 0.68800002 4283254572
0.0519321 -0.157822 0.68800002 4283122988
0.0538713 -0.158048 0.68900001 4283320365
0.055654 -0.15781499 0.68800002 4283451691
0.057431102 -0.157582 0.68699998 4283189549
0.059202701 -0.15734901 0.68599999 4283518512
0.061057799 -0.157345 0.68599999 4283386926
0.063004501 -0.15757 0.68699998 4283386926
0.064861998 -0.157566 0.68699998 4283781170
0.066816501 -0.157792 0.68800002 4283451951
0.068676502 -0.157787 0.68800002 4283517744
0.0707414 -0.158242 0.69 4283847225
0.0726064 -0.158237 0.69 4283847225
0.074471399 -0.158233 0.69 4283584307
0.076225497 -0.15799899 0.68900001 4283912756
0.078087397 -0.157994 0.68900001 4283912756
0.0799492 -0.157989 0.68900001 4284044856
0.082048297 -0.158443 0.69099998 4284176444
0.0837937 -0.158209 0.69 4284242244
0.085781902 -0.15843301 0.69099998 4283847486
0.087267898 -0.15774 0.68800002 4283715900
0.089126199 -0.15773501 0.68800002 4284373316
0.0909843 -0.15773 0.68800002 4284175937
0.092707299 -0.15749501 0.68699998 4283978811
0.094700098 -0.157719 0.68800002 4284044858
0.096557699 -0.157713 0.68800002 4283978811
0.098987304 -0.15862501 0.69199997 4283847997
0.101438 -0.159536 0.69599998 4283124529
0.103317 -0.15953 0.69599998 4280821261
0.10444 -0.158379 0.69099998 4283782204
0.105843 -0.157685 0.68800002 4284308290
0.107387 -0.157221 0.68599999 4284570948
0.109079 -0.156986 0.685 4284834381
0.110765 -0.15675101 0.68400002 4284308037
0.112775 -0.156975 0.685 4284505156
0.114623 -0.156969 0.685 4284439623
0.1163 -0.156734 0.68400002 4284637256
0.118145 -0.156728 0.68400002 4284834120
0.11999 -0.15672199 0.68400002 4284636993
0.122013 -0.15694501 0.685 4285360202
0.12386 -0.156939 0.685 4285491788
0.125707 -0.15693299 0.685 4284834372
0.127553 -0.156927 0.685 4284702788
0.1294 -0.156921 0.685 4284900167
0.131247 -0.15691499 0.685 4285097546
0.133481 -0.15736701 0.68699998 4285229130
0.135333 -0.157361 0.68699998 4284834372
0.136985 -0.15712599 0.68599999 4285228615
0.138833 -0.15712 0.68599999 4285623373
0.140682 -0.157113 0.68599999 4284965949
0.142738 -0.157336 0.68699998 4285360201
0.14479899 -0.15755901 0.68800002 4285492304
0.146226 -0.157095 0.68599999 4285492051
0.148074 -0.15708899 0.68599999 4285688915
0.14970399 -0.156854 0.685 4285556813
0.15199099 -0.157307 0.68699998 4284832830
0.15361799 -0.15707199 0.68599999 4285029439
0.15546501 -0.157066 0.68599999 4285292611
0.15754201 -0.157289 0.68699998 4284766267
0.15916 -0.15705401 0.68599999 4285226818
0.16077299 -0.15682 0.685 4284897853
0.162617 -0.15681399 0.685 4285226818
0.164461 -0.156808 0.685 4285424197
0.166063 -0.156574 0.68400002 4285555783
0.167905 -0.156569 0.68400002 4284964413
0.170243 -0.157021 0.68599999 4285622345
0.17234001 -0.157244 0.68699998 4285819463
0.17444301 -0.15746801 0.68800002 4284766773
0.176296 -0.157463 0.68800002 4285490496
0.177889 -0.15722901 0.68699998 4285753668
0.179738 -0.157224 0.68699998 4284964407
0.18132301 -0.15699001 0.68599999 4285754689
0.18263599 -0.156528 0.68400002 4285753668
0.184478 -0.156523 0.68400002 4286082633
0.186591 -0.156747 0.685 4285425723
0.188435 -0.156743 0.685 4285689148
0.19000199 -0.15651 0.68400002 4285491527
0.191563 -0.156277 0.68300003 4285622606
0.193685 -0.156501 0.68400002 4285622353
0.195812 -0.156726 0.685 4285753929
0.197657 -0.15672199 0.685 4285359426
0.19921 -0.15649 0.68400002 4285162308
0.200758 -0.156258 0.68300003 4285425995
0.20259701 -0.15625399 0.68300003 4286611046
0.20473599 -0.15648 0.68400002 4286479719
0.20688 -0.15670501 0.685 4286611050
0.20842101 -0.15647399 0.68400002 4286742891
0.20995601 -0.156242 0.68300003 4286677098
0.211486 -0.156011 0.68199998 4286677098
0.21301 -0.15578 0.68099999 4286677098
0.214845 -0.15577701 0.68099999 4286677098
0.216681 -0.155775 0.68099999 4286413924
0.21883699 -0.156002 0.68199998 4286479460
0.22035199 -0.155772 0.68099999 4286874471
0.222514 -0.155999 0.68199998 4286874469
0.224024 -0.15576901 0.68099999 4286874471
0.226192 -0.15599699 0.68199998 4286808678
0.22736201 -0.15553799 0.68000001 4286216800
0.229197 -0.15553799 0.68000001 4286677351
0.230692 -0.15530901 0.67900002 4286677351
0.232866 -0.15553699 0.68000001 4285558870
0.235047 -0.155766 0.68099999 4285756247
0.237233 -0.155995 0.68199998 4286414177
0.23907401 -0.15599599 0.68199998 4286677351
0.24126901 -0.156225 0.68300003 4286545510
0.242402 -0.15576901 0.68099999 4287335028
0.244601 -0.155999 0.68199998 4287532152
0.245721 -0.155543 0.68000001 4287400568
0.24755999 -0.155545 0.68000001 4287400309
0.24939799 -0.15554699 0.68000001 4287268722
0.251607 -0.15577801 0.68099999 4287663473
0.253822 -0.156009 0.68199998 4287005541
0.255292 -0.155783 0.68099999 4287071336
0.256758 -0.155558 0.68000001 4287335022
0.25974 -0.156248 0.68300003 4286545252
0.26197401 -0.15648 0.68400002 4286479460
0.263441 -0.15625601 0.68300003 4286874475
0.26490399 -0.156032 0.68199998 4286545765
0.26714501 -0.15626501 0.68300003 4286677351
0.26899701 -0.15627 0.68300003 4287006314
0.27045399 -0.156047 0.68199998 4286611556
0.27150699 -0.155595 0.68000001 4286348125
0.274158 -0.156059 0.68199998 4286545245
0.27520099 -0.155608 0.68000001 4286873684
0.277457 -0.155844 0.68099999 4286939225
0.27889901 -0.15562201 0.68000001 4287267431
0.28116199 -0.15585899 0.68099999 4286872934
0.282184 -0.15540899 0.67900002 4286676072
0.284033 -0.155417 0.67900002 4286281566
0.286304 -0.155655 0.68000001 4286150495
0.28900501 -0.156122 0.68199998 4286347873
0.290865 -0.156132 0.68199998 4286610785
0.29229701 -0.155913 0.68099999 4286150232
0.29372501 -0.15569399 0.68000001 4286347611
0.295582 -0.155705 0.68000001 4286478683
0.297878 -0.155945 0.68099999 4286412889
0.298861 -0.155499 0.67900002 4286544476
0.30027601 -0.15528201 0.67799997 4286478683
0.301687 -0.155066 0.67699999 4286938980
0.30399001 -0.15530799 0.67799997 4286873441
0.30630001 -0.15555 0.67900002 4286938982
0.30816299 -0.155564 0.67900002 4286610783
0.31002799 -0.155579 0.67900002 4286676314
0.311434 -0.15536401 0.67799997 4287005280
0.31376001 -0.155609 0.67900002 4286741854
0.316558 -0.156083 0.68099999 4286676062
0.318901 -0.15632901 0.68199998 4286873441
0.32031 -0.15611701 0.68099999 4286610015
0.321715 -0.15590499 0.68000001 4285294671
0.32359201 -0.15592299 0.68000001 4286216027
0.32547 -0.15594099 0.68000001 4286610017
0.32734999 -0.15595999 0.68000001 4285886545
0.32874799 -0.155751 0.67900002 4286017878
0.33062801 -0.155771 0.67900002 4286413152
0.33251101 -0.155792 0.67900002 4286676324
0.33439401 -0.15581299 0.67900002 4286544992
0.33627999 -0.155835 0.67900002 4287005026
0.33717099 -0.155398 0.67699999 4286807901
0.33955601 -0.155651 0.67799997 4287004765
0.341948 -0.155904 0.67900002 4286676314
0.344854 -0.156387 0.68099999 4286873694
0.34624499 -0.156183 0.68000001 4286939487
0.347633 -0.15597799 0.67900002 4286873694
0.34953201 -0.156004 0.67900002 4286807901
0.35246801 -0.156491 0.68099999 4286675800
0.353856 -0.156289 0.68000001 4287136342
0.35628799 -0.156547 0.68099999 4287201881
0.35767499 -0.15634499 0.68000001 4287201883
0.360116 -0.15660501 0.68099999 4286609493
0.36203399 -0.156635 0.68099999 4286477391
0.363419 -0.156436 0.68000001 4286872151
0.36533901 -0.156468 0.68000001 4286280273
0.366721 -0.15627 0.67900002 4286609240
0.368642 -0.156303 0.67900002 4287070305
0.37056699 -0.15633599 0.67900002 4286741340
0.37304199 -0.156601 0.68000001 4286938205
0.37552601 -0.156867 0.68099999 4286872412
0.37801799 -0.157133 0.68199998 4286938206
0.37940401 -0.15694 0.68099999 4287201375
0.38078699 -0.156747 0.68000001 4287399523
0.38216799 -0.156555 0.67900002 4287333983
0.38411099 -0.15659399 0.67900002 4287202144
0.38719401 -0.157095 0.68099999 4287267937
0.38914901 -0.15713599 0.68099999 4287004259
0.39225599 -0.15764 0.68300003 4286610008
0.394223 -0.157682 0.68300003 4286807386
0.396193 -0.157726 0.68300003 4286873180
0.39641699 -0.157078 0.68000001 4286742593
0.39838499 -0.157123 0.68000001 4286807376
0.402123 -0.15786199 0.68300003 4286345807
0.403514 -0.15767799 0.68199998 4281215243
0.40549901 -0.157726 0.68199998 4288914060
0.40629101 -0.157313 0.68000001 4288914835
0.40887699 -0.157594 0.68099999 4288125319
0.41207501 -0.158108 0.68300003 4287730559
0.41529 -0.158623 0.685 4287993731
0.417301 -0.158676 0.685 4287599489
0.41809201 -0.15826599 0.68300003 4286217836
0.41949001 -0.15809 0.68199998 4287467903
0.42088601 -0.157914 0.68099999 4288585871
0.42290199 -0.15797 0.68099999 4287532152
0.42492101 -0.15802801 0.68099999 4287663738
0.42819899 -0.15855201 0.68300003 4288453509
0.430233 -0.158612 0.68300003 4288124289
0.43290499 -0.158906 0.68400002 4287795324
0.434315 -0.15873601 0.68300003 4287598459
0.437002 -0.159032 0.68400002 4287269749
0.43841499 -0.15886401 0.68300003 4287862137
0.44111699 -0.159163 0.68400002 4288125311
0.44383001 -0.159463 0.685 4287993209
0.445252 -0.159298 0.68400002 4288124795
0.44667301 -0.159135 0.68300003 4287927667
0.448093 -0.158972 0.68199998 4288125301
0.45017201 -0.159044 0.68199998 4288124544
0.45291901 -0.15935101 0.68300003 4288058239
0.45567799 -0.159659 0.68400002 4287268461
0.45710999 -0.159501 0.68300003 4286544476
0.45787001 -0.15911099 0.68099999 4286675801
0.460648 -0.15942299 0.68199998 4287070044
0.46276 -0.159502 0.68199998 4287333216
0.46555999 -0.159817 0.68300003 4287464812
0.467002 -0.159666 0.68199998 4287530857
0.46913201 -0.15975 0.68199998 4287202659
0.472651 -0.160303 0.68400002 4287268451
0.476188 -0.160859 0.68599999 4287466092
0.47974399 -0.16141701 0.68800002 4287860852
-0.19881099 -0.15624601 0.67500001 4289638559
-0.19670101 -0.156018 0.67400002 4290032035
-0.19459701 -0.15579 0.67299998 4290097826
-0.19278499 -0.15579399 0.67299998 4290032288
-0.191256 -0.156029 0.67400002 4290098081
-0.18916 -0.155801 0.67299998 4290097568
-0.187627 -0.156037 0.67400002 4290295460
-0.185812 -0.156041 0.67400002 4290229412
-0.184543 -0.156508 0.676 4290163619
-0.182723 -0.15651301 0.676 4289769377
-0.18036801 -0.15605401 0.67400002 4289769377
-0.178554 -0.156059 0.67400002 4289571998
-0.177001 -0.156295 0.67500001 4289966756
-0.175184 -0.15629999 0.67500001 4289768863
-0.17310999 -0.156073 0.67400002 4289637277
-0.171041 -0.155847 0.67299998 4289703323
-0.169229 -0.155852 0.67299998 4289637530
-0.167417 -0.155857 0.67299998 4289703323
-0.16560499 -0.155862 0.67299998 4289308565
-0.163307 -0.155404 0.671 4289505944
-0.161741 -0.155641 0.67199999 4289571737
-0.159931 -0.15564699 0.67199999 4289571482
-0.158592 -0.156115 0.67400002 4289505944
-0.156545 -0.155889 0.67299998 4289440151
-0.155192 -0.156358 0.67500001 4289703064
-0.15360101 -0.15659501 0.676 4289176720
-0.15222999 -0.15706401 0.67799997 4289308052
-0.150626 -0.15730201 0.67900002 4289241999
-0.14879701 -0.157308 0.67900002 4289374099
-0.14696801 -0.157313 0.67900002 4289242513
-0.144925 -0.157088 0.67799997 4289374099
-0.143309 -0.157325 0.67900002 4289440149
-0.14127199 -0.15709899 0.67799997 4289242770
-0.13965 -0.157337 0.67900002 4289440149
-0.13761801 -0.157111 0.67799997 4289374099
-0.13599101 -0.15734901 0.67900002 4289242512
-0.133964 -0.157123 0.67799997 4289571478
-0.131942 -0.15689699 0.67699999 4289374098
-0.130117 -0.156903 0.67699999 4289308559
-0.128481 -0.157141 0.67799997 4289505684
-0.127027 -0.157611 0.68000001 4289176973
-0.125194 -0.157617 0.68000001 4289111179
-0.123361 -0.15762299 0.68000001 4289702802
-0.121349 -0.157397 0.67900002 4289505423
-0.119517 -0.15740301 0.67900002 4289505424
-0.117513 -0.157177 0.67799997 4289637010
-0.115514 -0.156951 0.67699999 4290031768
-0.113688 -0.156957 0.67699999 4289702803
-0.112027 -0.157194 0.67799997 4289571216
-0.11036 -0.157432 0.67900002 4289570702
-0.108528 -0.157438 0.67900002 4289702286
-0.106539 -0.157212 0.67799997 4289504909
-0.104709 -0.157217 0.67799997 4289833619
-0.103031 -0.157455 0.67900002 4289308045
-0.101199 -0.15746 0.67900002 4289373838
-0.099366099 -0.15746599 0.67900002 4289110926
-0.097676903 -0.157703 0.68000001 4289111439
-0.0957001 -0.15747701 0.67900002 4289439891
-0.0938669 -0.157482 0.67900002 4289374099
-0.091898002 -0.15725499 0.67799997 4289768857
-0.090067104 -0.157261 0.67799997 4289834396
-0.088105999 -0.15703399 0.67699999 4290294687
-0.086150102 -0.15680701 0.676 4290097822
-0.084448896 -0.15704399 0.67699999 4289768857
-0.083108298 -0.157977 0.68099999 4289703063
-0.080552503 -0.15659 0.67500001 4289374864
-0.0766294 -0.152419 0.65700001 4286413681
-0.073828802 -0.150335 0.648 4286349693
-0.071744099 -0.149644 0.64499998 4286086521
-0.069892503 -0.149416 0.64399999 4285626224
-0.067940399 -0.148956 0.64200002 4285494638
-0.066101998 -0.148729 0.64099997 4285296745
-0.064268999 -0.14850099 0.63999999 4284375643
-0.062636599 -0.148737 0.64099997 4283782736
-0.060713701 -0.148276 0.639 4283124806
-0.058801401 -0.147816 0.63700002 4284243287
-0.057079099 -0.14782 0.63700002 4285099366
-0.055443499 -0.148055 0.63800001 4285099365
-0.053718202 -0.148059 0.63800001 4283519819
-0.051748302 -0.147366 0.63499999 4283586380
-0.050030898 -0.147369 0.63499999 4283388486
-0.048237301 -0.14714099 0.634 4283651403
-0.046448998 -0.14691199 0.63300002 4284967518
-0.044595402 -0.14645 0.63099998 4285033056
-0.042888399 -0.14645299 0.63099998 4285098337
-0.0411813 -0.146456 0.63099998 4285427047
-0.0395367 -0.14669099 0.63200003 4285164389
-0.037766799 -0.146461 0.63099998 4285229668
-0.036059499 -0.14646401 0.63099998 4285032542
-0.034243099 -0.14600199 0.62900001 4284835418
-0.0324893 -0.145772 0.62800002 4284901463
-0.0306917 -0.14531 0.62599999 4284769877
-0.0288586 -0.14461599 0.62300003 4284505937
-0.027085301 -0.144153 0.62099999 4284242249
-0.0254455 -0.14438701 0.62199998 4283979079
-0.0238002 -0.144621 0.62300003 4283715650
-0.022113901 -0.144622 0.62300003 4283057717
-0.020460401 -0.14485601 0.62400001 4282268201
-0.0187713 -0.144857 0.62400001 4280229131
-0.017164299 -0.145555 0.62699997 4280755475
-0.0155904 -0.146717 0.63200003 4280689169
-0.0140552 -0.14857499 0.63999999 4281741857
-0.0124382 -0.149969 0.64600003 4281807650
-0.0107555 -0.15089799 0.64999998 4281675550
-0.0090373801 -0.151595 0.653 4281280793
-0.0073029599 -0.152292 0.65600002 4281346586
-0.0055691302 -0.15345401 0.66100001 4281018134
-0.0038082099 -0.154615 0.66600001 4281412892
-0.00201721 -0.155544 0.67000002 4281281306
-0.000203017 -0.155312 0.66900003 4280228872
0.00161297 -0.15577599 0.671 4281017873
0.0034346699 -0.15600801 0.67199999 4281148943
0.00528523 -0.156936 0.676 4281674773
0.0071048099 -0.15670399 0.67500001 4282200858
0.0089189596 -0.156471 0.67400002 4282003479
0.0107436 -0.15647 0.67400002 4282003479
0.0126055 -0.15693399 0.676 4281937433
0.0144569 -0.15716501 0.67699999 4282069019
0.016313599 -0.157396 0.67799997 4282069533
0.0181222 -0.15716299 0.67699999 4281871899
0.019984299 -0.15739299 0.67799997 4282201119
0.021819601 -0.157392 0.67799997 4282201631
0.0236548 -0.15739 0.67799997 4282333217
0.0255275 -0.157621 0.67900002 4282135838
0.027365301 -0.157619 0.67900002 4282135324
0.029203 -0.157617 0.67900002 4282201631
0.030995 -0.15738299 0.67799997 4282003738
0.0327815 -0.157149 0.67699999 4282332958
0.034664702 -0.157379 0.67799997 4282464544
0.0364994 -0.15737601 0.67799997 4282201624
0.038390599 -0.15760601 0.67900002 4282135831
0.040227901 -0.157603 0.67900002 4282333210
0.042126998 -0.157833 0.68000001 4282201624
0.0439668 -0.15783 0.68000001 4282267931
0.046008501 -0.15852299 0.68300003 4282728998
0.0478562 -0.15852 0.68300003 4282597412
0.049776599 -0.158749 0.68400002 4282991402
0.051551301 -0.15851299 0.68300003 4283056940
0.053555001 -0.15897401 0.685 4283385646
0.055245899 -0.15850601 0.68300003 4283516977
0.057176601 -0.15873501 0.68400002 4283452468
0.058853701 -0.15826701 0.68199998 4283320882
0.0608759 -0.15872701 0.68400002 4283451953
0.062725402 -0.158723 0.68400002 4283518260
0.064574704 -0.158719 0.68400002 4283780918
0.066326797 -0.158483 0.68300003 4283715125
0.068272904 -0.158711 0.68400002 4283386675
0.070224397 -0.158939 0.685 4283518261
0.072075799 -0.158934 0.685 4283584054
0.073927201 -0.15893 0.685 4284045119
0.075667702 -0.158693 0.68400002 4283781432
0.077629402 -0.15892 0.685 4283978811
0.079480298 -0.158916 0.685 4283847225
0.081568502 -0.159375 0.68699998 4284175937
0.083181597 -0.158906 0.685 4284241730
0.085032001 -0.15890101 0.685 4284242244
0.086755402 -0.158664 0.68400002 4283913533
0.088732399 -0.15889101 0.685 4284110398
0.090582304 -0.158885 0.685 4284241983
0.092297196 -0.158648 0.68400002 4284241467
0.094144098 -0.15864301 0.68400002 4284702018
0.095990904 -0.158638 0.68400002 4284176191
0.098266602 -0.159328 0.68699998 4283847740
0.100558 -0.160018 0.69 4281808156
0.102421 -0.16001201 0.69 4280360457
0.103527 -0.158847 0.685 4283453239
0.105222 -0.15861 0.68400002 4284045631
0.106912 -0.158372 0.68300003 4284505670
0.108754 -0.15836599 0.68300003 4284308037
0.110111 -0.157665 0.68000001 4284439623
0.111946 -0.15765899 0.68000001 4284703049
0.113613 -0.15742201 0.67900002 4284768841
0.115444 -0.157416 0.67900002 4285427025
0.117276 -0.15741 0.67900002 4284571716
0.119282 -0.157636 0.68000001 4284308544
0.121472 -0.158094 0.68199998 4285163853
0.123311 -0.158088 0.68199998 4285229392
0.124967 -0.15785 0.68099999 4285558357
0.126803 -0.15784401 0.68099999 4284571462
0.12882701 -0.15807 0.68199998 4284571463
0.130666 -0.15806399 0.68199998 4285426257
0.132698 -0.158289 0.68300003 4285492304
0.13453899 -0.158283 0.68300003 4285031499
0.13618 -0.15804601 0.68199998 4285031753
0.137613 -0.15757599 0.68000001 4285228616
0.13944501 -0.15757 0.68000001 4285031237
0.141693 -0.15802801 0.68199998 4285491788
0.143741 -0.158253 0.68300003 4285623890
0.14536799 -0.158016 0.68199998 4285360464
0.147205 -0.15801001 0.68199998 4285426511
0.14882401 -0.157772 0.68099999 4285820753
0.150658 -0.157766 0.68099999 4285227848
0.152492 -0.15776099 0.68099999 4284569658
0.154553 -0.157987 0.68199998 4284898108
0.15616 -0.157749 0.68099999 4285161280
0.15776201 -0.15751199 0.68000001 4285030208
0.159124 -0.157043 0.67799997 4285029692
0.16118699 -0.157269 0.67900002 4284898620
0.16301499 -0.15726399 0.67900002 4285293380
0.165086 -0.15749 0.68000001 4285688138
0.166917 -0.15748399 0.68000001 4285293378
0.16899601 -0.157711 0.68099999 4285622345
0.171332 -0.158169 0.68300003 4285490245
0.173678 -0.158627 0.685 4285556036
0.175266 -0.15839 0.68400002 4285161280
0.17710701 -0.15838499 0.68400002 4285622343
0.178949 -0.15838 0.68400002 4285161792
0.180261 -0.157912 0.68199998 4285622345
0.18183 -0.157676 0.68099999 4285688138
0.183394 -0.15744001 0.68000001 4285950806
0.18577 -0.15789901 0.68199998 4285425481
0.18733101 -0.157663 0.68099999 4285228101
0.189164 -0.157658 0.68099999 4285492041
0.190717 -0.157423 0.68000001 4285294662
0.19254801 -0.157419 0.68000001 4285490767
0.194379 -0.157415 0.68000001 4285819725
0.19621 -0.15741099 0.68000001 4285490498
0.19775 -0.157176 0.67900002 4285293378
0.199579 -0.15717299 0.67900002 4285688913
0.20081399 -0.15670601 0.67699999 4286544738
0.203236 -0.157166 0.67900002 4286808429
0.205065 -0.15716299 0.67900002 4287071601
0.206894 -0.157161 0.67900002 4286874222
0.208416 -0.15692601 0.67799997 4286479464
0.210243 -0.15692399 0.67799997 4286479719
0.21207 -0.156922 0.67799997 4286084961
0.213581 -0.156688 0.67699999 4286677098
0.21508799 -0.156455 0.676 4286874475
0.21723101 -0.156684 0.67699999 4287006316
0.218732 -0.156452 0.676 4286940264
0.220881 -0.156682 0.67699999 4286413920
0.222378 -0.15644901 0.676 4286546263
0.22420099 -0.15644801 0.676 4287006055
0.22569001 -0.156216 0.67500001 4286808684
0.22784799 -0.15644699 0.676 4287006061
0.230012 -0.15667801 0.67699999 4286940523
0.231839 -0.15667801 0.67699999 4286874730
0.233666 -0.15667801 0.67699999 4287203695
0.235842 -0.15691 0.67799997 4287072109
0.238023 -0.157142 0.67900002 4287006061
0.239857 -0.157143 0.67900002 4286677096
0.24098 -0.156682 0.67699999 4286940015
0.242809 -0.156683 0.67699999 4286479466
0.24463899 -0.15668499 0.67699999 4286611052
0.24683399 -0.156918 0.67799997 4287268982
0.2483 -0.156689 0.67699999 4286348133
0.25050101 -0.156923 0.67799997 4286874218
0.251964 -0.15669499 0.67699999 4287466355
0.25342101 -0.15646601 0.676 4287400309
0.25487399 -0.156238 0.67500001 4287268980
0.25708199 -0.156473 0.676 4287400821
0.25929701 -0.156709 0.67699999 4287335028
0.26190299 -0.157176 0.67900002 4287663991
0.26335499 -0.15695 0.67799997 4287729784
0.265194 -0.156955 0.67799997 4287729784
0.26624599 -0.156497 0.676 4287400819
0.26847699 -0.156734 0.67699999 4287861625
0.269916 -0.156509 0.676 4287663991
0.272154 -0.156747 0.67699999 4287466092
0.27358899 -0.15652201 0.676 4287400554
0.27583501 -0.15676101 0.67699999 4287202405
0.277266 -0.156536 0.676 4287137127
0.27951801 -0.156776 0.67699999 4287136883
0.28094599 -0.156553 0.676 4287136889
0.283205 -0.156793 0.67699999 4287203189
0.28505 -0.156802 0.67699999 4287466361
0.28774399 -0.15727501 0.67900002 4287400566
0.28959599 -0.15728401 0.67900002 4287071856
0.290591 -0.156831 0.67699999 4287269486
0.292007 -0.15661 0.676 4286808933
0.29428899 -0.15685301 0.67699999 4287269227
0.29701501 -0.15732799 0.67900002 4287335020
0.29799199 -0.156877 0.67699999 4286808676
0.29896 -0.156426 0.67500001 4286479970
0.301254 -0.15667 0.676 4286677351
0.30310699 -0.156684 0.676 4286743142
0.304961 -0.15669701 0.676 4286808935
0.30590901 -0.156248 0.67400002 4286611556
0.30821601 -0.15649401 0.67500001 4286742883
0.30961201 -0.156278 0.67400002 4286742883
0.311928 -0.156525 0.67500001 4286742117
0.31378499 -0.156542 0.67500001 4286413406
0.31564501 -0.15655801 0.67500001 4286084187
0.31656501 -0.156112 0.67299998 4286610532
0.31794801 -0.15589701 0.67199999 4286478692
0.320279 -0.156148 0.67299998 4286150241
0.32261801 -0.156398 0.67400002 4285492051
0.32448101 -0.156418 0.67400002 4284899914
0.325863 -0.156205 0.67299998 4286084439
0.32772699 -0.15622599 0.67299998 4286413404
0.33008301 -0.156479 0.67400002 4286742369
0.33244601 -0.15673301 0.67500001 4286742369
0.33481699 -0.156987 0.676 4286611038
0.33570001 -0.156545 0.67400002 4286282071
0.337576 -0.156569 0.67400002 4286808415
0.339454 -0.15659299 0.67400002 4286545243
0.34234601 -0.15708201 0.676 4286018899
0.34423399 -0.157107 0.676 4286742108
0.34561101 -0.156901 0.67500001 4286874210
0.34749901 -0.156927 0.67500001 4287004765
0.34990701 -0.157187 0.676 4287267421
0.351803 -0.157215 0.676 4287005009
0.35370001 -0.157243 0.676 4286609744
0.35507399 -0.15704 0.67500001 4286675284
0.358031 -0.157535 0.67699999 4287004766
0.359938 -0.157566 0.67699999 4287135582
0.36184701 -0.15759701 0.67699999 4286544215
0.36268499 -0.15716401 0.67500001 4286478169
0.364593 -0.157196 0.67500001 4286741340
0.36650401 -0.15723 0.67500001 4286872926
0.36896399 -0.157497 0.676 4286478168
0.37088299 -0.15753201 0.676 4286478168
0.37280399 -0.15756799 0.676 4286412629
0.37472901 -0.15760399 0.676 4286281043
0.377213 -0.157875 0.67699999 4286215500
0.379145 -0.157913 0.67699999 4286675800
0.38164401 -0.15818501 0.67799997 4286610260
0.383019 -0.15799101 0.67699999 4286938972
0.38496101 -0.158032 0.67699999 4286675800
0.387476 -0.158307 0.67799997 4286938973
0.39115 -0.15905 0.68099999 4286741594
0.39253399 -0.15886 0.68000001 4286412628
0.39391699 -0.15866999 0.67900002 4286873433
0.39471301 -0.15824801 0.67699999 4286938711
0.39667299 -0.15829401 0.67699999 4286807133
0.39981401 -0.15880799 0.67900002 4285953098
0.40119499 -0.158622 0.67799997 4282991924
0.402574 -0.158436 0.67699999 4282071082
0.40454799 -0.15848599 0.67699999 4288585868
0.40712601 -0.15877099 0.67799997 4288454284
0.40911001 -0.158822 0.67799997 4287993731
0.410492 -0.15864 0.67699999 4288059524
0.413699 -0.159162 0.67900002 4287928193
0.41508499 -0.15898199 0.67799997 4288060293
0.41769999 -0.159273 0.67900002 4287927938
0.41908899 -0.15909401 0.67799997 4288256644
0.42171699 -0.15938701 0.67900002 4287926910
0.42373201 -0.159446 0.67900002 4287597947
0.42700499 -0.15997501 0.68099999 4288519049
0.42840499 -0.15980101 0.68000001 4288651410
0.429802 -0.159628 0.67900002 4288256906
0.43119901 -0.159456 0.67799997 4287138424
0.43387201 -0.159756 0.67900002 4287532666
0.436555 -0.16005699 0.68000001 4287532919
0.438604 -0.16012301 0.68000001 4287599219
0.440658 -0.160191 0.68000001 4288519553
0.44271699 -0.16026001 0.68000001 4287598451
0.44412699 -0.16009501 0.67900002 4288124289
0.44619301 -0.160166 0.67900002 4287928175
0.448264 -0.160239 0.67900002 4288059000
0.45034099 -0.160313 0.67900002 4287861625
0.45242301 -0.16038799 0.67900002 4287335020
0.45451 -0.160465 0.67900002 4287466092
0.45592999 -0.16030601 0.67799997 4287136351
0.45870101 -0.160622 0.67900002 4287004249
0.460127 -0.160466 0.67799997 4287070559
0.46155199 -0.160311 0.67699999 4286938973
0.463662 -0.160394 0.67699999 4287464802
0.46646601 -0.160716 0.67799997 4286938973
0.469973 -0.161276 0.68000001 4287267937
0.47211099 -0.161364 0.68000001 4287531370
0.47565001 -0.161928 0.68199998 4287597940
-0.199734 -0.15736 0.67199999 4289177493
-0.197629 -0.157129 0.671 4288913807
-0.196114 -0.15736599 0.67199999 4288650122
-0.194304 -0.15737 0.67199999 4288846987
-0.19220801 -0.157139 0.671 4288978573
-0.190401 -0.157143 0.671 4289110413
-0.188032 -0.15667801 0.66900003 4289241485
-0.186509 -0.15691601 0.67000002 4289110159
-0.184981 -0.15715501 0.671 4289044880
-0.183447 -0.15739299 0.67199999 4289571224
-0.18217801 -0.157866 0.67400002 4289505431
-0.180364 -0.15786999 0.67400002 4289242259
-0.178284 -0.15764 0.67299998 4289373845
-0.17647199 -0.157645 0.67299998 4289637018
-0.17466 -0.15764999 0.67299998 4289900190
-0.173105 -0.15788899 0.67400002 4289702811
-0.17103601 -0.15765999 0.67299998 4289637530
-0.16922399 -0.157665 0.67299998 4289900189
-0.167163 -0.157435 0.67199999 4289702810
-0.165354 -0.15744001 0.67199999 4289834650
-0.163058 -0.156977 0.67000002 4289834650
-0.161494 -0.157217 0.671 4289900189
-0.159688 -0.157222 0.671 4289637530
-0.158116 -0.157462 0.67199999 4289703323
-0.156306 -0.15746699 0.67199999 4289703323
-0.154956 -0.157941 0.67400002 4289373845
-0.15314101 -0.157947 0.67400002 4289637017
-0.151775 -0.15842099 0.676 4289768342
-0.150176 -0.15866099 0.67699999 4289505170
-0.148353 -0.158667 0.67699999 4289505171
-0.146529 -0.158673 0.67699999 4289308306
-0.144491 -0.158444 0.676 4289768857
-0.14288101 -0.158685 0.67699999 4289834396
-0.14084899 -0.158456 0.676 4289768603
-0.13923299 -0.158696 0.67699999 4289571478
-0.137206 -0.15846799 0.676 4289636756
-0.13538399 -0.158474 0.676 4289899412
-0.13297001 -0.157776 0.67299998 4289636240
-0.131156 -0.157782 0.67299998 4289571217
-0.12953401 -0.158023 0.67400002 4289308045
-0.127718 -0.15802801 0.67400002 4289571477
-0.126274 -0.158503 0.676 4289439891
-0.124452 -0.158509 0.676 4289110926
-0.122629 -0.15851501 0.676 4289439891
-0.120628 -0.15828601 0.67500001 4289176720
-0.118808 -0.158292 0.67500001 4289242513
-0.116987 -0.158298 0.67500001 4289110673
-0.115167 -0.15830401 0.67500001 4289439638
-0.113346 -0.15831 0.67500001 4289439892
-0.111525 -0.158316 0.67500001 4289439892
-0.110029 -0.15879001 0.67699999 4289308306
-0.108203 -0.158796 0.67699999 4289045133
-0.106376 -0.158802 0.67699999 4289308305
-0.104704 -0.159042 0.67799997 4289505170
-0.102874 -0.15904801 0.67799997 4289834135
-0.100895 -0.158819 0.67699999 4289834135
-0.099068001 -0.158824 0.67699999 4290031000
-0.0972405 -0.15883 0.67699999 4289636240
-0.095412903 -0.15883499 0.67699999 4289439116
-0.093585096 -0.15884 0.67699999 4289702288
-0.091757201 -0.15884601 0.67699999 4289570702
-0.089929096 -0.158851 0.67699999 4289439116
-0.088100903 -0.158856 0.67699999 4289504654
-0.0862725 -0.158861 0.67699999 4289373584
-0.084443897 -0.158866 0.67699999 4289373585
-0.0828593 -0.15933999 0.67900002 4289439892
-0.080547698 -0.158406 0.67500001 4289505944
-0.076974697 -0.154891 0.66000003 4287796103
-0.074280001 -0.153018 0.65200001 4287204742
-0.0719622 -0.151849 0.64700001 4286086521
-0.070105299 -0.151619 0.64600003 4285954421
-0.068042003 -0.15091901 0.64300001 4285625710
-0.0660979 -0.150454 0.64099997 4285494124
-0.064365298 -0.15045799 0.64099997 4283125576
-0.062730402 -0.15069599 0.64200002 4284309080
-0.060899802 -0.150466 0.64099997 4285098596
-0.05889 -0.149765 0.63800001 4283716945
-0.057165001 -0.14976899 0.63800001 4285098598
-0.0555268 -0.15000699 0.639 4285164389
-0.053883102 -0.150245 0.63999999 4283585612
-0.051989399 -0.14977901 0.63800001 4283783759
-0.050264001 -0.149783 0.63800001 4283125829
-0.048310298 -0.14908101 0.63499999 4284310102
-0.046519399 -0.14884999 0.634 4284704860
-0.044592399 -0.148148 0.63099998 4285164897
-0.042885602 -0.148151 0.63099998 4285164642
-0.041178599 -0.14815401 0.63099998 4285558886
-0.039596599 -0.148626 0.63300002 4285164130
-0.037824199 -0.148394 0.63200003 4285229923
-0.036114201 -0.148397 0.63200003 4284835418
-0.034295298 -0.147929 0.63 4284901209
-0.032538801 -0.147697 0.62900001 4284836183
-0.0307387 -0.147229 0.62699997 4284572497
-0.028903 -0.14652701 0.62400001 4284637776
-0.027170699 -0.146294 0.62300003 4284439883
-0.0254847 -0.14629599 0.62300003 4283781698
-0.023836801 -0.146532 0.62400001 4283781441
-0.022147899 -0.146534 0.62400001 4282926131
-0.0205245 -0.14700501 0.62599999 4282531631
-0.0188602 -0.147241 0.62699997 4280228876
-0.0172452 -0.147947 0.63 4280689427
-0.0156139 -0.148652 0.63300002 4281018392
-0.0140542 -0.150297 0.63999999 4281413150
-0.0124373 -0.15170699 0.64600003 4281478943
-0.0107713 -0.15288199 0.65100002 4281412893
-0.0090644304 -0.153822 0.65499997 4281412893
-0.0073247198 -0.15452801 0.65799999 4281215514
-0.0055771698 -0.155467 0.662 4281018134
-0.0038079501 -0.156407 0.66600001 4281149206
-0.00201105 -0.156877 0.66799998 4280688395
-0.0002027 -0.156877 0.66799998 4280754187
0.00161045 -0.15734699 0.67000002 4281346324
0.00342421 -0.157346 0.67000002 4281346322
0.00526141 -0.158051 0.67299998 4281543442
0.0070832698 -0.15805 0.67299998 4281872407
0.0088918796 -0.15781499 0.67199999 4281938200
0.010711 -0.157814 0.67199999 4281937684
0.0125487 -0.158048 0.67299998 4282200858
0.0144132 -0.158517 0.67500001 4282135065
0.016240301 -0.158516 0.67500001 4281937686
0.018067401 -0.15851501 0.67500001 4282003738
0.019924 -0.158748 0.676 4282201117
0.0217537 -0.158747 0.676 4282267165
0.023583399 -0.15874501 0.676 4282333472
0.025412999 -0.15874401 0.676 4282201886
0.0272425 -0.158742 0.676 4282070300
0.029115001 -0.15897501 0.67699999 4282267679
0.030947199 -0.15897299 0.67699999 4282201886
0.032730799 -0.15873601 0.676 4282465058
0.034508999 -0.158499 0.67500001 4282596642
0.036389299 -0.158731 0.676 4282332956
0.038218401 -0.158729 0.676 4282530589
0.040165901 -0.159196 0.67799997 4282925093
0.042000301 -0.15919299 0.67799997 4282465056
0.043899201 -0.15942501 0.67900002 4282794021
0.045803402 -0.159657 0.68000001 4282662951
0.047642902 -0.15965401 0.68000001 4282005021
0.049555 -0.159885 0.68099999 4282464803
0.051321499 -0.159647 0.68000001 4282661668
0.053238802 -0.159878 0.68099999 4282990635
0.054999702 -0.15964 0.68000001 4282201634
0.056838602 -0.159637 0.68000001 4282135841
0.058677401 -0.159633 0.68000001 4282531112
0.060694002 -0.160099 0.68199998 4282859816
0.062537998 -0.16009501 0.68199998 4282859561
0.064381801 -0.160091 0.68199998 4282793509
0.066128403 -0.159852 0.68099999 4283451439
0.067969203 -0.159848 0.68099999 4283451698
0.069912501 -0.160078 0.68199998 4283123249
0.0717557 -0.160074 0.68199998 4283583800
0.073598899 -0.160069 0.68199998 4283584314
0.0753313 -0.15983 0.68099999 4284307007
0.077284701 -0.16006 0.68199998 4284373055
0.079127401 -0.160055 0.68199998 4283913019
0.080969997 -0.16005 0.68199998 4283978812
0.082690902 -0.159811 0.68099999 4284308037
0.084530503 -0.159806 0.68099999 4284242244
0.086369902 -0.15980101 0.68099999 4284308037
0.0882091 -0.159796 0.68099999 4284439363
0.090180397 -0.160025 0.68199998 4284175676
0.092022002 -0.16001999 0.68199998 4284373053
0.093725897 -0.15978 0.68099999 4284504639
0.095564499 -0.159775 0.68099999 4284110398
0.097832002 -0.160473 0.68400002 4283716154
0.100553 -0.16187499 0.69 4282860844
0.101821 -0.16093101 0.68599999 4280427016
0.103068 -0.159987 0.68199998 4283387446
0.104755 -0.159747 0.68099999 4284440389
0.106749 -0.15997601 0.68199998 4284242498
0.10843 -0.15973599 0.68099999 4284439877
0.110106 -0.159495 0.68000001 4284505156
0.111776 -0.159255 0.67900002 4284439362
0.113607 -0.15924899 0.67900002 4284637509
0.115269 -0.15900899 0.67799997 4284900681
0.117097 -0.159003 0.67799997 4284243010
0.119101 -0.15923201 0.67900002 4284243010
0.121288 -0.159695 0.68099999 4285163599
0.123125 -0.15968899 0.68099999 4284900174
0.124777 -0.159448 0.68000001 4285492824
0.126424 -0.159208 0.67900002 4285426772
0.12825499 -0.15920199 0.67900002 4284637002
0.13027699 -0.159431 0.68000001 4284768842
0.132109 -0.15942501 0.68000001 4285623636
0.13394199 -0.159419 0.68000001 4284965706
0.135775 -0.15941299 0.68000001 4284768327
0.13740499 -0.159172 0.67900002 4285359948
0.13923401 -0.15916599 0.67900002 4285425741
0.141064 -0.159161 0.67900002 4285492304
0.143104 -0.159389 0.68000001 4285558097
0.144936 -0.159383 0.68000001 4285426771
0.146983 -0.159612 0.68099999 4285821269
0.148599 -0.159372 0.68000001 4285886546
0.15065201 -0.1596 0.68099999 4285425741
0.152486 -0.159594 0.68099999 4284569918
0.15454701 -0.159823 0.68199998 4285227587
0.15592501 -0.15934899 0.68000001 4284438071
0.157525 -0.159109 0.67900002 4284964668
0.158884 -0.15863501 0.67699999 4285162047
0.160707 -0.158629 0.67699999 4284964668
0.16253 -0.15862399 0.67699999 4285688136
0.16459601 -0.15885299 0.67799997 4285424964
0.166667 -0.159082 0.67900002 4285622343
0.168743 -0.159311 0.68000001 4285424964
0.170825 -0.15954 0.68099999 4286082380
0.172912 -0.159769 0.68199998 4285753415
0.174492 -0.15953 0.68099999 4285227073
0.17632499 -0.15952501 0.68099999 4285556036
0.17842001 -0.15975399 0.68199998 4285556038
0.17999201 -0.15951499 0.68099999 4285293381
0.181025 -0.15880799 0.67799997 4285687632
0.18258099 -0.15856899 0.67699999 4285622102
0.184948 -0.159033 0.67900002 4285754446
0.187051 -0.159263 0.68000001 4285360455
0.18888199 -0.15925901 0.68000001 4285426248
0.190713 -0.159255 0.68000001 4285360455
0.192261 -0.159017 0.67900002 4285754194
0.19408999 -0.159013 0.67900002 4285885517
0.19591799 -0.15900999 0.67900002 4285687877
0.19774701 -0.159006 0.67900002 4286016842
0.19928201 -0.158769 0.67799997 4285293894
0.200811 -0.158531 0.67699999 4286083925
0.20263501 -0.158528 0.67699999 4286084701
0.204458 -0.158526 0.67699999 4286348131
0.206282 -0.15852299 0.67699999 4286479464
0.208106 -0.15852 0.67699999 4286479464
0.209931 -0.158518 0.67699999 4286808172
0.21144199 -0.158282 0.676 4286479207
0.213579 -0.15851399 0.67699999 4286413926
0.215404 -0.158512 0.67699999 4286348131
0.21690799 -0.15827601 0.676 4286347873
0.21840701 -0.158041 0.67500001 4286611556
0.220227 -0.15804 0.67500001 4286742883
0.221719 -0.157805 0.67400002 4287006055
0.223205 -0.15757 0.67299998 4286808424
0.224686 -0.157335 0.67199999 4287072109
0.2265 -0.157335 0.67199999 4286413924
0.228653 -0.15756901 0.67299998 4287006061
0.230812 -0.157803 0.67400002 4286742889
0.23228601 -0.15756901 0.67299998 4287071856
0.234451 -0.157804 0.67400002 4287335026
0.23662201 -0.158039 0.67500001 4287400819
0.23879901 -0.15827399 0.676 4287203440
0.239913 -0.15780701 0.67400002 4287137649
0.241735 -0.157809 0.67400002 4287335028
0.24355701 -0.157811 0.67400002 4287268980
0.245744 -0.15804701 0.67500001 4287203187
0.24720301 -0.15781599 0.67400002 4287268980
0.249396 -0.158052 0.67500001 4286874222
0.25122201 -0.15805499 0.67500001 4287137394
0.252675 -0.15782499 0.67400002 4287203187
0.25412199 -0.157594 0.67299998 4287137396
0.255945 -0.157598 0.67299998 4286940017
0.25815201 -0.157837 0.67400002 4286743152
0.26075 -0.15831 0.676 4286941045
0.262972 -0.158549 0.67699999 4286941045
0.26402599 -0.158086 0.67500001 4286941045
0.26546401 -0.157857 0.67400002 4287072117
0.26729399 -0.15786301 0.67400002 4287006324
0.26952299 -0.158103 0.67500001 4287005808
0.270955 -0.157876 0.67400002 4287071856
0.272787 -0.157883 0.67400002 4287203440
0.27502701 -0.158124 0.67500001 4287400568
0.27686399 -0.158132 0.67500001 4287400819
0.27911401 -0.15837499 0.676 4287466614
0.280954 -0.158383 0.676 4287466614
0.28237799 -0.158158 0.67500001 4287531647
0.28379601 -0.157933 0.67400002 4288123531
0.28563401 -0.157942 0.67400002 4287730045
0.28747299 -0.157952 0.67400002 4287335542
0.28931299 -0.15796299 0.67400002 4287203695
0.29029101 -0.15750501 0.67199999 4286808935
0.29343101 -0.15821999 0.67500001 4286612062
0.295715 -0.158466 0.676 4287203691
0.297124 -0.158244 0.67500001 4287401074
0.29764399 -0.157553 0.67199999 4287401074
0.299485 -0.157566 0.67199999 4287598198
0.30177501 -0.157814 0.67299998 4287730039
0.30362201 -0.157829 0.67299998 4287795832
0.30546901 -0.15784299 0.67299998 4287664242
0.30686101 -0.15762401 0.67199999 4287466867
0.30916801 -0.157874 0.67299998 4287203440
0.31101999 -0.15789001 0.67299998 4287400821
0.313337 -0.158141 0.67400002 4286873964
0.31519401 -0.158158 0.67400002 4287137137
0.31564099 -0.157472 0.671 4287531641
0.31749299 -0.15749 0.671 4287334262
0.31934601 -0.157508 0.671 4287597688
0.321679 -0.15776201 0.67199999 4287531895
0.323057 -0.157547 0.671 4287006316
0.32491499 -0.15756699 0.671 4285032265
0.326774 -0.15758801 0.671 4286677090
0.32912499 -0.15784401 0.67199999 4286479711
0.330991 -0.157866 0.67199999 4286348125
0.332858 -0.15788899 0.67199999 4287006055
0.33472699 -0.157912 0.67199999 4286282587
0.33659801 -0.15793601 0.67199999 4286084953
0.338471 -0.15796 0.67199999 4286347611
0.34085199 -0.15821999 0.67299998 4286742369
0.34324101 -0.158481 0.67400002 4286413659
0.34461299 -0.158272 0.67299998 4286544990
0.34598199 -0.15806399 0.67199999 4287004006
0.347864 -0.15809201 0.67199999 4286741594
0.349749 -0.15812001 0.67199999 4286084421
0.35216001 -0.158384 0.67299998 4286018638
0.35405201 -0.15841401 0.67299998 4286479189
0.356475 -0.15868001 0.67400002 4286479449
0.358906 -0.15894599 0.67500001 4286347864
0.36081001 -0.158978 0.67500001 4286413659
0.36217999 -0.158775 0.67400002 4286150232
0.36354601 -0.158573 0.67299998 4286873955
0.36490899 -0.158371 0.67199999 4286281818
0.36736101 -0.158641 0.67299998 4286347866
0.36927199 -0.158677 0.67299998 4286544475
0.372289 -0.15918501 0.67500001 4286544729
0.37421101 -0.15922201 0.67500001 4286544728
0.37669399 -0.15949599 0.676 4286675801
0.37806401 -0.159299 0.67500001 4287004522
0.37999499 -0.159338 0.67500001 4286741341
0.38079599 -0.158906 0.67299998 4286807134
0.38329601 -0.15918399 0.67400002 4287004513
0.38637501 -0.15969799 0.676 4286741340
0.38947001 -0.16021401 0.67799997 4286675547
0.390847 -0.16002101 0.67699999 4286807387
0.39164099 -0.159593 0.67500001 4286346836
0.39300999 -0.159402 0.67400002 4286478169
0.39437601 -0.15921199 0.67299998 4286741087
0.396918 -0.15949599 0.67400002 4286478682
0.398285 -0.159307 0.67299998 4285558611
0.40024501 -0.159357 0.67299998 4280886806
0.40280601 -0.15964399 0.67400002 4286414185
0.40477499 -0.159695 0.67400002 4288980628
0.407352 -0.15998399 0.67500001 4288125317
0.40872601 -0.15979999 0.67400002 4287993217
0.411926 -0.160328 0.676 4287993986
0.41391599 -0.160383 0.676 4287862145
0.41591099 -0.16044 0.676 4287927424
0.416673 -0.16002201 0.67400002 4288190082
0.41867 -0.16008 0.67400002 4288650633
0.42129499 -0.160377 0.67500001 4287663740
0.423931 -0.160675 0.676 4288256136
0.425946 -0.16073699 0.676 4288520338
0.427333 -0.16056199 0.67500001 4288191887
0.429355 -0.16062599 0.67500001 4288323727
0.43138099 -0.16069099 0.67500001 4287270778
0.434053 -0.16099501 0.676 4287664507
0.43544701 -0.160824 0.67500001 4287664760
0.438135 -0.16113099 0.676 4288190588
0.43953201 -0.160963 0.67500001 4287926657
0.44158199 -0.161034 0.67500001 4288058243
0.44363701 -0.16110601 0.67500001 4287663991
0.44569701 -0.16117901 0.67500001 4288255875
0.447763 -0.161254 0.67500001 4288321670
0.44983301 -0.16133 0.67500001 4288124793
0.45257899 -0.16164701 0.676 4287861364
0.45399201 -0.161486 0.67500001 4286479197
0.45675501 -0.161805 0.676 4286939993
0.45817199 -0.16164801 0.67500001 4286675800
0.460953 -0.16197 0.676 4286741593
0.46169099 -0.161575 0.67400002 4287399007
0.463799 -0.16166 0.67400002 4287202134
0.467296 -0.162227 0.676 4287267937
0.470117 -0.16255599 0.67699999 4287399784
0.47295001 -0.16288701 0.67799997 4287400813
-0.198245 -0.157987 0.667 4289045391
-0.196448 -0.15798999 0.667 4289176720
-0.194943 -0.15823001 0.66799998 4288978826
-0.19314399 -0.158233 0.66799998 4289175692
-0.19134501 -0.158237 0.66799998 4289307278
-0.18983001 -0.15847699 0.66900003 4289109899
-0.187466 -0.158007 0.667 4289504657
-0.18567 -0.158011 0.667 4289372817
-0.18415 -0.158252 0.66799998 4289307538
-0.182897 -0.15873 0.67000002 4289307024
-0.181363 -0.158971 0.671 4289241745
-0.179556 -0.15897501 0.671 4288978573
-0.177485 -0.15874299 0.67000002 4288912266
-0.17568099 -0.158747 0.67000002 4289043852
-0.173877 -0.15875199 0.67000002 4288583816
-0.17233001 -0.158994 0.671 4288452229
-0.170269 -0.15876099 0.67000002 4288386950
-0.16821299 -0.158529 0.66900003 4288650122
-0.166163 -0.158297 0.66799998 4288386690
-0.16436499 -0.15830199 0.66799998 4288452482
-0.162323 -0.158071 0.667 4288584068
-0.16052701 -0.158076 0.667 4288781447
-0.158492 -0.15784401 0.66600001 4288715915
-0.157169 -0.158323 0.66799998 4288781708
-0.15560301 -0.158566 0.66900003 4289110673
-0.15403099 -0.15880799 0.67000002 4289505431
-0.152 -0.158577 0.66900003 4289834136
-0.15042201 -0.158819 0.67000002 4289899928
-0.14884 -0.159062 0.671 4289702803
-0.14703199 -0.159068 0.671 4289768343
-0.145225 -0.159073 0.671 4289768343
-0.143417 -0.159079 0.671 4289833882
-0.142031 -0.159559 0.67299998 4289702296
-0.14001 -0.159328 0.67199999 4289636757
-0.138199 -0.15933301 0.67199999 4289702550
-0.136388 -0.159339 0.67199999 4289833619
-0.134377 -0.159108 0.671 4289636240
-0.13237099 -0.158877 0.67000002 4289833619
-0.130566 -0.15888201 0.67000002 4289505424
-0.129144 -0.159363 0.67199999 4289702803
-0.12752201 -0.15960599 0.67299998 4289571477
-0.125708 -0.159611 0.67299998 4289571477
-0.12371 -0.15938 0.67199999 4289637270
-0.122261 -0.15986 0.67400002 4289439892
-0.120265 -0.159629 0.67299998 4289637271
-0.118626 -0.159872 0.67400002 4289505685
-0.116635 -0.159641 0.67299998 4289637017
-0.11482 -0.159646 0.67299998 4289308306
-0.112837 -0.15941501 0.67199999 4289505685
-0.111024 -0.159421 0.67199999 4289373845
-0.109374 -0.15966401 0.67299998 4289242513
-0.107718 -0.159906 0.67400002 4289439891
-0.105742 -0.159675 0.67299998 4289308305
-0.104081 -0.159918 0.67400002 4289637270
-0.10211 -0.159686 0.67299998 4289373584
-0.100294 -0.15969101 0.67299998 4289570964
-0.098184504 -0.15922201 0.671 4289767829
-0.096373297 -0.159228 0.671 4289767826
-0.094562002 -0.159233 0.671 4289701774
-0.092888698 -0.159476 0.67199999 4289635979
-0.091074303 -0.159481 0.67199999 4290030991
-0.089126997 -0.15924899 0.671 4289767565
-0.087315001 -0.159254 0.671 4289964944
-0.085630298 -0.15949599 0.67199999 4289833621
-0.083690599 -0.159264 0.671 4289834136
-0.082000203 -0.15950599 0.67199999 4289505431
-0.079946302 -0.159036 0.67000002 4289110931
-0.0767368 -0.156192 0.65799999 4288190606
-0.073933803 -0.15406001 0.64899999 4287467914
-0.0717353 -0.153115 0.64499998 4286152315
-0.069883898 -0.15288199 0.64399999 4285757043
-0.067932002 -0.152412 0.64200002 4285559663
-0.065990701 -0.151941 0.63999999 4285296745
-0.0642609 -0.15194499 0.63999999 4284244057
-0.062433299 -0.151712 0.639 4283651150
-0.060800999 -0.151953 0.63999999 4283322185
-0.058793899 -0.151244 0.63700002 4284243289
-0.056982201 -0.15101101 0.63599998 4285295975
-0.055175699 -0.150777 0.63499999 4285032803
-0.053542901 -0.15101799 0.63599998 4284440921
-0.0517416 -0.150784 0.63499999 4284309335
-0.050024401 -0.150787 0.63499999 4284441435
-0.048154999 -0.150315 0.63300002 4282599485
-0.046443 -0.150318 0.63300002 4284902240
-0.044589501 -0.149846 0.63099998 4285296228
-0.0428827 -0.149849 0.63099998 4285033058
-0.041110601 -0.149615 0.63 4285295714
-0.0394063 -0.149617 0.63 4284703579
-0.037642099 -0.149382 0.62900001 4284637786
-0.035940301 -0.14938501 0.62900001 4284769623
-0.034129702 -0.148912 0.62699997 4285098588
-0.032433201 -0.14891399 0.62699997 4284704597
-0.0306386 -0.148441 0.625 4284375632
-0.028901 -0.148206 0.62400001 4284506704
-0.027212501 -0.14820801 0.62400001 4283979846
-0.0254829 -0.147972 0.62300003 4283847491
-0.0237587 -0.147736 0.62199998 4283781698
-0.0220754 -0.14773799 0.62199998 4282860339
-0.0204904 -0.148452 0.625 4282334254
-0.018859001 -0.148928 0.62699997 4280228878
-0.017216699 -0.149404 0.62900001 4280360464
-0.0155882 -0.15011799 0.63200003 4281149980
-0.0140313 -0.15178201 0.639 4281478945
-0.0124365 -0.153446 0.64600003 4281347359
-0.0107541 -0.154396 0.64999998 4281215771
-0.0090361303 -0.15511 0.653 4281281564
-0.0073019499 -0.15582301 0.65600002 4281215514
-0.0055767898 -0.157249 0.662 4280952341
-0.00380769 -0.158199 0.66600001 4280754448
-0.0020079 -0.158437 0.667 4280688395
-0.000202079 -0.158199 0.66600001 4281017359
0.00160313 -0.158437 0.667 4281543187
0.0034086399 -0.158437 0.667 4281675287
0.0052375998 -0.15914901 0.67000002 4281872921
0.0070406902 -0.158911 0.66900003 4281741335
0.0088515701 -0.15891001 0.66900003 4282003993
0.0106465 -0.158672 0.66799998 4282069784
0.0124733 -0.15890899 0.66900003 4282398235
0.0143054 -0.159146 0.67000002 4282200858
0.016143 -0.159382 0.671 4282135065
0.017959099 -0.159381 0.671 4282267165
0.019804699 -0.15961701 0.67199999 4282398751
0.021655699 -0.159853 0.67299998 4282135579
0.0234771 -0.159852 0.67299998 4282136093
0.0252985 -0.15985 0.67299998 4282267679
0.0270795 -0.159611 0.67199999 4282201884
0.0288551 -0.159371 0.671 4282201884
0.030716499 -0.15960699 0.67199999 4282465056
0.032583401 -0.159842 0.67299998 4282465056
0.034404401 -0.15984 0.67299998 4282728228
0.036279202 -0.16007499 0.67400002 4283056679
0.038102798 -0.160073 0.67400002 4282859814
0.040044799 -0.16054501 0.676 4283122988
0.041811701 -0.16030499 0.67500001 4282926123
0.043702301 -0.160539 0.676 4283189296
0.045531001 -0.16053601 0.676 4282991917
0.0473595 -0.160533 0.676 4282202400
0.049260698 -0.160768 0.67699999 4282596644
0.051016301 -0.16052701 0.676 4283188012
0.052844498 -0.160524 0.676 4282858535
0.0545917 -0.160283 0.67500001 4282727208
0.056500599 -0.16051701 0.676 4282727463
