# .PCD v0.7 - Point Cloud Data file format
VERSION 0.7
FIELDS x y z rgb
SIZE 4 4 4 4
TYPE F F F U
COUNT 1 1 1 1
WIDTH 1166
HEIGHT 1
VIEWPOINT 0 0 0 1 0 0 0
POINTS 1166
DATA ascii
0.097769 0.424822 1.069 4286215787
0.100372 0.42363 1.066 4286215787
0.103152 0.42323199 1.0650001 4286018155
0.105926 0.42283401 1.064 4285754983
0.108798 0.42283401 1.064 4285886569
0.111564 0.422436 1.063 4285821030
0.114541 0.42283401 1.064 4285821026
0.117302 0.422436 1.063 4285821026
0.119945 0.42164201 1.061 4286215787
0.122808 0.42164201 1.061 4286215787
0.125553 0.421244 1.0599999 4286215534
0.128535 0.42164201 1.061 4286083949
0.131275 0.42124501 1.0599999 4286215535
0.13413601 0.42124501 1.0599999 4286083949
0.136739 0.42045099 1.058 4286412914
0.13946199 0.42005399 1.057 4286478707
0.142315 0.420055 1.057 4286676086
0.14489301 0.41926101 1.0549999 4286676085
0.14760099 0.418865 1.054 4286479474
0.150161 0.418071 1.052 4286545267
0.15270901 0.41727701 1.05 4286874232
0.155544 0.41727901 1.05 4287005564
0.15837801 0.41727999 1.05 4287137150
0.161213 0.41728199 1.05 4287202943
0.163735 0.41648901 1.048 4287070843
0.16640501 0.41609299 1.0470001 4287070844
0.16907001 0.41569799 1.046 4287334016
0.171894 0.41569999 1.046 4287005565
0.17471801 0.415703 1.046 4287137151
0.177203 0.414911 1.044 4287137404
0.17950501 0.413721 1.041 4287005818
0.18214101 0.41332701 1.04 4287137403
0.184771 0.41293299 1.039 4287400062
0.18757699 0.412936 1.039 4286939771
0.1902 0.41254199 1.038 4287202429
0.193189 0.41294399 1.039 4287268222
0.195619 0.41215301 1.0369999 4287399808
0.198037 0.41136301 1.035 4287334015
0.200251 0.410175 1.0319999 4287399808
0.20244899 0.40898699 1.029 4287202429
0.204032 0.40660799 1.023 4287202430
0.20477501 0.40263799 1.013 4287070843
0.20546301 0.398669 1.003 4286676085
0.20423 0.391123 0.98400003 4286807925
0.25530401 0.32439199 0.815 4285164652
0.25783899 0.32481 0.81599998 4285362031
0.259424 0.32403499 0.81400001 4285493619
0.26099899 0.32326001 0.81199998 4285756791
0.26223999 0.322088 0.80900002 4285493619
0.26379201 0.32131401 0.80699998 4285624689
0.26500401 0.320142 0.80400002 4285164906
0.26620099 0.31897101 0.801 4285164906
0.26771799 0.31819901 0.79900002 4285362284
0.26854801 0.31663001 0.79500002 4285296491
0.26935801 0.31506199 0.79100001 4285164905
0.270147 0.31349501 0.787 4285493871
0.27160701 0.31272399 0.78500003 4285559410
0.273056 0.31195399 0.78299999 4285362031
0.27449599 0.311185 0.78100002 4285362033
0.27627999 0.31081399 0.77999997 4285559671
0.27805999 0.310444 0.77899998 4285493878
0.27911499 0.30927801 0.77600002 4285757566
0.27979299 0.30771399 0.77200001 4286218117
0.28118101 0.30694699 0.76999998 4285823359
0.28329399 0.30697799 0.76999998 4286349957
0.285779 0.30740899 0.77100003 4286152578
0.28827101 0.30783999 0.77200001 4286415750
0.29039299 0.30787301 0.77200001 4286218371
0.29175901 0.30711001 0.76999998 4286415496
0.29311401 0.30634701 0.76800001 4286020738
0.29484501 0.30598399 0.76700002 4286350475
0.296958 0.30601999 0.76700002 4286745233
0.29868299 0.305659 0.76599997 4286482063
0.30001101 0.30489799 0.764 4286481289
0.300933 0.30373999 0.76099998 4285692027
0.30144301 0.302183 0.75700003 4285362799
0.30233201 0.301025 0.75400001 4285494124
0.304014 0.300666 0.75300002 4285559917
0.30691099 0.301507 0.755 4285296745
0.309412 0.30194899 0.75599998 4285494124
0.310684 0.301193 0.75400001 4285757295
0.31153101 0.30003899 0.75099999 4285888882
0.31277999 0.29928499 0.74900001 4285626224
0.314441 0.29893199 0.74800003 4285822835
0.31609699 0.29857901 0.74699998 4285493870
0.31732401 0.29782701 0.745 4285757296
0.31896999 0.29747599 0.74400002 4285691503
0.32018101 0.29672599 0.74199998 4285559917
0.321816 0.29637599 0.741 4285494124
0.32257399 0.29522699 0.73799998 4285823089
0.32419601 0.29487899 0.73699999 4285823089
0.32537201 0.29413199 0.73500001 4285297259
0.32832101 0.29498601 0.73699999 4285428845
0.33038601 0.29504201 0.73699999 4285428845
0.33245301 0.29509801 0.73699999 4285494638
0.33361399 0.29435399 0.73500001 4285494124
0.33522299 0.29401201 0.73400003 4285230951
0.33682799 0.29367101 0.73299998 4284440919
0.33935499 0.29413199 0.73400003 4284177747
0.346075 0.29820201 0.74400002 4284178002
0.36315 0.31109399 0.77600002 4284178002
0.43259701 0.35808599 0.89200002 4283979593
0.441964 0.36379501 0.90600002 4284176970
0.44601601 0.365089 0.90899998 4284505937
0.44811499 0.364779 0.90799999 4284375119
0.45120299 0.36527401 0.90899998 4284440660
0.452804 0.36456501 0.90700001 4284243281
0.45539999 0.36466199 0.90700001 4284505683
0.458 0.36476001 0.90700001 4284308304
0.46161899 0.36566401 0.90899998 4284176970
0.46320999 0.36496201 0.90700001 4284439883
0.465307 0.364663 0.90600002 4284176456
0.46740201 0.36436501 0.90499997 4284176972
0.47053301 0.36487499 0.90600002 4284439890
0.47210801 0.364178 0.90399998 4284439891
0.47315001 0.36307901 0.90100002 4284505945
0.475234 0.36278799 0.89999998 4284308819
0.47891 0.36370799 0.90200001 4284177740
0.48206699 0.36422801 0.903 4284637776
0.48362401 0.36353901 0.90100002 4284506190
0.48409399 0.36204401 0.89700001 4283980360
0.48617399 0.36176199 0.89600003 4284111946
0.48879701 0.36188501 0.89600003 4284506451
0.49142501 0.36201 0.89600003 4284375381
0.49295399 0.36132899 0.89399999 4284309588
0.493922 0.360246 0.89099997 4284374867
0.49543399 0.359568 0.889 4284177494
0.49805999 0.35969999 0.889 4284703324
-0.19898599 0.46853 1.187 4289375667
-0.19594599 0.46892199 1.188 4289836218
-0.192577 0.46852499 1.187 4289836218
-0.18921299 0.468128 1.186 4289770425
-0.185697 0.46733701 1.184 4289967804
-0.182347 0.466941 1.183 4290033597
-0.17885099 0.46614999 1.181 4290230976
-0.175217 0.464964 1.178 4290099390
-0.171891 0.46456799 1.177 4290230974
-0.16814101 0.462989 1.173 4290296767
-0.164974 0.46298799 1.173 4290296767
-0.161395 0.46180299 1.17 4290230974
-0.15864199 0.46298599 1.173 4290296767
-0.15534399 0.46259099 1.1720001 4290493634
-0.15179101 0.46140599 1.169 4290164667
-0.14838199 0.46061701 1.1670001 4289901495
-0.144859 0.45943201 1.164 4289638323
-0.141596 0.45903799 1.163 4289704116
-0.137743 0.456669 1.1569999 4289243820
-0.134271 0.45548499 1.154 4289111979
-0.130816 0.454301 1.151 4288782755
-0.127598 0.45390701 1.15 4288585376
-0.124062 0.452328 1.146 4288453788
-0.120652 0.45114499 1.143 4288387479
-0.117259 0.44996101 1.14 4287796111
-0.113882 0.44877699 1.137 4287796111
-0.110326 0.44680399 1.132 4287730318
-0.106892 0.44522601 1.128 4287597963
-0.103664 0.444437 1.126 4287597963
-0.100625 0.44443801 1.126 4287729549
-0.097413003 0.44364899 1.124 4287466377
-0.094211601 0.44286001 1.122 4287334277
-0.090939797 0.44167599 1.119 4287334532
-0.087919898 0.441677 1.119 4287202944
-0.084899999 0.44167799 1.119 4287136637
-0.0818801 0.441679 1.119 4286741879
-0.078719199 0.44089001 1.117 4286544499
-0.0755013 0.439706 1.114 4286610292
-0.072364703 0.43891799 1.112 4286281327
-0.069363602 0.43891799 1.112 4285754983
-0.066243201 0.43812999 1.11 4285952362
-0.063133501 0.437341 1.108 4286084202
-0.060089 0.43694699 1.107 4285886823
-0.0570498 0.436553 1.1059999 4285360478
-0.054064799 0.436553 1.1059999 4285557857
-0.050987501 0.43576401 1.104 4285623393
-0.047920998 0.43497601 1.102 4285425245
-0.044946801 0.43497601 1.102 4285491038
-0.0419726 0.43497699 1.102 4285228121
-0.038998399 0.43497699 1.102 4285359191
-0.035991602 0.43458301 1.101 4285425498
-0.032990102 0.43418899 1.1 4285097303
-0.029994 0.43379399 1.099 4285097049
-0.027003201 0.43340001 1.098 4285097303
-0.0240179 0.43300599 1.097 4284702545
-0.0210572 0.43300599 1.097 4284899154
-0.018079899 0.43261099 1.096 4284833615
-0.0151219 0.432612 1.096 4285096021
-0.0121527 0.432217 1.095 4285424470
-0.0091889603 0.43182299 1.094 4285227091
-0.0062306002 0.43142799 1.0930001 4285227091
-0.0032806301 0.43142799 1.0930001 4285556572
-0.000330665 0.43142799 1.0930001 4285293145
0.0026193 0.43142799 1.0930001 4285293145
0.0055692699 0.43142799 1.0930001 4285293659
0.0085270302 0.43182299 1.094 4285556831
0.0114692 0.43142799 1.0930001 4285820003
0.014406 0.43103299 1.092 4285820003
0.017353199 0.43103299 1.092 4285754465
0.0202819 0.43063799 1.091 4286214761
0.0232051 0.43024299 1.09 4286280554
0.026075 0.42905799 1.087 4286215277
0.0290088 0.42905799 1.087 4286346863
0.031913102 0.42866299 1.086 4286413167
0.034876201 0.429057 1.087 4286281323
0.037775099 0.428662 1.086 4286215530
0.040781099 0.42945099 1.0880001 4286083944
0.043637101 0.42866099 1.086 4285623393
0.046611 0.42905501 1.087 4285886565
0.049544699 0.42905399 1.087 4285821029
0.052478399 0.42905399 1.087 4285755490
0.055360999 0.42865899 1.086 4285886819
0.058184601 0.42786899 1.084 4285426014
0.061053801 0.42747301 1.0829999 4285820772
0.063858502 0.42668301 1.081 4285820772
0.066652402 0.42589301 1.079 4285689186
0.069499902 0.42549801 1.0779999 4285820772
0.072207697 0.42431301 1.075 4286347117
0.075038999 0.423917 1.074 4286215534
0.077937499 0.423917 1.074 4286347120
0.080911301 0.42431101 1.075 4286347120
0.083890401 0.424705 1.076 4286281327
0.086713597 0.42431 1.075 4286413167
0.089614801 0.42430899 1.075 4286478960
0.0923438 0.42351899 1.073 4286084202
0.095062003 0.42272899 1.071 4286149995
0.097860903 0.42233399 1.0700001 4286215788
0.100654 0.421938 1.069 4286149741
0.103539 0.421938 1.069 4286083948
0.106325 0.421543 1.068 4285952363
0.109105 0.421148 1.067 4285952362
0.111879 0.420753 1.066 4285952616
0.114649 0.420358 1.0650001 4285886819
0.117523 0.42035699 1.0650001 4286149989
0.120171 0.419568 1.063 4285689695
0.12304 0.419568 1.063 4286150248
0.12579 0.419173 1.062 4286018409
0.128656 0.419173 1.062 4286083948
0.13139901 0.418778 1.061 4285952363
0.134389 0.419173 1.062 4286281328
0.136997 0.41838399 1.0599999 4286215535
0.139725 0.41798899 1.059 4286544500
0.142314 0.41720101 1.057 4286741879
0.14489301 0.416412 1.0549999 4286544500
0.14774001 0.416412 1.0549999 4286479221
0.15030199 0.41562399 1.053 4286545013
0.153145 0.41562501 1.053 4286676599
0.15598699 0.41562599 1.053 4286545013
0.158528 0.414837 1.051 4286873979
0.161211 0.414444 1.05 4286873979
0.16404501 0.414446 1.05 4287202430
0.166721 0.41405201 1.049 4286939258
0.16939101 0.41365999 1.048 4287334016
0.172221 0.41366199 1.048 4287071358
0.17505001 0.41366401 1.048 4287400323
0.17754 0.41287601 1.046 4287137404
0.179847 0.411695 1.043 4287005818
0.18283799 0.412092 1.044 4287137404
0.18565699 0.41209501 1.044 4287334269
0.18829601 0.41170299 1.043 4287136636
0.19074599 0.41091701 1.041 4287136637
0.193372 0.41052601 1.04 4287466116
0.195614 0.40934601 1.0369999 4287268737
0.19765 0.40777099 1.033 4287202944
0.199664 0.406196 1.029 4287268737
0.201657 0.40462101 1.025 4286742393
0.203628 0.403047 1.021 4287070844
0.204769 0.399894 1.013 4287136637
0.20525301 0.395556 1.002 4286939511
0.201527 0.383324 0.97100002 4286413166
0.243009 0.326388 0.82599998 4285493354
0.244362 0.32521901 0.82300001 4285625457
0.24599899 0.32444501 0.82099998 4285625203
0.24792901 0.324067 0.81999999 4285362292
0.24924301 0.32289901 0.81699997 4285559673
0.249926 0.320941 0.81199998 4285493880
0.250893 0.31937799 0.80800003 4285625980
0.252152 0.31821099 0.80500001 4285297015
0.254343 0.31823099 0.80500001 4285560187
0.256217 0.317855 0.80400002 4285954945
0.25776401 0.317085 0.80199999 4285757566
0.25930101 0.316315 0.80000001 4285823359
0.260501 0.31515101 0.79699999 4285822843
0.26102701 0.31319499 0.792 4285691512
0.26252201 0.31242701 0.79000002 4285625717
0.26501301 0.312846 0.79100001 4285559924
0.266835 0.31247401 0.79000002 4285428338
0.26695001 0.31012499 0.78399998 4285428340
0.267032 0.307776 0.778 4285363062
0.268121 0.30661401 0.77499998 4285165429
0.26884499 0.30505699 0.77100003 4285362808
0.270603 0.30468801 0.76999998 4285362808
0.272356 0.30431899 0.76899999 4285494395
0.27446201 0.30434701 0.76899999 4285889156
0.276209 0.30397901 0.76800001 4286020742
0.27722701 0.30282 0.76499999 4285954950
0.27895999 0.30245399 0.764 4286547086
0.28142399 0.30287999 0.76499999 4286481547
0.28352299 0.30291101 0.76499999 4286547082
0.28599799 0.303339 0.76599997 4286547339
0.287727 0.302975 0.76499999 4286547339
0.28907201 0.30221599 0.76300001 4286547340
0.29078999 0.30185401 0.76200002 4286482322
0.292887 0.30188799 0.76200002 4286614424
0.29537299 0.30232 0.76300001 4286877850
0.29747599 0.302356 0.76300001 4286877080
0.29879501 0.30160099 0.76099998 4286349960
0.29970899 0.30044901 0.75800002 4285626234
0.30020899 0.298902 0.75400001 4285889143
0.30149099 0.29814801 0.75199997 4285757296
0.303166 0.297791 0.75099999 4285362538
0.30565 0.29822901 0.75199997 4285559917
0.30814201 0.29866701 0.75300002 4285559917
0.308992 0.297519 0.75 4285757296
0.309827 0.296372 0.74699998 4285560431
0.31064799 0.29522601 0.74400002 4285363052
0.31229299 0.29487401 0.74299997 4285362798
0.31393501 0.294523 0.74199998 4285494385
0.31557301 0.29417199 0.741 4285691763
0.31763601 0.29421899 0.741 4285626224
0.31926799 0.29387099 0.74000001 4285296745
0.32133201 0.29392001 0.74000001 4285297259
0.322523 0.293176 0.73799998 4285428845
0.32458401 0.29322699 0.73799998 4285494638
0.326204 0.292882 0.73699999 4285231466
0.32960299 0.29412699 0.74000001 4285363052
0.33212399 0.294579 0.741 4285559917
0.33420101 0.294635 0.741 4285165673
0.335372 0.29389599 0.73900002 4285494124
0.33699101 0.293556 0.73799998 4284638814
0.339066 0.293614 0.73799998 4284440919
0.34021899 0.292878 0.736 4283650889
0.34601301 0.296123 0.74400002 4283453510
0.360744 0.306934 0.77100003 4283519303
0.430572 0.35398999 0.88800001 4283781960
0.43992499 0.35965699 0.90200001 4283913546
0.44445401 0.36133999 0.90600002 4284176718
0.447036 0.36142999 0.90600002 4284045132
0.44962099 0.36152199 0.90600002 4283980109
0.451711 0.361215 0.90499997 4284309074
0.454299 0.36131001 0.90499997 4284110925
0.45638701 0.361007 0.90399998 4283913546
0.45897999 0.361105 0.90399998 4283848005
0.46004501 0.360006 0.90100002 4284176711
0.46212301 0.35970801 0.89999998 4284242504
0.465231 0.36021 0.90100002 4284242763
0.46834901 0.360715 0.90200001 4284308556
0.470433 0.360421 0.90100002 4283913800
0.47198999 0.35972899 0.89899999 4284045639
0.47406599 0.35943899 0.898 4284308811
0.47720301 0.35995099 0.89899999 4284571983
0.48034999 0.36046499 0.89999998 4284571469
0.48189601 0.35978001 0.898 4284045637
0.482357 0.35829499 0.89399999 4284046153
0.48388201 0.35761201 0.89200002 4284243532
0.48758301 0.35853499 0.89399999 4284506705
0.490751 0.35905901 0.89499998 4284375379
0.49062201 0.357178 0.88999999 4284375379
0.49213099 0.35650101 0.88800001 4283980109
0.49418899 0.35622799 0.88700002 4284506967
0.49736699 0.35676 0.88800001 4284441172
0.499993 0.356893 0.88800001 4284901209
-0.19931901 0.46610501 1.189 4289704632
-0.196274 0.46649501 1.1900001 4289704632
-0.192899 0.46610099 1.189 4289639353
-0.18937001 0.46531501 1.187 4289836218
-0.18569601 0.464138 1.184 4289639353
-0.182191 0.46335199 1.182 4290033597
-0.179001 0.46335101 1.182 4289967804
-0.175364 0.462174 1.179 4290165183
-0.17203601 0.461781 1.178 4290165181
-0.168283 0.46021301 1.174 4290099388
-0.16483299 0.45942801 1.1720001 4290165181
-0.161532 0.45903501 1.171 4290230976
-0.15864199 0.45981899 1.173 4290230974
-0.15574101 0.460603 1.175 4290033597
-0.15231 0.45981899 1.173 4290164667
-0.14914501 0.45981899 1.173 4289901750
-0.14548101 0.458251 1.169 4289704116
-0.142083 0.45746699 1.1670001 4289506992
-0.137981 0.45433101 1.159 4289638064
-0.134737 0.45394 1.158 4289243306
-0.131043 0.45197999 1.153 4289045925
-0.127821 0.45158899 1.152 4288585372
-0.12417 0.44962901 1.147 4288322200
-0.120969 0.449238 1.146 4288256662
-0.117465 0.44767001 1.142 4287796111
-0.114183 0.44688699 1.14 4287993490
-0.110522 0.44453499 1.1339999 4288058769
-0.107177 0.44336 1.131 4287729549
-0.103849 0.44218501 1.128 4287532170
-0.100805 0.442186 1.128 4287597449
-0.097586997 0.44140199 1.126 4287466377
-0.094464302 0.44101101 1.125 4287465863
-0.0911844 0.439836 1.122 4287268484
-0.088077798 0.43944499 1.1210001 4286808188
-0.085052498 0.439446 1.1210001 4286610807
-0.082027197 0.43944699 1.1210001 4286741879
-0.078790396 0.43827099 1.118 4286610293
-0.075569801 0.437096 1.115 4286478706
-0.072430499 0.436313 1.113 4286149741
-0.069426797 0.43631399 1.113 4285952363
-0.066303603 0.43553099 1.1109999 4285754984
-0.063305199 0.43553099 1.1109999 4285886823
-0.060198199 0.43474799 1.109 4285623651
-0.0572052 0.43474901 1.109 4285360221
-0.054163199 0.434358 1.108 4285557854
-0.051080499 0.43357399 1.1059999 4285622877
-0.048052002 0.43318301 1.105 4285425500
-0.0449882 0.43239999 1.103 4285228121
-0.042049401 0.43279201 1.104 4285293914
-0.039069701 0.43279299 1.104 4285293914
-0.036024701 0.43200901 1.102 4285359707
-0.0330505 0.43200999 1.102 4284899671
-0.030021699 0.43122599 1.1 4285031514
-0.027052799 0.431227 1.1 4285031513
-0.024062 0.43083501 1.099 4284965720
-0.021114999 0.431227 1.1 4285030740
-0.018129701 0.43083599 1.099 4284899154
-0.0151497 0.430444 1.098 4285293145
-0.012164 0.42965999 1.096 4285161044
-0.0091974903 0.429268 1.095 4285095251
-0.0062477901 0.42965999 1.096 4285292884
-0.00328668 0.429268 1.095 4285161298
-0.00033127499 0.429268 1.095 4285161814
0.0026217401 0.42887601 1.094 4285490779
0.0055744401 0.42887601 1.094 4285161814
0.0085271504 0.42887601 1.094 4285491293
0.0114694 0.42848399 1.0930001 4285688417
0.0144194 0.42848399 1.0930001 4285754210
0.017353499 0.42809099 1.092 4285885796
0.020263599 0.42730701 1.09 4286346347
0.023184201 0.42691499 1.089 4285886566
0.0260754 0.42613 1.087 4286281324
0.0290625 0.42691401 1.089 4286281324
0.0319723 0.42652199 1.0880001 4286215788
0.034908801 0.426521 1.0880001 4286084201
0.03788 0.42691201 1.089 4286018151
0.040819101 0.42691201 1.089 4285952359
0.043758299 0.426911 1.089 4286018152
0.0466545 0.42651901 1.0880001 4285952359
0.049545299 0.426126 1.087 4285755236
0.052478999 0.42612499 1.087 4285952869
0.0553107 0.42534101 1.085 4285623393
0.058185302 0.42494801 1.084 4285294428
0.061054502 0.424555 1.0829999 4285426014
0.063977301 0.42455399 1.0829999 4285885796
0.066838399 0.424162 1.082 4285820773
0.069629602 0.42337701 1.08 4285886566
0.072409898 0.42259201 1.0779999 4285755237
0.075179502 0.42180699 1.076 4286083948
0.078083403 0.42180601 1.076 4286018155
0.080987297 0.42180499 1.076 4286281327
0.083891101 0.42180499 1.076 4286215534
0.086633697 0.42102 1.074 4286281581
0.089615501 0.42141101 1.075 4286215787
0.0923445 0.42062601 1.073 4285952616
0.095151499 0.42023301 1.072 4286018408
0.097952999 0.41984099 1.071 4285886822
0.100938 0.420232 1.072 4286149995
0.103734 0.41983899 1.071 4285886823
0.106524 0.419447 1.0700001 4285820776
0.10931 0.419054 1.069 4285754983
0.11209 0.418661 1.068 4285623651
0.114864 0.41826901 1.067 4285689186
0.117634 0.41787601 1.066 4286018405
0.120284 0.417092 1.064 4285886817
0.12304 0.41669899 1.063 4285952612
0.12579 0.416307 1.062 4286347373
0.12841401 0.41552299 1.0599999 4286215788
0.13115101 0.415131 1.059 4286083949
0.134262 0.41591501 1.061 4286149742
0.137255 0.416307 1.062 4286346864
0.13985699 0.41552299 1.0599999 4286347121
0.14244901 0.41473901 1.058 4286544500
0.14516699 0.41434699 1.057 4286216049
0.14830001 0.415131 1.059 4286479221
0.151015 0.41474 1.058 4286676599
0.153871 0.41474101 1.058 4286742392
0.15643001 0.413957 1.056 4286873978
0.158979 0.413174 1.054 4287005565
0.16167 0.412783 1.053 4287137151
0.16466901 0.413176 1.054 4287202430
0.167355 0.41278601 1.053 4287202430
0.17019799 0.41278699 1.053 4287202430
0.172876 0.412397 1.052 4287202944
0.175549 0.41200599 1.051 4287137151
0.178047 0.41122401 1.049 4287202943
0.18053401 0.41044199 1.0470001 4287137150
0.18336099 0.410445 1.0470001 4287005564
0.18601 0.41005501 1.046 4287070843
0.188293 0.40888199 1.043 4287334016
0.19056 0.407709 1.04 4286873979
0.192996 0.406928 1.038 4286873979
0.195234 0.40575501 1.035 4287071358
0.197072 0.40379801 1.03 4287202944
0.198884 0.401842 1.025 4287137151
0.200866 0.400278 1.021 4286873979
0.203225 0.39949799 1.0190001 4287005051
0.20537101 0.39832601 1.016 4287136636
0.20688701 0.39597899 1.01 4286939511
0.201729 0.38108501 0.972 4286676338
0.230378 0.32522801 0.829 4285164136
0.23150399 0.323672 0.82499999 4285229931
0.233459 0.323293 0.824 4285427824
0.23540901 0.322914 0.82300001 4285362545
0.237065 0.322144 0.82099998 4285626233
0.23812801 0.32058901 0.81699997 4285757820
0.238581 0.31824899 0.81099999 4285692030
0.23959599 0.316695 0.80699998 4286086532
0.24148899 0.31631801 0.80599999 4285823107
0.243981 0.31672701 0.80699998 4285823106
0.24586999 0.316351 0.80599999 4285954949
0.24775399 0.31597599 0.80500001 4285955203
0.249322 0.31520799 0.80299997 4286021512
0.25088 0.31444201 0.801 4285626238
0.25306001 0.31446001 0.801 4286284168
0.25556001 0.314872 0.80199999 4286283657
0.257422 0.31449899 0.801 4286152582
0.25928 0.314127 0.80000001 4286020996
0.26047999 0.31297001 0.79699999 4286218117
0.26067501 0.310635 0.79100001 4286020991
0.26117101 0.30869299 0.78600001 4285692026
0.26197499 0.30714399 0.78200001 4285560440
0.263096 0.305989 0.77899998 4285823613
0.26352099 0.304048 0.77399999 4285691773
0.26460499 0.30289301 0.77100003 4286086531
0.26602 0.30213201 0.76899999 4285757566
0.267425 0.30137101 0.76700002 4285757566
0.269171 0.30100301 0.76599997 4285889156
0.271267 0.301029 0.76599997 4285954950
0.27336401 0.301056 0.76599997 4286086282
0.27510199 0.30069101 0.76499999 4286284431
0.27719799 0.30071899 0.76499999 4285758599
0.27893001 0.300354 0.764 4286548115
0.28102601 0.30038401 0.764 4286811542
0.28275099 0.30002099 0.76300001 4286744980
0.284473 0.299658 0.76200002 4286613910
0.28581399 0.29890299 0.75999999 4286679449
0.28714499 0.29814899 0.75800002 4286482585
0.28846699 0.29739499 0.75599998 4286746785
0.29093099 0.297822 0.75700003 4286549408
0.293015 0.297856 0.75700003 4286483613
0.29510099 0.29789099 0.75700003 4286680478
0.29640201 0.29714 0.755 4285363835
0.297299 0.29599601 0.75199997 4285823866
0.29818001 0.29485199 0.74900001 4285231726
0.299447 0.294103 0.74699998 4285494384
0.301512 0.29414099 0.74699998 4285494638
0.30398399 0.29457501 0.74800003 4285362798
0.306463 0.29500899 0.74900001 4285888882
0.308126 0.29465699 0.74800003 4285691249
0.30937001 0.29391101 0.74599999 4285823349
0.311021 0.29356 0.745 4285560177
0.31308901 0.29360399 0.745 4285428591
0.31515899 0.29364899 0.745 4285625971
0.31680399 0.2933 0.74400002 4285691763
0.318874 0.293347 0.74400002 4285559917
0.32051399 0.29300001 0.74299997 4285296745
0.32215101 0.29265401 0.74199998 4285230952
0.32378301 0.29230899 0.741 4285691503
0.32585201 0.29236001 0.741 4285296745
0.32747999 0.292016 0.74000001 4285494124
0.33044001 0.292858 0.74199998 4285230952
0.33296499 0.29330599 0.74299997 4285362538
0.33504701 0.29336101 0.74299997 4285428845
0.33622301 0.29262701 0.741 4284902500
0.33784699 0.29228899 0.74000001 4284704607
0.339926 0.292346 0.74000001 4284177749
0.341084 0.29161501 0.73799998 4283651144
0.345952 0.29404601 0.74400002 4283650374
0.359276 0.30359501 0.76800001 4283716167
0.42855 0.34991801 0.884 4284045132
0.43740001 0.35514799 0.89700001 4284110411
0.44191399 0.35681799 0.90100002 4284570962
0.44448 0.356906 0.90100002 4284176972
0.44704899 0.35699499 0.90100002 4284110925
0.448623 0.35629401 0.89899999 4284308304
0.45219699 0.35717899 0.90100002 4284176972
0.454272 0.356877 0.89999998 4283979591
0.45634401 0.356576 0.89899999 4284177225
0.45739299 0.35548401 0.89600003 4284110918
0.459968 0.355582 0.89600003 4284176711
0.463063 0.35608 0.89700001 4284243018
0.46616799 0.35657999 0.898 4284505935
0.468238 0.356287 0.89700001 4284176970
0.47030699 0.35599601 0.89600003 4284243018
0.47237301 0.35570601 0.89499998 4284440397
0.475499 0.356213 0.89600003 4284440134
0.477568 0.35592699 0.89499998 4284439881
0.47909799 0.35524499 0.89300001 4284110918
0.48062101 0.35456401 0.89099997 4283979591
0.48267901 0.354283 0.88999999 4284440397
0.48582599 0.35479999 0.89099997 4284243532
0.488435 0.35492101 0.89099997 4284309325
0.48884401 0.35345 0.88700002 4284243532
0.49034199 0.352777 0.88499999 4284440397
0.49239001 0.35250399 0.884 4284638037
0.49499699 0.35263199 0.884 4284901463
0.49704501 0.35236299 0.88300002 4284703314
0.499093 0.35209599 0.88200003 4284505935
-0.199485 0.46327999 1.1900001 4289375667
-0.196272 0.46327901 1.1900001 4289573046
-0.193222 0.46366701 1.191 4289638839
-0.189529 0.462497 1.188 4289967804
-0.186165 0.462107 1.187 4289836732
-0.182345 0.460549 1.183 4289967804
-0.17930301 0.46093699 1.184 4290033595
-0.17580999 0.46015799 1.182 4290165181
-0.172327 0.45937899 1.1799999 4289967802
-0.168569 0.45782101 1.176 4290165181
-0.16497301 0.456653 1.173 4290033597
-0.161808 0.456653 1.173 4290230976
-0.158912 0.457432 1.175 4290230974
-0.155874 0.45782101 1.176 4290230974
-0.15256999 0.457432 1.175 4289967288
-0.14927199 0.45704299 1.174 4289835957
-0.14573 0.45587501 1.171 4289638323
-0.142205 0.45470801 1.168 4289638323
-0.138338 0.452373 1.1619999 4289309613
-0.134737 0.45081601 1.158 4289112234
-0.131271 0.44964901 1.155 4289045925
-0.127932 0.44887099 1.153 4288585372
-0.124496 0.44770399 1.15 4288453786
-0.121181 0.446926 1.148 4288256662
-0.117775 0.445759 1.145 4288059283
-0.114384 0.444592 1.142 4288059283
-0.110717 0.44225699 1.136 4287861904
-0.107462 0.441479 1.1339999 4287795342
-0.104034 0.43992299 1.13 4287597449
-0.100984 0.439924 1.13 4287400070
-0.097761303 0.43914601 1.128 4287531656
-0.094633102 0.43875799 1.127 4287795083
-0.091347799 0.43759099 1.124 4287137151
-0.088157304 0.436813 1.122 4287268737
-0.085205197 0.437204 1.123 4286676600
-0.082174502 0.43720499 1.123 4286676600
-0.079002798 0.436427 1.1210001 4286676086
-0.075706303 0.43487099 1.117 4286412914
-0.072496504 0.43370399 1.114 4286149742
-0.069490001 0.433705 1.114 4286083949
-0.066423804 0.43331599 1.113 4285820777
-0.063363001 0.432928 1.112 4286018408
-0.0602533 0.43215001 1.11 4285557857
-0.0572575 0.43215099 1.11 4285622877
-0.054310702 0.43254101 1.1109999 4285886303
-0.0511274 0.430985 1.107 4285819996
-0.048052698 0.43020701 1.105 4285293398
-0.045029599 0.429818 1.104 4285359193
-0.042126201 0.43059799 1.1059999 4285096535
-0.0391411 0.43059799 1.1059999 4285293914
-0.036090702 0.42982 1.104 4285228121
-0.033080999 0.42943099 1.103 4285096280
-0.030076699 0.42904299 1.102 4284833878
-0.0271024 0.42904299 1.102 4284899671
-0.0240843 0.42826501 1.1 4285097050
-0.0210962 0.427876 1.099 4285030742
-0.0181135 0.42748699 1.098 4285096535
-0.0151499 0.42748699 1.098 4285030228
-0.0121864 0.42748699 1.098 4285161814
-0.00922284 0.427488 1.098 4285161814
-0.0062535899 0.42709801 1.097 4284964435
-0.0032957401 0.427488 1.098 4285030228
-0.00033188501 0.42709801 1.097 4285161812
0.00263137 0.427488 1.098 4285096019
0.00558982 0.42709801 1.097 4285359193
0.0085428804 0.426709 1.096 4285622365
0.01148 0.42592999 1.094 4285491038
0.0144328 0.42592999 1.094 4285754210
0.0173855 0.42592999 1.094 4286083175
0.020282499 0.424761 1.091 4286018152
0.0232058 0.42437199 1.09 4285952359
0.026171699 0.42476001 1.091 4286478449
0.029143 0.42514899 1.092 4286478960
0.032060999 0.42476001 1.091 4286413167
0.034973498 0.42436999 1.09 4286347373
0.037915401 0.42436901 1.09 4286215531
0.040819701 0.42397901 1.089 4286215277
0.043758899 0.423978 1.089 4285820519
0.0466123 0.423199 1.087 4285820773
0.049546 0.42319801 1.087 4285820773
0.052431501 0.42280799 1.086 4285755233
0.055311501 0.422418 1.085 4285951842
0.058078799 0.421249 1.082 4285688672
0.060998902 0.42124799 1.082 4285885796
0.063978203 0.421637 1.0829999 4285623140
0.066900998 0.42163599 1.0829999 4285754726
0.069823898 0.421635 1.0829999 4285754983
0.072679497 0.42124501 1.082 4286083948
0.075390004 0.42007601 1.079 4286215534
0.078302003 0.420075 1.079 4286281327
0.0811387 0.41968501 1.0779999 4286544499
0.084125899 0.420073 1.079 4286478706
0.086957201 0.41968301 1.0779999 4286083949
0.0898664 0.419682 1.0779999 4286478706
0.092517503 0.418513 1.075 4286083948
0.095329799 0.41812301 1.074 4285886569
0.098045297 0.41734299 1.072 4285952616
0.101032 0.41773099 1.073 4285755237
0.103831 0.41734099 1.072 4285821030
0.106724 0.41734001 1.072 4285689187
0.109515 0.41694999 1.071 4285886566
0.1123 0.41655999 1.0700001 4286018152
0.114973 0.41578099 1.068 4285886566
0.117634 0.415001 1.066 4285951844
0.120398 0.41461101 1.0650001 4286149221
0.123388 0.41499999 1.066 4286084198
0.126146 0.41461 1.0650001 4286281577
0.12902001 0.41461 1.0650001 4286149994
0.13164701 0.413831 1.063 4285952616
0.13476899 0.41460899 1.0650001 4286347120
0.13777199 0.41499799 1.066 4286083949
0.140517 0.414608 1.0650001 4286281327
0.143122 0.41383001 1.063 4286149742
0.145716 0.41305101 1.061 4286281842
0.14858 0.41305101 1.061 4286610806
0.1513 0.412662 1.0599999 4286742393
0.15416101 0.412662 1.0599999 4286610807
0.156578 0.411495 1.057 4286742393
0.15928 0.41110599 1.056 4287005565
0.16197699 0.41071799 1.0549999 4287136898
0.16466799 0.41032901 1.054 4287071105
0.16719501 0.40955099 1.052 4287202430
0.169873 0.409163 1.051 4287268223
0.172546 0.408775 1.05 4287202430
0.17521299 0.40838701 1.049 4287071358
0.177536 0.40722099 1.046 4287268222
0.180015 0.40644401 1.044 4287070844
0.182658 0.406057 1.043 4287005050
0.18547399 0.406059 1.043 4287136636
0.18810999 0.40567201 1.0420001 4287202430
0.190557 0.40489599 1.04 4287070844
0.192807 0.40373001 1.0369999 4287071358
0.19523001 0.402955 1.035 4286873979
0.19726001 0.40140101 1.031 4287137151
0.199074 0.39945701 1.026 4287136637
0.201058 0.397903 1.022 4286873464
0.20342 0.397129 1.02 4286939257
0.206175 0.39713299 1.02 4287005304
0.20790599 0.39519 1.015 4286807924
0.22028901 0.32797 0.84200001 4284439376
0.221248 0.32603201 0.83700001 4284768595
0.22244699 0.324485 0.833 4284505431
0.223355 0.322548 0.82800001 4285295724
0.224509 0.32100099 0.824 4285624691
0.225642 0.31945401 0.81999999 4285427826
0.22703101 0.318297 0.81699997 4285691257
0.22812399 0.31674999 0.81300002 4285493878
0.230046 0.31637299 0.81199998 4285625980
0.231677 0.31560701 0.81 4285889152
0.233586 0.315231 0.80900002 4286152582
0.235199 0.31446499 0.80699998 4286218889
0.236801 0.31369999 0.80500001 4286087564
0.23869 0.31332499 0.80400002 4286087050
0.24087401 0.31334001 0.80400002 4286153359
0.243058 0.31335601 0.80400002 4286218638
0.244938 0.31298199 0.80299997 4285955978
0.24589001 0.31143999 0.79900002 4286154127
0.246821 0.30989799 0.79500002 4286548885
0.248044 0.30874601 0.792 4286023055
0.249882 0.30837399 0.79100001 4285891469
0.252354 0.30878201 0.792 4286219666
0.25386801 0.30802101 0.79000002 4286285713
0.25504699 0.306871 0.787 4286021512
0.25621101 0.30572101 0.78399998 4286415753
0.257359 0.304571 0.78100002 4286481546
0.25815901 0.30303201 0.77700001 4286284164
0.25994301 0.30266401 0.77600002 4285889152
0.26172301 0.30229601 0.77499998 4286284168
0.26383799 0.30231801 0.77499998 4285955464
0.265268 0.301561 0.773 4286284429
0.26738 0.30158499 0.773 4285627013
0.26879501 0.30082899 0.77100003 4285824392
0.27020001 0.300073 0.76899999 4285955978
0.27124101 0.29892799 0.76599997 4285955978
0.27333701 0.29895401 0.76599997 4286087312
0.27507499 0.29859099 0.76499999 4285693324
0.276445 0.29783699 0.76300001 4286351254
0.27780601 0.29708499 0.76099998 4286483352
0.27989301 0.297113 0.76099998 4286351766
0.281239 0.296361 0.759 4286746012
0.28332201 0.29639101 0.759 4286613656
0.28465399 0.29564101 0.75700003 4286614171
0.286356 0.29528201 0.75599998 4286614687
0.28805199 0.29492301 0.755 4286812581
0.29051301 0.29534599 0.75599998 4286878374
0.29259399 0.29538 0.75599998 4286615199
0.29467601 0.295414 0.75599998 4285956494
0.29675901 0.29544899 0.75599998 4285429616
0.29884401 0.29548499 0.75599998 4285626991
0.300531 0.295131 0.755 4285100140
0.30181399 0.29438701 0.75300002 4285297005
0.303491 0.294034 0.75199997 4285494638
0.30557001 0.29407299 0.75199997 4285099880
0.30724099 0.293722 0.75099999 4285494638
0.30932 0.293762 0.75099999 4285428845
0.31057101 0.29302099 0.74900001 4285428591
0.31222999 0.29267201 0.74800003 4285757556
0.31388599 0.29232401 0.74699998 4285362798
0.316383 0.29276001 0.74800003 4285625970
0.31803501 0.292413 0.74699998 4285428077
0.319684 0.292068 0.74599999 4285099880
0.321329 0.29172301 0.745 4285559917
0.323405 0.29177099 0.745 4285296745
0.32548201 0.29181901 0.745 4285165159
0.32756001 0.29186901 0.745 4285362538
0.328756 0.291136 0.74299997 4285165159
0.331278 0.29157901 0.74400002 4285296745
0.333808 0.29202399 0.745 4285362537
0.33634499 0.29247001 0.74599999 4285297258
0.33843601 0.29252499 0.74599999 4284902500
0.34007299 0.292189 0.745 4284375642
0.34216499 0.29224601 0.745 4284046161
0.343335 0.29151899 0.74299997 4283782730
0.34682101 0.29275599 0.74599999 4283518788
0.357342 0.29988101 0.764 4283584067
0.426045 0.34547701 0.87900001 4283715653
0.43439099 0.35027599 0.89099997 4284176204
0.438885 0.351933 0.89499998 4283979079
0.44241899 0.35280499 0.89700001 4284242251
0.44447899 0.35249901 0.89600003 4284439628
0.447036 0.35258901 0.89600003 4284110665
0.45009699 0.353073 0.89700001 4284176458
0.453168 0.35355899 0.898 4284176970
0.454725 0.35286501 0.89600003 4284242504
0.45678499 0.35256699 0.89499998 4284308297
0.45884299 0.35227001 0.89399999 4284110918
0.46141401 0.35236901 0.89399999 4284571469
0.46398899 0.35247001 0.89399999 4284045125
0.46656799 0.35257199 0.89399999 4284243018
0.46915099 0.352676 0.89399999 4284110918
0.47121 0.35238701 0.89300001 4284768846
0.47379801 0.35249501 0.89300001 4284637007
0.47585601 0.35220999 0.89200002 4284242504
0.47630301 0.350741 0.88800001 4284044366
0.47781 0.35006401 0.88599998 4284045890
0.47930899 0.34938699 0.884 4284046153
0.482981 0.35029399 0.88599998 4284309325
0.48557401 0.35041201 0.88599998 4284309325
0.48761901 0.350137 0.88499999 4284111946
0.48966399 0.34986401 0.884 4284308811
0.49114999 0.34919599 0.88200003 4284900693
0.49262899 0.34852999 0.88 4284900693
0.49466401 0.348261 0.87900001 4284439883
0.49669799 0.347994 0.87800002 4284111432
0.49986801 0.34852299 0.87900001 4284637260
-0.199818 0.46083799 1.192 4289638839
-0.196601 0.46083701 1.192 4289638839
-0.19338299 0.46083599 1.192 4289638837
-0.190006 0.46044901 1.191 4289770423
-0.186478 0.45967501 1.189 4289770423
-0.182806 0.458514 1.186 4289968057
-0.179454 0.45812699 1.1849999 4289902264
-0.176107 0.45774001 1.184 4290033595
-0.172473 0.45658001 1.181 4290099388
-0.168999 0.455807 1.179 4289967802
-0.16539501 0.454647 1.176 4290230976
-0.162084 0.454261 1.175 4290230976
-0.158777 0.45387399 1.174 4290296253
-0.155742 0.454261 1.175 4290098874
-0.15257099 0.45426199 1.175 4290033081
-0.14927199 0.45387599 1.174 4290098874
-0.145731 0.45271701 1.171 4289704116
-0.142206 0.45155799 1.168 4289638323
-0.138577 0.450012 1.164 4289572271
-0.135087 0.44885299 1.161 4288980648
-0.13149901 0.447308 1.1569999 4288980132
-0.12815499 0.44653499 1.155 4288716958
-0.124605 0.44499001 1.151 4288125591
-0.121288 0.44421801 1.149 4288322969
-0.117776 0.44267201 1.145 4288060051
-0.114285 0.441127 1.141 4287796109
-0.110816 0.43958199 1.137 4287730318
-0.107463 0.43842301 1.1339999 4287795342
-0.104127 0.437264 1.131 4287794828
-0.100985 0.43687901 1.13 4287531656
-0.097762302 0.43610701 1.128 4287465863
-0.094718203 0.43610799 1.128 4287334532
-0.091592804 0.43572301 1.127 4287334530
-0.088315599 0.43456399 1.124 4287202944
-0.0852063 0.43417799 1.123 4286939772
-0.082029201 0.433406 1.1210001 4287202430
-0.079003803 0.43340701 1.1210001 4286675832
-0.075842902 0.43263501 1.119 4286281328
-0.072692797 0.43186301 1.117 4286083949
-0.069615804 0.43147799 1.1160001 4286018156
-0.066484503 0.43070501 1.114 4286083949
-0.063421004 0.43031999 1.113 4285952616
-0.060362801 0.429934 1.112 4285689443
-0.057413202 0.43032199 1.113 4285951842
-0.054409299 0.430323 1.113 4285820510
-0.051266801 0.42916399 1.11 4285556570
-0.048184 0.42839101 1.108 4285490777
-0.045152701 0.42800501 1.107 4285491293
-0.0422411 0.42877999 1.109 4285096535
-0.039177202 0.42800701 1.107 4285228121
-0.036156699 0.42762101 1.1059999 4285425500
-0.033141501 0.42723501 1.105 4285096535
-0.0301318 0.42684901 1.104 4285030487
-0.027127501 0.42646301 1.103 4284898901
-0.024106599 0.42569 1.101 4285030487
-0.021135001 0.42569 1.101 4285161812
-0.018130301 0.424918 1.099 4284898640
-0.015164 0.424918 1.099 4285161298
-0.0121977 0.424918 1.099 4285292884
-0.00923141 0.424918 1.099 4285359193
-0.0062594102 0.424532 1.098 4285096021
-0.0032958 0.424532 1.098 4285161814
-0.000332194 0.424532 1.098 4285227605
0.00263141 0.424532 1.098 4285359191
0.0055899201 0.42414501 1.097 4285424731
0.0085352398 0.423372 1.095 4285491038
0.0114698 0.422598 1.0930001 4285556831
0.0144199 0.422598 1.0930001 4285622624
0.017385799 0.422984 1.094 4286017637
0.02032 0.42259699 1.0930001 4286017637
0.023248799 0.42221001 1.092 4286149484
0.026220201 0.42259699 1.0930001 4286478449
0.0291702 0.42259601 1.0930001 4286413167
0.032120299 0.42259601 1.0930001 4286544499
0.035006199 0.42182201 1.091 4285952615
0.037985601 0.42220801 1.092 4286215788
0.040932901 0.422207 1.092 4286083949
0.043880198 0.42220601 1.092 4286017898
0.046655901 0.42065901 1.0880001 4285820773
0.049546801 0.42027101 1.087 4285820773
0.052480601 0.42027 1.087 4285820258
0.0554143 0.42027 1.087 4285820258
0.058240701 0.41949499 1.085 4285688417
0.0610562 0.41872099 1.0829999 4285688417
0.063920103 0.41833401 1.082 4285491554
0.066901997 0.41871899 1.0829999 4285754726
0.069824897 0.41871801 1.0829999 4285754983
0.072613299 0.41794401 1.081 4285952362
0.075391002 0.417169 1.079 4286018156
0.0782305 0.41678199 1.0779999 4286083948
0.081215002 0.41716701 1.079 4286412914
0.084282897 0.41793901 1.081 4286281328
0.087119602 0.41755101 1.08 4286215535
0.089867502 0.41677701 1.0779999 4285952363
0.092432499 0.41522899 1.074 4286215535
0.095330901 0.41522801 1.074 4286083948
0.098137803 0.414841 1.073 4286018408
0.101033 0.41484001 1.073 4286149994
0.103735 0.414065 1.071 4285886565
0.106526 0.41367799 1.0700001 4285886565
0.109516 0.41406301 1.071 4285754979
0.112511 0.41444901 1.072 4286017382
0.115296 0.41406101 1.071 4286214761
0.117966 0.41328701 1.069 4286149223
0.120738 0.4129 1.068 4286083430
0.123736 0.41328499 1.069 4286215016
0.12650201 0.412898 1.068 4286215016
0.129142 0.41212401 1.066 4286149737
0.131771 0.41135001 1.064 4286083944
0.134642 0.411349 1.064 4286347374
0.13764299 0.411735 1.0650001 4286412913
0.140385 0.41134799 1.064 4286347120
0.143122 0.410961 1.063 4286544499
0.145716 0.41018799 1.061 4286676085
0.14844 0.40980101 1.0599999 4286807671
0.151015 0.40902799 1.058 4286544499
0.153725 0.40864101 1.057 4286741879
0.15628099 0.407868 1.0549999 4286873465
0.15912899 0.407868 1.0549999 4287005565
0.16182201 0.407482 1.054 4287005567
0.164511 0.407096 1.053 4287202946
0.166876 0.40593699 1.05 4287136637
0.169549 0.40555099 1.049 4287399809
0.17238 0.405552 1.049 4286939772
0.175212 0.40555301 1.049 4286873979
0.177874 0.405168 1.048 4287070843
0.180531 0.404782 1.0470001 4286808186
0.183182 0.40439701 1.046 4286939771
0.185828 0.40401301 1.045 4287005304
0.188288 0.40324101 1.043 4287070844
0.19073801 0.40246999 1.041 4286873465
0.19354799 0.402473 1.041 4286808186
0.195793 0.401315 1.038 4286939772
0.19802199 0.40015799 1.035 4286939772
0.20023499 0.399001 1.0319999 4286939257
0.20243201 0.397845 1.029 4286610546
0.20481201 0.397075 1.027 4286873718
0.20758601 0.39707801 1.027 4286807924
0.20749199 0.39166901 1.013 4286808178
0.205542 0.32755801 0.847 4284637009
0.207342 0.326792 0.84500003 4284834388
0.208884 0.32563901 0.84200001 4284570962
0.21041 0.324487 0.83899999 4284768088
0.210906 0.32178801 0.83200002 4284833882
0.211877 0.31986201 0.82700002 4284702810
0.21282101 0.31793699 0.82200003 4284768603
0.21426199 0.31678599 0.81900001 4284966498
0.215951 0.316021 0.81699997 4284966759
0.217897 0.315644 0.81599998 4285493628
0.219568 0.314881 0.81400001 4285757567
0.221774 0.31489101 0.81400001 4285954692
0.223704 0.31451499 0.81300002 4286020742
0.22563 0.31413901 0.81199998 4285692292
0.22699 0.31299001 0.80900002 4286152843
0.228617 0.31222901 0.80699998 4286153359
0.230234 0.31146699 0.80500001 4286022287
0.23155101 0.31031901 0.80199999 4286088855
0.232853 0.309172 0.79900002 4286154648
0.23443399 0.308411 0.79699999 4286023062
0.235707 0.307264 0.79400003 4286154648
0.23726401 0.30650499 0.792 4286220441
0.239113 0.30613199 0.79100001 4286220441
0.24065199 0.305374 0.78899997 4286418075
0.242181 0.30461499 0.787 4286154903
0.243389 0.30346999 0.78399998 4286220696
0.244895 0.30271301 0.78200001 4286154901
0.247022 0.30272999 0.78200001 4286483352
0.24914999 0.30274701 0.78200001 4286483352
0.25095701 0.302378 0.78100002 4286351506
0.25275901 0.30201 0.77999997 4285956748
0.25422999 0.30125499 0.778 4286745233
0.25602001 0.30088699 0.77700001 4286087558
0.25747401 0.30013299 0.77499998 4285889409
0.25958699 0.300154 0.77499998 4285824131
0.26068801 0.29901299 0.77200001 4286284684
0.263475 0.29980901 0.77399999 4286021773
0.26524499 0.299445 0.773 4285627529
0.26735601 0.29946801 0.773 4285430150
0.26842201 0.298329 0.76999998 4285824908
0.269472 0.29719099 0.76700002 4285627783
0.27050799 0.29605299 0.764 4286022287
0.27188399 0.29530299 0.76200002 4285824908
0.27396899 0.295329 0.76200002 4285628043
0.27569401 0.29496801 0.76099998 4286285973
0.27741301 0.294608 0.75999999 4286154387
0.27986401 0.29502299 0.76099998 4286483352
0.28121001 0.294276 0.759 4286877857
0.283292 0.29430601 0.759 4286548892
0.28462401 0.29356 0.75700003 4286220444
0.28670299 0.29359001 0.75700003 4286746534
0.28802001 0.29284599 0.755 4286615720
0.290481 0.293266 0.75599998 4286746791
0.29256099 0.29329899 0.75599998 4286746526
0.295421 0.294108 0.75800002 4285364608
0.29750901 0.29414299 0.75800002 4285692026
0.29959801 0.29417801 0.75800002 4285494385
0.301689 0.29421401 0.75800002 4285165673
0.30297899 0.29347399 0.75599998 4285494384
0.30385599 0.29234701 0.75300002 4285428591
0.305531 0.29199699 0.75199997 4285560431
0.30761001 0.292036 0.75199997 4285560431
0.310103 0.29246399 0.75300002 4285363052
0.31177399 0.29211599 0.75199997 4285297259
0.31344 0.29177001 0.75099999 4285560177
0.31510299 0.29142299 0.75 4285363052
0.31760699 0.29185501 0.75099999 4285428591
0.31926799 0.291511 0.75 4285493870
0.32135201 0.291556 0.75 4284902501
0.323008 0.29121399 0.74900001 4285296745
0.325093 0.29126099 0.74900001 4285494124
0.32718 0.291309 0.74900001 4285230952
0.32926899 0.29135799 0.74900001 4285428331
0.330475 0.290629 0.74699998 4285296745
0.332562 0.29067999 0.74699998 4285296745
0.33465099 0.290732 0.74699998 4285297258
0.33674201 0.29078501 0.74699998 4284968807
0.338835 0.29083899 0.74699998 4284442463
0.340473 0.29050499 0.74599999 4284178777
0.34210801 0.290171 0.745 4283389001
0.34327701 0.28944901 0.74299997 4283322179
0.346297 0.29028699 0.745 4283387203
0.355409 0.29619199 0.75999999 4283584067
0.42499599 0.34223801 0.87699997 4284307790
0.43382099 0.34739199 0.88999999 4284044618
0.43831101 0.34903601 0.89399999 4284242251
0.441347 0.34951001 0.89499998 4284110663
0.4434 0.349206 0.89399999 4283913284
0.44545001 0.34890199 0.89300001 4284110918
0.44800001 0.34899101 0.89300001 4284045125
0.45105699 0.349473 0.89399999 4284308305
0.45361701 0.349565 0.89399999 4284439883
0.45566899 0.34926701 0.89300001 4284505674
0.457719 0.34897199 0.89200002 4284176709
0.45925099 0.348286 0.88999999 4283847744
0.461294 0.34799299 0.889 4283913537
0.463857 0.348093 0.889 4284045123
0.466948 0.34858701 0.88999999 4284308297
0.46899399 0.348299 0.889 4284308295
0.47156799 0.34840399 0.889 4284242504
0.47361299 0.34811899 0.88800001 4284176711
0.474583 0.34705201 0.88499999 4284307538
0.47661901 0.34676999 0.884 4284243269
0.479195 0.346883 0.884 4284111432
0.48177499 0.34699699 0.884 4284571983
0.483812 0.34672001 0.88300002 4284440397
0.485847 0.34644601 0.88200003 4284111430
0.48843399 0.34656599 0.88200003 4284571467
0.49046901 0.34629399 0.88099998 4284900434
0.491384 0.34523901 0.87800002 4284637262
0.493411 0.344971 0.87699997 4284308042
0.49600199 0.34509799 0.87699997 4284242504
0.49859899 0.34522799 0.87699997 4284505676
-0.19676501 0.458002 1.193 4289375667
-0.193545 0.45800099 1.193 4289507251
-0.190165 0.45761701 1.192 4289770423
-0.186634 0.456848 1.1900001 4289770678
-0.18296 0.45569599 1.187 4289836471
-0.17930201 0.45454499 1.184 4289968057
-0.176404 0.45531201 1.186 4290099388
-0.172765 0.45416099 1.183 4290033595
-0.169429 0.45377699 1.182 4290033597
-0.16581801 0.45262599 1.179 4290230976
-0.16236 0.451859 1.177 4290164669
-0.15918399 0.451859 1.177 4290230462
-0.155742 0.451092 1.175 4290098876
-0.15244099 0.45070899 1.174 4290098874
-0.148892 0.44955799 1.171 4290033081
-0.145732 0.449559 1.171 4289506739
-0.14232799 0.44879201 1.169 4289769911
-0.138816 0.44764099 1.166 4289637809
-0.135204 0.446107 1.1619999 4289177258
-0.13172799 0.444956 1.159 4289111720
-0.12826701 0.44380599 1.156 4288848548
-0.124931 0.443039 1.154 4288519581
-0.121395 0.44150501 1.15 4288322200
-0.117983 0.44035399 1.147 4288256662
-0.114487 0.43882 1.143 4287992976
-0.111207 0.438054 1.141 4287992974
-0.107844 0.436903 1.138 4287795083
-0.104404 0.43536901 1.1339999 4287729290
-0.101076 0.43421799 1.131 4287531909
-0.097763598 0.43306801 1.128 4287597702
-0.094719499 0.43306899 1.128 4287597188
-0.091675296 0.43307099 1.128 4287202430
-0.088473998 0.43230399 1.126 4287137151
-0.085359298 0.43192199 1.125 4287071358
-0.082103603 0.43077099 1.122 4287005051
-0.0790755 0.43077201 1.122 4286478707
-0.075911902 0.430006 1.12 4286281328
-0.072824098 0.42962301 1.119 4286215535
-0.069741704 0.42923999 1.118 4286149742
-0.066664703 0.42885801 1.117 4286215534
-0.063478999 0.42770699 1.114 4285886569
-0.060418099 0.427324 1.113 4285755237
-0.057465799 0.42770901 1.114 4285491808
-0.054459199 0.42771 1.114 4285228636
-0.051313899 0.426559 1.1109999 4285293659
-0.048228402 0.42579299 1.109 4285425247
-0.045235202 0.42579299 1.109 4285425245
-0.04228 0.42617801 1.11 4285359452
-0.0392133 0.42541099 1.108 4285228121
-0.036189999 0.425028 1.107 4285293400
-0.033202201 0.42502901 1.107 4285424468
-0.030187 0.42464501 1.1059999 4285359445
-0.0271772 0.42426199 1.105 4285227605
-0.024150901 0.42349499 1.103 4285161812
-0.021154599 0.42311099 1.102 4285096273
-0.018163599 0.422728 1.101 4285030480
-0.0151919 0.422728 1.101 4285161812
-0.0122201 0.422728 1.101 4284963917
-0.0092567904 0.423112 1.102 4285030226
-0.00626523 0.42196101 1.099 4285096021
-0.00329587 0.42157701 1.098 4285030228
-0.0003322 0.42157701 1.098 4285227607
0.0026338601 0.42196101 1.099 4285161814
0.00559003 0.421193 1.097 4285096280
0.0085431999 0.420809 1.096 4285557086
0.0115015 0.42080799 1.096 4285688672
0.0144465 0.42042401 1.095 4285688670
0.017418001 0.42080799 1.096 4285557084
0.020357599 0.42042401 1.095 4285952612
0.0233132 0.420423 1.095 4286149484
