# .PCD v0.7 - Point Cloud Data file format
VERSION 0.7
FIELDS x y z rgb
SIZE 4 4 4 4
TYPE F F F U
COUNT 1 1 1 1
WIDTH 1106
HEIGHT 1
VIEWPOINT 0 0 0 1 0 0 0
POINTS 1106
DATA ascii
-0.076360501 -0.183402 0.61299998 4286610793
-0.074584097 -0.18310601 0.61199999 4286544486
-0.0732897 -0.184008 0.61500001 4286544486
-0.0717462 -0.18431 0.616 4286543971
-0.070083298 -0.184314 0.616 4286543971
-0.0683093 -0.184018 0.61500001 4286478179
-0.066648997 -0.18402199 0.61500001 4286676072
-0.064883001 -0.183726 0.61400002 4286346853
-0.063328199 -0.184028 0.61500001 4286346853
-0.0615674 -0.183732 0.61400002 4286281314
-0.060104601 -0.18433399 0.616 4285820762
-0.058630899 -0.184935 0.61799997 4286215520
-0.056962099 -0.184939 0.61799997 4286084448
-0.055114198 -0.184343 0.616 4286149727
-0.053277001 -0.18374699 0.61400002 4286347620
-0.051534701 -0.183451 0.61299998 4286150242
-0.049879 -0.18345401 0.61299998 4286413673
-0.048223302 -0.183457 0.61299998 4286216039
-0.046719398 -0.184058 0.61500001 4285689695
-0.045058101 -0.18406001 0.61500001 4286018915
-0.043467298 -0.18436199 0.616 4285953122
-0.0417354 -0.184065 0.61500001 4286018656
-0.040073901 -0.184067 0.61500001 4285952862
-0.038474899 -0.184369 0.616 4286413153
-0.036810599 -0.18437099 0.616 4286807657
-0.035089198 -0.184074 0.61500001 4286412900
-0.033427499 -0.184076 0.61500001 4286544486
-0.0317658 -0.18407799 0.61500001 4286281314
-0.0301529 -0.184379 0.616 4286478693
-0.028349699 -0.183483 0.61299998 4285558104
-0.026736701 -0.18378399 0.61400002 4285821789
-0.0250367 -0.183486 0.61299998 4286150501
-0.0234564 -0.18408599 0.61500001 4286018915
-0.021759 -0.183788 0.61400002 4285097813
-0.0201324 -0.18408801 0.61500001 4285755484
-0.0184703 -0.18409 0.61500001 4286347856
-0.016808201 -0.184091 0.61500001 4286479695
-0.0151461 -0.184091 0.61500001 4286938468
-0.0134621 -0.18379299 0.61400002 4286412132
-0.0117834 -0.183494 0.61299998 4286478178
-0.0101101 -0.18319599 0.61199999 4285951832
-0.0084560104 -0.18319599 0.61199999 4284832839
-0.0068019 -0.18319701 0.61199999 4286215004
-0.0051477901 -0.18319701 0.61199999 4285755222
-0.0034993801 -0.183497 0.61299998 4285952602
-0.00184255 -0.183497 0.61299998 4285821016
-0.000186019 -0.183796 0.61400002 4285821789
0.00147832 -0.184395 0.616 4285426776
0.0031381501 -0.184095 0.61500001 4285887076
0.0047613601 -0.18259899 0.61000001 4282992959
0.0062944698 -0.179305 0.59899998 4284046163
0.0078606 -0.17810801 0.59500003 4284769370
0.0094369203 -0.177508 0.59299999 4283518788
0.0110396 -0.177508 0.59299999 4283189561
0.0126423 -0.177507 0.59299999 4283189303
0.014173 -0.176608 0.58999997 4283122996
0.0157675 -0.176607 0.58999997 4282991924
0.017362 -0.176606 0.58999997 4282926132
0.0190208 -0.177204 0.59200001 4281281566
0.0206904 -0.177802 0.59399998 4281478945
0.0221455 -0.176603 0.58999997 4281610529
0.0238203 -0.1772 0.59200001 4281478945
0.025291299 -0.176301 0.58899999 4281347357
0.026837301 -0.176 0.588 4281807650
0.0284262 -0.175998 0.588 4282465580
0.030066 -0.176296 0.58899999 4282005029
0.0318188 -0.177192 0.59200001 4281807908
0.033418301 -0.17719001 0.59200001 4282400045
0.035076998 -0.177488 0.59299999 4281939496
0.036555398 -0.17688701 0.59100002 4281873703
0.038022999 -0.176286 0.58899999 4282333997
0.039547 -0.17598499 0.588 4282596652
0.041135501 -0.175982 0.588 4282530859
0.0427965 -0.17627899 0.58899999 4282399273
0.044312201 -0.175978 0.588 4282530859
0.045822401 -0.175676 0.58700001 4282530859
0.047408 -0.17567299 0.58700001 4282530859
0.048909999 -0.17537101 0.58600003 4282596906
0.050406501 -0.175069 0.58499998 4282267687
0.0520753 -0.175366 0.58600003 4282662185
0.0536578 -0.175363 0.58600003 4282464805
0.055334602 -0.175659 0.58700001 4282530337
0.056822699 -0.175357 0.58600003 4282464028
0.058504701 -0.175653 0.58700001 4282266903
0.060089599 -0.17565 0.58700001 4282529305
0.0617796 -0.175946 0.588 4282464282
0.063474901 -0.17624199 0.58899999 4282332444
0.065396398 -0.177137 0.59200001 4282332703
0.067560397 -0.17862999 0.597 4282201119
0.069982998 -0.180721 0.60399997 4281477396
0.072206199 -0.18221299 0.60900003 4280227329
0.073971301 -0.18250901 0.61000001 4281412118
0.075617701 -0.182505 0.61000001 4281675289
0.077390701 -0.18280099 0.611 4281872666
0.079168998 -0.18309601 0.61199999 4282070047
0.0809526 -0.183392 0.61299998 4281609496
0.082741499 -0.183687 0.61400002 4281806875
0.0845358 -0.183982 0.61500001 4282136608
0.086055003 -0.183679 0.61400002 4281741596
0.087854497 -0.183975 0.61500001 4281610784
0.089659303 -0.18426999 0.616 4280229131
0.091173001 -0.18396699 0.61500001 4279900166
0.092530102 -0.183365 0.61299998 4281084440
0.094183803 -0.18336099 0.61299998 4281939236
0.095993601 -0.18365601 0.61400002 4282070308
0.097490802 -0.18335301 0.61299998 4282266912
0.099144198 -0.183349 0.61299998 4282266912
0.100797 -0.183345 0.61299998 4282332958
0.102785 -0.183939 0.61500001 4282464030
0.104444 -0.183935 0.61500001 4282398237
0.106102 -0.18393099 0.61500001 4282332958
0.107761 -0.183927 0.61500001 4282267165
0.109419 -0.18392301 0.61500001 4282266910
0.111258 -0.184218 0.616 4282332703
0.112369 -0.18331701 0.61299998 4282267426
0.114022 -0.183314 0.61299998 4282398498
0.115486 -0.183011 0.61199999 4282398498
0.118093 -0.18450201 0.61699998 4282004252
0.120339 -0.185395 0.62 4281938459
0.117877 -0.179112 0.59899998 4281939749
0.116101 -0.174026 0.58200002 4286415487
0.116053 -0.17163 0.574 4286086270
0.116985 -0.17072999 0.57099998 4283519060
0.11811 -0.170128 0.56900001 4283518283
0.119643 -0.17012499 0.56900001 4283189573
0.120964 -0.16982301 0.56800002 4283189571
0.122711 -0.170119 0.56900001 4283255364
0.124027 -0.169817 0.56800002 4283584328
0.125779 -0.170113 0.56900001 4283386435
0.12708899 -0.169811 0.56800002 4283715400
0.128167 -0.169211 0.56599998 4283583814
0.129464 -0.168909 0.565 4283320895
0.131219 -0.169205 0.56599998 4283518274
0.132745 -0.169203 0.56599998 4283320896
0.134271 -0.1692 0.56599998 4283518274
0.135317 -0.16859999 0.56400001 4283847240
0.136352 -0.168 0.56199998 4283452482
0.137867 -0.167998 0.56199998 4283518275
0.13963 -0.168295 0.56300002 4283386688
0.140898 -0.16799399 0.56199998 4283650112
0.14241301 -0.16799299 0.56199998 4283386940
0.14392801 -0.167991 0.56199998 4283518528
0.145703 -0.16828801 0.56300002 4283650628
0.14696001 -0.167988 0.56199998 4283189561
0.149268 -0.16888399 0.565 4283650112
0.15399399 -0.172469 0.57700002 4283847491
0.160134 -0.17755 0.59399998 4283847491
0.166365 -0.18263 0.611 4283847491
0.16883799 -0.18352599 0.61400002 4283320889
0.170495 -0.18352599 0.61400002 4282991410
0.172712 -0.18412299 0.616 4282662184
0.174658 -0.184422 0.61699998 4282333219
0.176323 -0.184422 0.61699998 4282530082
0.177411 -0.183824 0.61500001 4282464544
0.179363 -0.18412399 0.616 4282990372
0.18132 -0.184423 0.61699998 4282858270
0.183282 -0.184723 0.61799997 4282924065
0.184652 -0.184425 0.61699998 4282923811
0.18662 -0.184725 0.61799997 4282989858
0.18829 -0.184727 0.61799997 4282989856
0.18996 -0.184728 0.61799997 4282792993
0.19132 -0.184431 0.61699998 4282924833
0.19298699 -0.184434 0.61699998 4282990372
0.19433901 -0.184137 0.616 4282924579
0.195687 -0.183841 0.61500001 4282925095
0.19702899 -0.18354499 0.61400002 4283385130
0.19901299 -0.183847 0.61500001 4283187751
0.201003 -0.18415 0.616 4283121960
0.20266999 -0.18415301 0.616 4283582511
0.204006 -0.18385801 0.61500001 4283516716
0.205671 -0.183863 0.61500001 4283582509
0.207673 -0.184166 0.616 4283648818
0.209342 -0.18417101 0.616 4283582772
0.210668 -0.18387701 0.61500001 4283649080
0.21268 -0.184182 0.616 4283911482
0.21435 -0.18418799 0.616 4283714358
0.21602 -0.184194 0.616 4283385391
0.216984 -0.18360201 0.61400002 4283450923
0.21865 -0.18360899 0.61400002 4283516716
0.22031599 -0.183616 0.61400002 4283385130
0.22234499 -0.18392301 0.61500001 4283581993
0.224015 -0.18393099 0.61500001 4283647786
0.225686 -0.183939 0.61500001 4283581993
0.227357 -0.183948 0.61500001 4283187235
0.229029 -0.183957 0.61500001 4283253028
0.230702 -0.183966 0.61500001 4283581993
0.23237599 -0.18397599 0.61500001 4283844913
0.233669 -0.183687 0.61400002 4283384877
0.23495799 -0.18339799 0.61299998 4283187500
0.236628 -0.18340901 0.61299998 4283384879
0.23752099 -0.182822 0.611 4283385132
0.239187 -0.182833 0.611 4282858788
0.241248 -0.183145 0.61199999 4283253546
0.242918 -0.183157 0.61199999 4283186983
0.24419001 -0.182871 0.611 4283121707
0.24545699 -0.182585 0.61000001 4282924075
0.247124 -0.18259899 0.61000001 4282989868
0.249608 -0.183212 0.61199999 4282793003
0.25251499 -0.18412501 0.61500001 4281872929
0.25337201 -0.183542 0.61299998 4281675550
0.253387 -0.18235999 0.60900003 4281939236
0.25338101 -0.181178 0.60500002 4282202919
0.254197 -0.18059599 0.60299999 4282531886
0.25457901 -0.17971399 0.60000002 4282466093
0.25494501 -0.17883299 0.597 4282466093
0.254866 -0.177653 0.59299999 4282597424
0.254767 -0.17647199 0.58899999 4282926905
0.254646 -0.175293 0.58499998 4283125576
0.254942 -0.174413 0.58200002 4284375903
0.25522399 -0.17353299 0.579 4285494901
0.256376 -0.173253 0.57800001 4285758593
0.25529301 -0.17147499 0.57200003 4286482830
0.24834 -0.16579901 0.55299997 4287207067
0.24535 -0.16282099 0.54299998 4287404960
0.242305 -0.159843 0.53299999 4288128169
0.239207 -0.156865 0.523 4285365377
0.236054 -0.15388601 0.51300001 4289508020
0.235624 -0.152707 0.509 4286349694
0.237037 -0.15272801 0.509 4284045910
0.23845001 -0.152751 0.509 4283386949
0.239393 -0.152473 0.50800002 4283584833
0.240807 -0.152496 0.50800002 4283387454
0.241744 -0.152219 0.50700003 4283650628
0.24219801 -0.15164299 0.505 4283519556
0.243607 -0.151668 0.505 4283322179
0.24501701 -0.151693 0.505 4283651144
0.246916 -0.15201899 0.50599998 4283585351
0.24833199 -0.152045 0.50599998 4283256386
0.25024301 -0.152373 0.50700003 4283322177
0.25116801 -0.1521 0.50599998 4283322177
0.25208899 -0.15182801 0.505 4283387970
0.253508 -0.15185601 0.505 4283387970
0.25593799 -0.15248699 0.50700003 4282993726
0.257366 -0.152518 0.50700003 4283256131
0.25930601 -0.152849 0.50800002 4283190338
0.25920001 -0.151978 0.505 4283651144
0.260627 -0.15200999 0.505 4283321663
0.26153699 -0.151742 0.50400001 4283386942
0.26400799 -0.15237699 0.50599998 4283518528
0.26544401 -0.152411 0.50599998 4283650114
0.26793599 -0.15304901 0.50800002 4283583814
0.276274 -0.157002 0.52100003 4283452743
0.29215199 -0.165178 0.54799998 4283913032
0.310866 -0.17486501 0.57999998 4283913032
0.318988 -0.178527 0.59200001 4283913032
0.32230601 -0.17947701 0.59500003 4283583814
0.324554 -0.17982499 0.59600002 4283255364
0.32681099 -0.18017399 0.597 4284965467
0.32852501 -0.180222 0.597 4283781443
0.33024299 -0.180271 0.597 4283913026
0.33196199 -0.18032099 0.597 4283320367
0.33424401 -0.180675 0.59799999 4282662437
0.33709601 -0.18133099 0.60000002 4283123240
0.33883199 -0.181384 0.60000002 4283583537
0.340572 -0.181439 0.60000002 4282925861
0.342314 -0.181494 0.60000002 4283056932
0.34463301 -0.181853 0.60100001 4283385898
0.34638399 -0.18190999 0.60100001 4283253798
0.34813899 -0.181968 0.60100001 4282991140
0.34989601 -0.182028 0.60100001 4283122726
0.351657 -0.182089 0.60100001 4283320619
0.35341999 -0.18215001 0.60100001 4282926375
0.35577899 -0.18251599 0.602 4282794537
0.35755199 -0.18257999 0.602 4283057963
0.35932899 -0.18264601 0.602 4283517998
0.36110899 -0.182712 0.602 4283254312
0.36349601 -0.183083 0.60299999 4283779627
0.36528599 -0.18315201 0.60299999 4283582248
0.36768901 -0.18352599 0.60399997 4283516455
0.36949 -0.183597 0.60399997 4284306999
0.37129501 -0.18367 0.60399997 4283846962
0.372486 -0.18344 0.60299999 4283584560
0.37553701 -0.18412399 0.60500002 4283781939
0.37673199 -0.18389601 0.60399997 4283517997
0.37980601 -0.18458299 0.60600001 4283583276
0.38037801 -0.184053 0.60399997 4283385898
0.38220701 -0.18413299 0.60399997 4283320104
0.38404 -0.18421499 0.60399997 4283649069
0.385878 -0.18429901 0.60399997 4283058216
0.38836199 -0.184688 0.60500002 4280032000
0.38956699 -0.184469 0.60399997 4283519032
0.392066 -0.184863 0.60500002 4283782720
0.39392501 -0.18495201 0.60500002 4284440134
0.395789 -0.18504199 0.60500002 4283847739
0.398316 -0.185441 0.60600001 4283914290
0.40085301 -0.18584099 0.60699999 4284176956
0.403402 -0.186243 0.60799998 4284439614
0.40529501 -0.18634 0.60799998 4284111163
0.40719399 -0.18643899 0.60799998 4284440128
0.409098 -0.18653999 0.60799998 4284045629
0.41033101 -0.186335 0.60699999 4284374594
0.41224301 -0.18643899 0.60699999 4283848248
0.414161 -0.186544 0.60699999 4284440387
0.416769 -0.186959 0.60799998 4284637507
0.41938999 -0.18737601 0.60900003 4284834372
0.42202401 -0.187795 0.61000001 4284505921
0.422584 -0.18729199 0.60799998 4284966472
0.42313799 -0.18678901 0.60600001 4284769348
0.423686 -0.186289 0.60399997 4284703048
-0.198763 -0.181899 0.60299999 4290361260
-0.197458 -0.182197 0.60399997 4290295719
-0.195499 -0.18189099 0.60299999 4290295719
-0.193868 -0.181888 0.60299999 4290295460
-0.19255599 -0.18218599 0.60399997 4290295460
-0.191238 -0.182485 0.60500002 4290427046
-0.189289 -0.182181 0.60399997 4290427046
-0.187657 -0.18217801 0.60399997 4290098595
-0.186024 -0.18217599 0.60399997 4290427560
-0.184697 -0.182476 0.60500002 4290690218
-0.18276 -0.182172 0.60399997 4290624425
-0.180829 -0.181869 0.60299999 4290229667
-0.179497 -0.18217 0.60399997 4290295460
-0.17816 -0.18246999 0.60500002 4290163874
-0.17623501 -0.18216801 0.60399997 4290032288
-0.17431501 -0.18186501 0.60299999 4289966242
-0.172115 -0.181262 0.60100001 4290032033
-0.17049199 -0.181262 0.60100001 4290097828
-0.169432 -0.18186501 0.60299999 4290097826
-0.16836099 -0.182468 0.60500002 4290295460
-0.166729 -0.182468 0.60500002 4290098081
-0.16482399 -0.18216699 0.60399997 4290032288
-0.16292401 -0.18186601 0.60299999 4290032286
-0.16129699 -0.181867 0.60299999 4290229667
-0.159935 -0.18217 0.60399997 4290229667
-0.158306 -0.182171 0.60399997 4289834909
-0.156418 -0.18187 0.60299999 4290032286
-0.154535 -0.18156999 0.602 4290032286
-0.152657 -0.18127 0.60100001 4289834907
-0.151539 -0.18187501 0.60299999 4289703321
-0.15041099 -0.18248001 0.60500002 4289834907
-0.149271 -0.18308499 0.60699999 4289637528
-0.147634 -0.18308701 0.60699999 4289768857
-0.14551701 -0.182486 0.60500002 4289900442
-0.14341 -0.181885 0.60299999 4290228893
-0.141784 -0.181888 0.60299999 4290163100
-0.140623 -0.182493 0.60500002 4289702550
-0.138763 -0.18219399 0.60399997 4289768343
-0.137361 -0.18249901 0.60500002 4289834136
-0.13528199 -0.181898 0.60299999 4289636757
-0.133656 -0.18190099 0.60299999 4289768343
-0.13181201 -0.181602 0.602 4289505170
-0.13040499 -0.181907 0.60299999 4289374098
-0.129206 -0.182514 0.60500002 4289439891
-0.12736499 -0.18221501 0.60399997 4289374352
-0.125736 -0.182218 0.60399997 4289111180
-0.123903 -0.18192001 0.60299999 4288584582
-0.122277 -0.181923 0.60299999 4288387457
-0.120651 -0.181927 0.60299999 4288124544
-0.11942 -0.18253399 0.60500002 4288387461
-0.117789 -0.182537 0.60500002 4288453254
-0.115966 -0.182239 0.60399997 4288387461
-0.114148 -0.181941 0.60299999 4288519300
-0.112336 -0.18164299 0.602 4288519300
-0.110897 -0.18194801 0.60299999 4288190335
-0.109271 -0.181952 0.60299999 4287861370
-0.107645 -0.18195599 0.60299999 4287663738
-0.106019 -0.181959 0.60299999 4287597945
-0.104393 -0.181963 0.60299999 4287795067
-0.102937 -0.18226901 0.60399997 4287465848
-0.10114 -0.181971 0.60299999 4287531895
-0.099678896 -0.182276 0.60399997 4287334516
-0.098049901 -0.18228 0.60399997 4287070830
-0.096899703 -0.183189 0.60699999 4287005037
-0.095262401 -0.183193 0.60699999 4287070829
-0.093625098 -0.18319701 0.60699999 4287268462
-0.091987699 -0.183201 0.60699999 4286939497
-0.090499103 -0.183506 0.60799998 4287202154
-0.089151099 -0.18411399 0.61000001 4287399531
-0.0875054 -0.184118 0.61000001 4286610785
-0.085859597 -0.184121 0.61000001 4286413152
-0.084213696 -0.18412501 0.61000001 4286478945
-0.082432397 -0.183827 0.60900003 4286478692
-0.080656402 -0.183529 0.60799998 4286676072
-0.0791457 -0.183834 0.60900003 4286742125
-0.077502199 -0.18383799 0.60900003 4286873711
-0.075983196 -0.18414301 0.61000001 4287070576
-0.074214898 -0.183845 0.60900003 4287136623
-0.072690398 -0.18415099 0.61000001 4287005037
-0.071043901 -0.184154 0.61000001 4287136108
-0.0692835 -0.183856 0.60900003 4286872936
-0.067750603 -0.18416101 0.61000001 4286807658
-0.066103801 -0.184164 0.61000001 4286939244
-0.064562701 -0.184469 0.611 4286938990
-0.062913097 -0.18447299 0.611 4286281574
-0.061263401 -0.184476 0.611 4286215781
-0.0596136 -0.184479 0.611 4287005551
-0.058153499 -0.185086 0.61299998 4286413414
-0.0564982 -0.18508901 0.61299998 4286018655
-0.0548428 -0.185092 0.61299998 4286939243
-0.053013898 -0.18449099 0.611 4286741864
-0.051279701 -0.184192 0.61000001 4286808172
-0.049632199 -0.184194 0.61000001 4286676586
-0.0479846 -0.18419699 0.61000001 4286347880
-0.0464889 -0.18480299 0.61199999 4286676845
-0.044835798 -0.184806 0.61199999 4286742638
-0.043182701 -0.184808 0.61199999 4286742636
-0.041461602 -0.18450899 0.611 4287071601
-0.039811 -0.18451101 0.611 4286939758
-0.038222902 -0.184815 0.61199999 4286347621
-0.036569498 -0.184817 0.61199999 4286478953
-0.034859002 -0.184517 0.611 4286478439
-0.033153798 -0.18421701 0.61000001 4285952095
-0.031557299 -0.184521 0.611 4286742125
-0.0299065 -0.184523 0.611 4286939504
-0.028209301 -0.184223 0.61000001 4286216294
-0.0266481 -0.184828 0.61199999 4286545259
-0.025076101 -0.185434 0.61400002 4282992182
-0.023531299 -0.186341 0.61699998 4284571730
-0.021793099 -0.185738 0.61500001 4282728505
-0.0200985 -0.18543801 0.61400002 4284768084
-0.0183792 -0.184835 0.61199999 4286150232
-0.0167253 -0.184836 0.61199999 4286084684
-0.015096 -0.185139 0.61299998 4286674788
-0.0133955 -0.184535 0.611 4286477662
-0.011725 -0.18423399 0.61000001 4286281052
-0.0100269 -0.183329 0.60699999 4285951057
-0.00840024 -0.183631 0.60799998 4285030471
-0.00675704 -0.183632 0.60799998 4286346331
-0.0051222499 -0.183934 0.60900003 4286412638
-0.0034763401 -0.183934 0.60900003 4286478945
-0.00182741 -0.183633 0.60799998 4286347620
-0.00018449299 -0.183935 0.60900003 4285953375
0.00146623 -0.18453901 0.611 4286084708
0.0031226601 -0.18484101 0.61199999 4285689695
0.0047532702 -0.183934 0.60900003 4284440660
0.0062941001 -0.180914 0.59899998 4284967263
0.0078469198 -0.17940301 0.59399998 4284703577
0.0094204396 -0.178799 0.59200001 4283255616
0.0110204 -0.178798 0.59200001 4283123768
0.012599 -0.178495 0.59100002 4283057718
0.0141481 -0.17789 0.58899999 4282925617
0.015713099 -0.177587 0.588 4282991924
0.0173022 -0.177586 0.588 4282465838
0.0189876 -0.178491 0.59100002 4281149978
0.0206195 -0.178792 0.59200001 4280886806
0.0221442 -0.178187 0.58999997 4281216285
0.0237385 -0.178186 0.58999997 4281610784
0.0252898 -0.177882 0.58899999 4281347612
0.0268357 -0.177579 0.588 4282333994
0.0284245 -0.177577 0.588 4282399787
0.0300133 -0.17757601 0.588 4281347099
0.0317095 -0.178178 0.58999997 4281084440
0.033247098 -0.177874 0.58899999 4280886808
0.034838401 -0.177872 0.58899999 4281413152
0.0363678 -0.177568 0.588 4281149980
0.037891801 -0.177264 0.58700001 4281478688
0.039477501 -0.17726199 0.58700001 4282399273
0.041063201 -0.17726 0.58700001 4282399273
0.042721499 -0.177559 0.588 4282399273
0.044309799 -0.17755701 0.588 4282465320
0.045898002 -0.177554 0.588 4282136355
0.047405399 -0.17725 0.58700001 4282136355
0.048907299 -0.176945 0.58600003 4282267940
0.050576098 -0.17724501 0.58700001 4282202147
0.052161299 -0.177242 0.58700001 4282465319
0.053654999 -0.176937 0.58600003 4282399010
0.055237401 -0.176934 0.58600003 4282859816
0.0568197 -0.17693099 0.58600003 4282464796
0.058402002 -0.176928 0.58600003 4282398489
0.0599842 -0.176925 0.58600003 4282463512
0.061566301 -0.17692199 0.58600003 4282530075
0.063363902 -0.177523 0.588 4282529568
0.065282702 -0.178425 0.59100002 4282332705
0.067330703 -0.17963 0.59500003 4282135071
0.069863699 -0.182042 0.60299999 4281083153
0.071965598 -0.183246 0.60699999 4281543704
0.073725201 -0.183544 0.60799998 4281741083
0.075366199 -0.18354 0.60799998 4282070048
0.077007003 -0.18353701 0.60799998 4281806875
0.078777201 -0.183835 0.60900003 4281806875
0.080552697 -0.18413299 0.61000001 4281872668
0.082198799 -0.18413 0.61000001 4282004252
0.083982199 -0.18442801 0.611 4282004252
0.085490599 -0.184122 0.61000001 4281741596
0.087422103 -0.18472201 0.61199999 4281676064
0.088927701 -0.184416 0.611 4280820755
0.090576097 -0.184413 0.611 4279900166
0.091922499 -0.183805 0.60900003 4281610529
0.093718998 -0.184103 0.61000001 4281939236
0.0956771 -0.18470301 0.61199999 4282004515
0.097327799 -0.184699 0.61199999 4282661670
0.098655097 -0.184092 0.61000001 4283055912
0.100136 -0.183786 0.60900003 4282398235
0.101945 -0.184084 0.61000001 4282464282
0.103421 -0.183778 0.60900003 4282661407
0.104891 -0.18347301 0.60799998 4282530335
0.10653 -0.183469 0.60799998 4282398751
0.10817 -0.183465 0.60799998 4282793509
0.11017 -0.184065 0.61000001 4282201634
0.111449 -0.183458 0.60799998 4282135840
0.113088 -0.18345401 0.60799998 4282201117
0.114539 -0.183149 0.60699999 4282266910
0.116941 -0.184352 0.611 4282266910
0.118976 -0.18495201 0.61299998 4281609496
0.116693 -0.178914 0.59299999 4283124545
0.1153 -0.174385 0.57800001 4286809991
0.115645 -0.172571 0.57200003 4285296752
0.116777 -0.171965 0.56999999 4282993212
0.118106 -0.17166001 0.56900001 4283386949
0.11922 -0.17105401 0.56699997 4283321156
0.120748 -0.171051 0.56699997 4283584328
0.122277 -0.171048 0.56699997 4283452482
0.123805 -0.17104501 0.56699997 4283847240
0.12533399 -0.171042 0.56699997 4283452482
0.127086 -0.171341 0.56800002 4283715400
0.128391 -0.171037 0.56699997 4283846986
0.12946101 -0.170431 0.565 4283452482
0.13098501 -0.17042799 0.565 4283715654
0.13250799 -0.170426 0.565 4283649860
0.134031 -0.170424 0.565 4283255102
0.135074 -0.169818 0.56300002 4283518275
0.13635001 -0.169515 0.56199998 4283518275
0.13762 -0.169211 0.56099999 4283386689
0.13937999 -0.16951101 0.56199998 4283715654
0.14089601 -0.16950899 0.56199998 4283584067
0.14241099 -0.169507 0.56199998 4283255356
0.14392699 -0.169506 0.56199998 4283650374
0.14544301 -0.169505 0.56199998 4283452995
0.14722 -0.16980501 0.56300002 4283321409
0.149795 -0.17101 0.56699997 4283386942
0.15452699 -0.174629 0.579 4283321149
0.160403 -0.179454 0.59500003 4283321149
0.16527499 -0.183072 0.60699999 4283386940
0.167463 -0.18367501 0.60900003 4282663472
0.169384 -0.18397599 0.61000001 4282596652
0.17130999 -0.184278 0.611 4282464803
0.173242 -0.184579 0.61199999 4282267424
0.17460901 -0.184278 0.611 4282661921
0.176258 -0.184278 0.611 4282596382
0.177908 -0.18427899 0.611 4282990626
0.179851 -0.184581 0.61199999 4283056419
0.181207 -0.18428101 0.611 4282989856
0.183157 -0.18458401 0.61199999 4282989856
0.185112 -0.18488701 0.61299998 4283121442
0.186768 -0.18488801 0.61299998 4283384614
0.188425 -0.18489 0.61299998 4282990372
0.18946099 -0.18428899 0.611 4283056419
0.19142599 -0.18459301 0.61199999 4283056419
0.192765 -0.184294 0.611 4283122212
0.194417 -0.184297 0.611 4282859300
0.195749 -0.183999 0.61000001 4283121958
0.19739901 -0.184002 0.61000001 4282925095
0.19970199 -0.184609 0.61199999 4283319598
0.201029 -0.184311 0.611 4283253805
0.203015 -0.184617 0.61199999 4283648049
0.204338 -0.18432 0.611 4283450670
0.206329 -0.184627 0.61199999 4283253807
0.20764799 -0.18433 0.611 4283188529
0.209646 -0.184637 0.61199999 4283451701
0.21130501 -0.184643 0.61199999 4283911482
0.213312 -0.18495101 0.61299998 4283779382
0.214974 -0.184957 0.61299998 4283450672
0.21628401 -0.184662 0.61199999 4283976499
0.21794499 -0.18467 0.61199999 4283910706
0.219606 -0.184677 0.61199999 4283779890
0.22163001 -0.18498699 0.61299998 4283779890
0.223295 -0.184995 0.61299998 4283845681
0.224594 -0.184701 0.61199999 4283319337
0.225888 -0.18440901 0.611 4283318821
0.227549 -0.18441799 0.611 4283253030
0.229211 -0.18442699 0.611 4283450409
0.230496 -0.184136 0.61000001 4283121958
0.231777 -0.183844 0.60900003 4283253546
0.233052 -0.183553 0.60799998 4283253546
0.23470899 -0.18356401 0.60799998 4283319337
0.236366 -0.183576 0.60799998 4283253544
0.238416 -0.18389 0.60900003 4283384614
0.240472 -0.184204 0.61000001 4283516200
0.241741 -0.183915 0.60900003 4283581993
0.24300399 -0.183626 0.60799998 4282792993
0.24426299 -0.183338 0.60699999 4282727202
0.245113 -0.182748 0.60500002 4282792740
0.24717601 -0.183065 0.60600001 4282793001
0.24965601 -0.18368401 0.60799998 4282464806
0.25173399 -0.184002 0.60900003 4281478425
0.25215399 -0.183112 0.60600001 4282070822
0.25255901 -0.18222199 0.60299999 4282268714
0.252949 -0.18133201 0.60000002 4282137128
0.25374699 -0.18074501 0.59799999 4282597679
0.25368199 -0.179554 0.59399998 4282795058
0.25359499 -0.178363 0.58999997 4282860598
0.253488 -0.17717201 0.58600003 4282598201
0.25379401 -0.176284 0.583 4283388748
0.25452399 -0.175698 0.58099997 4284507490
0.254803 -0.17481101 0.57800001 4285363061
0.25551 -0.174226 0.57599998 4285890179
0.25352901 -0.171827 0.56800002 4286548623
0.246564 -0.1661 0.54900002 4287338139
0.24401499 -0.163397 0.54000002 4287667618
0.240962 -0.160392 0.52999997 4288522925
0.23876999 -0.15799201 0.52200001 4284707701
0.235615 -0.15498701 0.51200002 4289639860
0.235183 -0.153797 0.50800002 4285296491
0.23659299 -0.15381899 0.50800002 4283584329
0.238004 -0.153841 0.50800002 4283912779
0.23894501 -0.15356199 0.50700003 4283979079
0.23988201 -0.153282 0.50599998 4283387456
0.241291 -0.15330601 0.50599998 4283519042
0.24270201 -0.153331 0.50599998 4283519042
0.243632 -0.153053 0.505 4283322179
0.24407201 -0.152472 0.50300002 4283519042
0.245967 -0.15280201 0.50400001 4283453249
0.24737699 -0.15282799 0.50400001 4283255870
0.249777 -0.15346199 0.50599998 4283190591
0.2507 -0.15318701 0.505 4283387970
0.25161901 -0.152913 0.50400001 4283453763
0.25303501 -0.152942 0.50400001 4283388486
0.254958 -0.153275 0.505 4283322438
0.25688899 -0.15360899 0.50599998 4283848268
0.257806 -0.153337 0.505 4283979340
0.25871801 -0.153065 0.50400001 4283321663
0.25962701 -0.152794 0.50300002 4283650628
0.26157001 -0.15313099 0.50400001 4283913800
0.262999 -0.153165 0.50400001 4283781961
0.26547799 -0.153808 0.50599998 4283715914
0.26849899 -0.154755 0.509 4283650122
0.27790201 -0.159353 0.52399999 4283650122
0.29379201 -0.167604 0.551 4283584328
0.310909 -0.176469 0.57999998 4283979340
0.31741601 -0.179252 0.58899999 4283584328
0.32018501 -0.179906 0.59100002 4283650122
0.32242301 -0.18025699 0.59200001 4283452743
0.325216 -0.180914 0.59399998 4284636249
0.327474 -0.18126801 0.59500003 4283452735
0.32918599 -0.181317 0.59500003 4283452981
0.330901 -0.18136799 0.59500003 4283254574
0.33261901 -0.18142 0.59500003 4282859816
0.33490101 -0.181777 0.59600002 4283254319
0.33662701 -0.181831 0.59600002 4283056940
0.33892399 -0.182191 0.597 4283188781
0.34065899 -0.182247 0.597 4283122986
0.34297001 -0.18260901 0.59799999 4283385644
0.34529001 -0.182972 0.59899998 4283320105
0.34703901 -0.18303201 0.59899998 4283056933
0.34821001 -0.182786 0.59799999 4283254572
0.350548 -0.183153 0.59899998 4282925607
0.35230699 -0.18321601 0.59899998 4282794537
0.35406899 -0.18327899 0.59899998 4283056940
0.35642901 -0.18365 0.60000002 4282859816
0.358201 -0.183716 0.60000002 4283583023
0.35997701 -0.18378399 0.60000002 4283648556
0.361756 -0.183852 0.60000002 4283581993
0.36414501 -0.184228 0.60100001 4283253028
0.36654299 -0.184606 0.602 4283253028
0.368339 -0.184678 0.602 4284043574
0.369524 -0.18444499 0.60100001 4283846709
0.37070701 -0.184212 0.60000002 4283978297
0.37312999 -0.184595 0.60100001 4284109883
0.37493899 -0.184673 0.60100001 4284109116
0.37737799 -0.185059 0.602 4283385644
0.37919801 -0.185139 0.602 4283912495
0.38102299 -0.18522 0.602 4283583529
0.382851 -0.185303 0.602 4283715116
0.38468501 -0.185387 0.602 4283189547
0.387164 -0.185781 0.60299999 4280689169
0.389009 -0.18586899 0.60299999 4280229125
0.39021099 -0.18564899 0.602 4283782459
0.39206201 -0.185739 0.602 4283979326
0.39391899 -0.185831 0.602 4284308291
0.39643699 -0.186233 0.60299999 4283979326
0.39830601 -0.186327 0.60299999 4284176956
0.401508 -0.187042 0.60500002 4284308542
0.40339401 -0.18714 0.60500002 4283914041
0.40528399 -0.18724 0.60500002 4284571714
0.40718099 -0.187342 0.60500002 4284440385
0.40908301 -0.187445 0.60500002 4284506178
0.41099 -0.18754999 0.60500002 4284966729
0.41290301 -0.187657 0.60500002 4284900936
0.414821 -0.187765 0.60500002 4284703557
0.41812399 -0.18849599 0.60699999 4284900679
0.42006001 -0.188609 0.60699999 4284571714
0.42130801 -0.188412 0.60600001 4284637762
0.421857 -0.187905 0.60399997 4284636993
0.423803 -0.188023 0.60399997 4284834374
-0.199426 -0.184139 0.60500002 4290492332
-0.197789 -0.184135 0.60500002 4290624172
-0.19582701 -0.183827 0.60399997 4290624170
-0.19355001 -0.18321399 0.602 4290558632
-0.191921 -0.183211 0.602 4290624425
-0.190293 -0.183208 0.602 4290558632
-0.188665 -0.18320499 0.602 4290492839
-0.187038 -0.183202 0.602 4290427046
-0.185718 -0.183504 0.60299999 4290492839
-0.184089 -0.183502 0.60299999 4290624684
-0.182459 -0.18350001 0.60299999 4290427305
-0.18083 -0.183498 0.60299999 4290427305
-0.179498 -0.183801 0.60399997 4290295721
-0.178161 -0.184104 0.60500002 4290361514
-0.17652801 -0.184103 0.60500002 4290426793
-0.174316 -0.183494 0.60299999 4290426793
-0.172115 -0.18288399 0.60100001 4290624172
-0.17049301 -0.18288399 0.60100001 4290426793
-0.169432 -0.183492 0.60299999 4290558379
-0.16836099 -0.184101 0.60500002 4290360998
-0.166729 -0.184101 0.60500002 4289966495
-0.16455001 -0.183493 0.60299999 4290163874
-0.16292299 -0.183493 0.60299999 4290427046
-0.161296 -0.183494 0.60299999 4290361253
-0.159935 -0.183799 0.60399997 4290230181
-0.158043 -0.183495 0.60299999 4290164388
-0.155898 -0.182888 0.60100001 4289966493
-0.15402 -0.182585 0.60000002 4290032286
-0.152402 -0.182586 0.60000002 4290032541
-0.151035 -0.18289199 0.60100001 4290032541
-0.149663 -0.183198 0.602 4290032286
-0.148531 -0.183808 0.60399997 4290032286
-0.14690299 -0.18381 0.60399997 4289834909
-0.145034 -0.18350799 0.60299999 4289834907
-0.14317 -0.18320601 0.602 4289505685
-0.14154699 -0.183208 0.602 4289374605
-0.140156 -0.183515 0.60299999 4289571477
-0.138301 -0.183213 0.602 4289637271
-0.136678 -0.18321501 0.602 4289439892
-0.13505501 -0.183218 0.602 4289439377
-0.133432 -0.183221 0.602 4289505424
-0.131809 -0.18322299 0.602 4289242252
-0.13018601 -0.183226 0.602 4289176973
-0.128776 -0.183534 0.60299999 4289308563
-0.127151 -0.18353701 0.60299999 4289176977
-0.125525 -0.18354 0.60299999 4289176977
-0.123899 -0.183543 0.60299999 4289176977
-0.122274 -0.18354601 0.60299999 4289045646
-0.120648 -0.18355 0.60299999 4288848267
-0.119022 -0.183553 0.60299999 4288979594
-0.117396 -0.18355601 0.60299999 4288913547
-0.115579 -0.183255 0.602 4288650888
-0.113955 -0.183259 0.602 4288716422
-0.112519 -0.183567 0.60299999 4288650629
-0.111077 -0.18387499 0.60399997 4288584582
-0.109267 -0.18357401 0.60299999 4288453250
-0.107462 -0.183273 0.602 4288518789
-0.105839 -0.183277 0.602 4288189824
-0.104389 -0.183585 0.60299999 4288124032
-0.102933 -0.183893 0.60399997 4288058239
-0.101136 -0.18359201 0.60299999 4287926139
-0.099345103 -0.183291 0.602 4287662966
-0.097883798 -0.18359999 0.60299999 4287465587
-0.096736297 -0.184517 0.60600001 4287860346
-0.095101699 -0.184521 0.60600001 4287794038
-0.093467101 -0.184524 0.60600001 4287663220
-0.091832399 -0.18452799 0.60600001 4287400048
-0.0903465 -0.184836 0.60699999 4287531119
-0.089001201 -0.185449 0.60900003 4287268199
-0.087214798 -0.185148 0.60799998 4286544990
-0.0857151 -0.18545599 0.60900003 4287268199
-0.084072001 -0.18546 0.60900003 4287399785
-0.082428701 -0.18546399 0.60900003 4287399533
-0.080652803 -0.18516301 0.60799998 4287333485
-0.079141997 -0.185471 0.60900003 4287333487
-0.0774986 -0.18547399 0.60900003 4287201901
-0.076104201 -0.186087 0.611 4287268208
-0.074455097 -0.18609101 0.611 4287071083
-0.072686903 -0.185789 0.61000001 4287465326
-0.070923999 -0.185488 0.60900003 4287465324
-0.069393903 -0.18579599 0.61000001 4287597164
-0.067858301 -0.186104 0.611 4287400048
-0.066208899 -0.18610799 0.611 4287399541
-0.064453803 -0.18580601 0.61000001 4287465344
-0.062806897 -0.185809 0.61000001 4287202677
-0.061260302 -0.18611699 0.611 4287136883
-0.059610602 -0.18612 0.611 4286873965
-0.057960801 -0.186123 0.611 4287137136
-0.0563109 -0.18612599 0.611 4287070829
-0.054660998 -0.186129 0.611 4287202669
-0.052924301 -0.185827 0.61000001 4287136876
-0.051192898 -0.185525 0.60900003 4287005037
-0.049629498 -0.18583301 0.61000001 4287136883
-0.047982 -0.185835 0.61000001 4287137396
-0.046334501 -0.185838 0.61000001 4287071603
-0.044760101 -0.18614499 0.611 4287005810
-0.0431097 -0.186147 0.611 4286808431
-0.041391499 -0.185845 0.61000001 4287071601
-0.039678499 -0.185542 0.60900003 4286940015
-0.0380334 -0.185545 0.60900003 4287203187
-0.036447901 -0.18585099 0.61000001 4286939762
-0.034742899 -0.18554901 0.60900003 4287137141
-0.033097599 -0.185551 0.60900003 4287005555
-0.031452298 -0.185552 0.60900003 4287137141
-0.029806901 -0.185554 0.60900003 4286545004
-0.028161401 -0.18555599 0.60900003 4286545518
-0.026646599 -0.186471 0.61199999 4285098074
-0.025115499 -0.187387 0.61500001 4280558873
-0.023530001 -0.187998 0.61699998 4280953890
-0.0216856 -0.18647601 0.61199999 4279965966
-0.0199991 -0.18617199 0.611 4282399540
-0.018317999 -0.185868 0.61000001 4286478953
-0.016697001 -0.18617401 0.611 4286807657
-0.0150459 -0.186175 0.611 4286807396
-0.0133947 -0.186176 0.611 4286741601
-0.0117243 -0.185872 0.61000001 4286938466
-0.0100428 -0.18526299 0.60799998 4285754446
-0.0083859302 -0.18495899 0.60699999 4286280022
-0.0067455298 -0.18495899 0.60699999 4286412124
-0.0051219501 -0.185569 0.60900003 4286675810
-0.0034761301 -0.185569 0.60900003 4286347360
-0.0018272999 -0.185265 0.60799998 4286479206
-0.00018448201 -0.18557 0.60900003 4286413926
0.00146134 -0.18557 0.60900003 4286150754
0.00311227 -0.185874 0.61000001 4285295445
0.0047529899 -0.185569 0.60900003 4285032534
0.00632525 -0.18343601 0.602 4283519040
0.0078860903 -0.181912 0.597 4285163360
0.0094517097 -0.180997 0.59399998 4283321410
0.0110383 -0.180692 0.59299999 4282992184
0.0126409 -0.180691 0.59299999 4282991927
0.0141473 -0.179472 0.58899999 4282728755
0.015738901 -0.179471 0.58899999 4282926134
0.0173012 -0.17916501 0.588 4282728755
0.0190186 -0.180383 0.59200001 4282400045
0.020583499 -0.180077 0.59100002 4282663472
0.022180401 -0.180076 0.59100002 4282466093
0.023696899 -0.179465 0.58899999 4282202921
0.025288399 -0.179464 0.58899999 4282202921
0.026834199 -0.179158 0.588 4282137128
0.0284712 -0.179461 0.58899999 4282334507
0.0300116 -0.17915399 0.588 4281742115
0.0317614 -0.180067 0.59100002 4282268459
0.033358101 -0.18006501 0.59100002 4281939496
0.034895599 -0.179758 0.58999997 4282268207
0.036489502 -0.179756 0.58999997 4282333997
0.0378897 -0.17884 0.58700001 4282597167
0.039542601 -0.179143 0.588 4282399273
0.041060898 -0.178836 0.58700001 4282267941
0.042791799 -0.179443 0.58899999 4282267941
0.044382699 -0.179441 0.58899999 4282531113
0.045973599 -0.17943799 0.58899999 4282202148
0.047483601 -0.179131 0.588 4282531113
0.048904698 -0.178519 0.58600003 4282333733
0.050573401 -0.178821 0.58700001 4282596905
0.052158602 -0.178818 0.58700001 4282333733
0.053743701 -0.17881601 0.58700001 4282333472
0.055234499 -0.178508 0.58600003 4282399263
0.057010699 -0.179115 0.588 4282398749
0.058498699 -0.17880701 0.58700001 4282398489
0.060083501 -0.178804 0.58700001 4282331928
0.061668299 -0.178801 0.58700001 4282464030
0.063576303 -0.179712 0.58999997 4282529568
0.065389901 -0.180318 0.59200001 4282267427
0.067666903 -0.182142 0.59799999 4282004255
0.069976203 -0.183966 0.60399997 4280754188
0.072080702 -0.18518101 0.60799998 4281215253
0.073479198 -0.184569 0.60600001 4281938462
0.075238697 -0.18487 0.60699999 4282004255
0.076750197 -0.184562 0.60600001 4281741082
0.078773603 -0.185472 0.60900003 4281806875
0.080417 -0.185468 0.60900003 4282003740
0.0820603 -0.18546399 0.60900003 4281741082
0.083566204 -0.185156 0.60799998 4281872668
0.085206598 -0.18515299 0.60799998 4281938976
0.086989902 -0.185453 0.60900003 4281741857
0.088923998 -0.186059 0.611 4281215513
0.090572298 -0.186055 0.611 4279900166
0.0920697 -0.185747 0.61000001 4280886806
0.0935615 -0.18543901 0.60900003 4281939237
0.095516898 -0.18604399 0.611 4282069794
0.097165003 -0.18604 0.611 4282332189
0.098489597 -0.185427 0.60900003 4282464030
0.099967703 -0.185119 0.60799998 4282397721
0.101607 -0.18511499 0.60799998 4282660891
0.103247 -0.185112 0.60799998 4282529821
0.104887 -0.18510801 0.60799998 4282595614
0.106526 -0.185104 0.60799998 4282727202
0.108166 -0.185101 0.60799998 4282792995
0.109805 -0.18509699 0.60799998 4282727463
0.111262 -0.184789 0.60699999 4282464291
0.113084 -0.18509001 0.60799998 4282201372
0.114535 -0.184782 0.60699999 4282464030
0.116937 -0.185996 0.611 4282332444
0.118585 -0.185992 0.611 4282070045
0.1161 -0.17959601 0.58999997 4283519305
0.115297 -0.17594001 0.57800001 4286809991
0.11544 -0.173806 0.57099998 4283389009
0.116979 -0.173803 0.57099998 4282861626
0.118103 -0.17319199 0.56900001 4283321410
0.119637 -0.173189 0.56900001 4283452996
0.121171 -0.173186 0.56900001 4283321410
0.122921 -0.17348699 0.56999999 4283584582
0.124239 -0.17318 0.56900001 4283650375
0.125773 -0.173177 0.56900001 4283518275
0.127084 -0.17287099 0.56800002 4283452228
0.128841 -0.173172 0.56900001 4283583814
0.129917 -0.172561 0.56699997 4283583815
0.131678 -0.17286301 0.56800002 4283649608
0.132975 -0.172557 0.56699997 4283649861
0.13450301 -0.172555 0.56699997 4283650114
0.135552 -0.17194401 0.565 4283386689
0.13707601 -0.171942 0.565 4283518275
0.13859899 -0.17194 0.565 4283716168
0.14012299 -0.171939 0.565 4283518275
0.14114501 -0.17132799 0.56300002 4283649860
0.142663 -0.17132699 0.56300002 4283386688
0.144182 -0.171326 0.56300002 4283255616
0.14569999 -0.171324 0.56300002 4283189823
0.14748 -0.171628 0.56400001 4283452995
0.15058701 -0.173453 0.56999999 4283452995
0.15586101 -0.17771199 0.58399999 4283518528
0.16175 -0.18257999 0.60000002 4283518528
0.165547 -0.18501399 0.60799998 4283189561
0.167463 -0.18531799 0.60900003 4282926644
0.16910601 -0.18531799 0.60900003 4282464805
0.17075001 -0.18531799 0.60900003 4282727975
0.17296 -0.185927 0.611 4282662437
0.17460901 -0.185927 0.611 4282465056
0.176259 -0.185928 0.611 4282596382
0.177617 -0.185624 0.61000001 4283056419
0.17955799 -0.18593 0.611 4282727454
0.181209 -0.185931 0.611 4282792477
0.183458 -0.18654101 0.61299998 4282924063
0.185114 -0.186543 0.61299998 4283055649
0.18646599 -0.18624 0.61199999 4282859040
0.18811899 -0.186243 0.61199999 4282793507
0.189464 -0.185941 0.611 4282925347
0.19142801 -0.186248 0.61199999 4282990626
0.192452 -0.185642 0.61000001 4282990372
0.19441999 -0.185949 0.611 4282793507
0.196073 -0.18595301 0.611 4282925095
0.197726 -0.185956 0.611 4283254060
0.199706 -0.18626501 0.61199999 4283254319
0.201362 -0.186269 0.61199999 4283319598
0.20301899 -0.18627401 0.61199999 4283253805
0.204008 -0.18567 0.61000001 4283516726
0.20566 -0.185675 0.61000001 4283582772
0.206973 -0.185376 0.60900003 4283583287
0.208966 -0.18568601 0.61000001 4283451701
0.21062 -0.185692 0.61000001 4283779896
0.212274 -0.185698 0.61000001 4283384624
0.213929 -0.18570501 0.61000001 4283582258
0.21558399 -0.18571199 0.61000001 4283844913
0.21724001 -0.185719 0.61000001 4283581742
0.219255 -0.186032 0.611 4283384877
0.220915 -0.18604 0.611 4283516463
0.222939 -0.186353 0.61199999 4283516718
0.224235 -0.186057 0.611 4283582511
0.225897 -0.186066 0.611 4283450923
0.22718599 -0.185771 0.61000001 4283384616
0.228846 -0.185781 0.61000001 4283713579
0.230507 -0.185792 0.61000001 4283581993
0.231787 -0.185498 0.60900003 4283581995
0.233447 -0.185509 0.60900003 4283713581
0.23472001 -0.18521599 0.60799998 4283384616
0.23676699 -0.185532 0.60900003 4283516200
0.23882 -0.18584999 0.61000001 4283319591
0.240485 -0.185862 0.61000001 4283385384
0.241754 -0.185571 0.60900003 4283122212
0.24261799 -0.184975 0.60699999 4283385384
0.24347299 -0.18437999 0.60500002 4283187751
0.24512701 -0.184394 0.60500002 4282858533
0.246783 -0.18440901 0.60500002 4282990635
0.24926101 -0.18503501 0.60699999 4282727208
0.25092301 -0.18505099 0.60699999 4281741343
0.25217101 -0.184762 0.60600001 4281939236
0.25257599 -0.183865 0.60299999 4282334507
0.25296599 -0.18296701 0.60000002 4282268714
0.25376499 -0.182375 0.59799999 4282597679
0.254127 -0.18147799 0.59500003 4282795058
0.254044 -0.180277 0.59100002 4282663219
0.253939 -0.179076 0.58700001 4282400822
0.25381401 -0.177875 0.583 4283520334
0.25454399 -0.177284 0.58099997 4284639075
0.254823 -0.17638899 0.57800001 4285494901
0.25597399 -0.17610499 0.57700002 4285955455
0.25354999 -0.173379 0.56800002 4286877072
0.247034 -0.167906 0.55000001 4287140244
0.24494 -0.165484 0.542 4287535516
0.24189299 -0.162452 0.53200001 4288193701
0.23924901 -0.15972599 0.523 4284706931
0.23701701 -0.157304 0.51499999 4289573813
0.23659401 -0.156104 0.51099998 4284506461
0.238013 -0.15612701 0.51099998 4283847501
0.23943301 -0.15615 0.51099998 4283715654
0.239911 -0.155562 0.509 4283584321
0.240854 -0.15528101 0.50800002 4283452733
0.24274699 -0.15561099 0.509 4283189561
0.244646 -0.15594199 0.50999999 4283518526
0.24558701 -0.155662 0.509 4283979079
0.246039 -0.155077 0.50700003 4284045132
0.24697 -0.154798 0.50599998 4283782214
0.248877 -0.155131 0.50700003 4283979593
0.251286 -0.155771 0.509 4283848005
0.25221801 -0.155494 0.50800002 4283848005
0.25314599 -0.15521701 0.50700003 4283519556
0.254069 -0.15494099 0.50599998 4283585865
0.255494 -0.154972 0.50599998 4283519817
0.25692001 -0.155003 0.50599998 4283848268
0.25834799 -0.155035 0.50599998 4283716937
0.25977799 -0.155067 0.50599998 4283781960
0.26069301 -0.15479399 0.505 4283650628
0.26212299 -0.154828 0.505 4284045132
0.26407701 -0.155169 0.50599998 4283979856
0.266563 -0.155818 0.50800002 4283715915
0.27064499 -0.157388 0.51300001 4283452743
0.28112301 -0.162643 0.52999997 4283452743
0.29756501 -0.171276 0.55800003 4283650636
0.313097 -0.17930099 0.58399999 4283650636
0.318001 -0.181189 0.58999997 4283650636
0.32023099 -0.18154299 0.59100002 4283386950
0.321381 -0.181283 0.58999997 4283649608
0.32416999 -0.18194599 0.59200001 4284044366
0.32642299 -0.182302 0.59299999 4283452733
0.32868299 -0.18266 0.59399998 4283649846
0.33039701 -0.182712 0.59399998 4283781432
0.33211201 -0.18276399 0.59399998 4283188781
0.33383101 -0.182818 0.59399998 4282531366
0.336117 -0.18318 0.59500003 4282531366
0.33784401 -0.183236 0.59500003 4283188526
0.34014499 -0.18359999 0.59600002 4283057195
0.34187999 -0.183658 0.59600002 4283319851
0.34361899 -0.183717 0.59600002 4283122472
0.34594101 -0.184085 0.597 4283122726
0.34710601 -0.183837 0.59600002 4283122472
0.350025 -0.184517 0.59799999 4283057193
0.35178199 -0.18458 0.59799999 4283057193
0.35413399 -0.184953 0.59899998 4283057195
0.355901 -0.185019 0.59899998 4283648556
0.35767099 -0.185086 0.59899998 4283714349
0.35944501 -0.18515401 0.59899998 4283845935
0.36122301 -0.185224 0.59899998 4283911728
0.36360899 -0.18560299 0.60000002 4283648555
0.36600599 -0.185985 0.60100001 4282793761
0.36780101 -0.186058 0.60100001 4282990886
0.36959901 -0.186133 0.60100001 4283648826
0.370783 -0.185899 0.60000002 4284109628
0.37258601 -0.185976 0.60000002 4283517491
0.37376899 -0.185744 0.59899998 4283715123
0.37620401 -0.186134 0.60000002 4283846963
0.37801999 -0.186215 0.60000002 4283715377
0.38047299 -0.186608 0.60100001 4283978802
0.38229999 -0.186692 0.60100001 4283649583
0.38413101 -0.186777 0.60100001 4283451951
0.38596699 -0.186864 0.60100001 4282991916
0.38651699 -0.18633001 0.59899998 4279900164
0.388356 -0.18641999 0.59899998 4282400300
0.39085099 -0.186822 0.60000002 4284112433
0.392703 -0.186915 0.60000002 4284505670
0.395217 -0.18732101 0.60100001 4284637509
0.39642099 -0.187105 0.60000002 4284769093
0.39895099 -0.18751401 0.60100001 4284834886
0.400159 -0.18730099 0.60000002 4284308799
0.402706 -0.187714 0.60100001 4284177213
0.40459099 -0.18781599 0.60100001 4284769350
0.40783501 -0.188546 0.60299999 4284440385
0.409058 -0.18833899 0.602 4284506178
0.410963 -0.188447 0.602 4284703559
0.41287401 -0.188556 0.602 4284769352
0.41685799 -0.18960699 0.60500002 4284571716
0.418098 -0.18940701 0.60399997 4284637507
0.42003301 -0.189523 0.60399997 4284308542
0.421276 -0.189326 0.60299999 4284768579
0.42322001 -0.18944401 0.60299999 4284571716
-0.19973999 -0.184553 0.60100001 4288518794
-0.19778299 -0.184242 0.60000002 4289308565
-0.195831 -0.18392999 0.59899998 4289637530
-0.193886 -0.18361899 0.59799999 4289966495
-0.192589 -0.18392199 0.59899998 4290032288
-0.191287 -0.18422499 0.60000002 4290361253
-0.19029599 -0.184836 0.602 4290295458
-0.188668 -0.18483301 0.602 4290427044
-0.186419 -0.18421599 0.60000002 4290492837
-0.184489 -0.183906 0.59899998 4290558632
-0.18287 -0.18390401 0.59899998 4290295460
-0.18155301 -0.18420801 0.60000002 4290360998
-0.179932 -0.18420701 0.60000002 4290163619
-0.17831101 -0.184205 0.60000002 4290229928
-0.176985 -0.18450999 0.60100001 4290558125
-0.175653 -0.184816 0.602 4290492332
-0.173738 -0.184508 0.60100001 4290426539
-0.171257 -0.183586 0.59799999 4290427053
-0.169358 -0.18327799 0.597 4290229928
-0.16774701 -0.18327799 0.597 4290558379
-0.166692 -0.183892 0.59899998 4290361512
-0.165075 -0.183892 0.59899998 4290361512
-0.163186 -0.183585 0.59799999 4290295205
-0.161302 -0.18327799 0.597 4290229667
-0.159958 -0.183585 0.59799999 4290163874
-0.15861 -0.183893 0.59899998 4290098081
-0.15673199 -0.183587 0.59799999 4290032288
-0.155119 -0.183588 0.59799999 4289966495
-0.153249 -0.183282 0.597 4290295460
-0.151638 -0.183283 0.597 4290295460
-0.15002801 -0.183284 0.597 4290229665
-0.14866699 -0.183593 0.59799999 4290032288
-0.1473 -0.183901 0.59899998 4289769116
-0.145685 -0.18390299 0.59899998 4290163874
-0.14431 -0.184212 0.60000002 4290294953
-0.142454 -0.183907 0.59899998 4290032288
-0.141074 -0.18421599 0.60000002 4289900702
-0.139456 -0.184218 0.60000002 4289769116
-0.137839 -0.18422 0.60000002 4289769116
-0.13622101 -0.184223 0.60000002 4289703321
-0.13460299 -0.18422499 0.60000002 4289834649
-0.13298599 -0.184228 0.60000002 4289505424
-0.131587 -0.18453699 0.60100001 4289439630
-0.12953401 -0.183926 0.59899998 4289374352
-0.128133 -0.184236 0.60000002 4289242770
-0.126304 -0.18393201 0.59899998 4289571735
-0.124897 -0.184242 0.60000002 4288914321
-0.123485 -0.184552 0.60100001 4289176979
-0.121662 -0.184248 0.60000002 4289111439
-0.119844 -0.183944 0.59899998 4288914060
-0.118427 -0.18425401 0.60000002 4288782215
-0.116614 -0.18395101 0.59899998 4288650629
-0.114999 -0.183954 0.59899998 4288650375
-0.113384 -0.183957 0.59899998 4288781961
-0.111769 -0.183961 0.59899998 4288781961
-0.110338 -0.18427099 0.60000002 4288716168
-0.10872 -0.184275 0.60000002 4288650375
