# .PCD v0.7 - Point Cloud Data file format
VERSION 0.7
FIELDS x y z rgb
SIZE 4 4 4 4
TYPE F F F U
COUNT 1 1 1 1
WIDTH 1210
HEIGHT 1
VIEWPOINT 0 0 0 1 0 0 0
POINTS 1210
DATA ascii
0.345366 0.46067199 1.0549999 4290560708
0.34726501 0.459405 1.052 4290758091
0.34915 0.45813999 1.049 4290824654
0.350683 0.456438 1.045 4290429896
0.35185799 0.45429999 1.04 4290231747
0.35334799 0.4526 1.036 4290560709
0.354817 0.45089999 1.0319999 4290429122
0.35661301 0.44963801 1.029 4289376172
0.35839301 0.448376 1.026 4288191898
0.36050999 0.44755301 1.024 4288586402
0.363327 0.447604 1.024 4288849828
0.36686099 0.448531 1.026 4287205003
0.370408 0.44945899 1.028 4286613379
0.37469301 0.45126301 1.0319999 4284705122
0.37973401 0.453944 1.038 4285099880
0.38665199 0.45881301 1.049 4284310363
0.39920399 0.47024599 1.075 4283783759
0.41676399 0.487371 1.114 4283652172
0.42926499 0.498375 1.1390001 4283717451
0.435453 0.50194502 1.147 4282401581
0.43977499 0.50332898 1.15 4282335021
0.44411501 0.50471401 1.153 4282466093
0.44808701 0.50566399 1.155 4281874215
0.45168099 0.50617701 1.156 4282466607
0.454889 0.50625402 1.156 4282664501
0.45809999 0.50633299 1.156 4282270003
0.461712 0.50685102 1.1569999 4281743661
0.465332 0.50737101 1.158 4282598970
0.46855599 0.50745499 1.158 4282138419
0.471782 0.50753897 1.158 4281414180
0.47419 0.50674897 1.156 4282137389
0.477828 0.507276 1.1569999 4282268721
0.48106 0.507366 1.1569999 4282795319
0.48429301 0.50745702 1.1569999 4282335282
0.486687 0.50667298 1.155 4282598454
0.48949701 0.506329 1.154 4282269743
0.492731 0.50642502 1.154 4282138156
0.49510801 0.50564599 1.152 4282598707
0.49877501 0.506185 1.153 4282664500
-0.197721 0.46518001 1.075 4288256672
-0.194451 0.46430501 1.073 4287401363
-0.191193 0.46342999 1.071 4287796121
-0.188297 0.46342099 1.071 4287335568
-0.18557499 0.46384501 1.072 4286875017
-0.183018 0.464701 1.074 4287795605
-0.180115 0.46469301 1.074 4288125084
-0.177047 0.464252 1.073 4287599256
-0.17414699 0.46424499 1.073 4288717737
-0.17124701 0.464237 1.073 4288849323
-0.168504 0.464663 1.074 4287994528
-0.16529401 0.46379101 1.072 4288126114
-0.162246 0.46335101 1.071 4288915630
-0.15920299 0.46291199 1.0700001 4288389287
-0.156312 0.462906 1.0700001 4288784044
-0.153422 0.46290001 1.0700001 4288520358
-0.150672 0.46332699 1.071 4290165183
-0.147641 0.46288899 1.0700001 4288849323
-0.144751 0.46288401 1.0700001 4289046702
-0.14186101 0.462879 1.0700001 4288717223
-0.138971 0.462874 1.0700001 4287993500
-0.136081 0.46286899 1.0700001 4288190365
-0.133191 0.462865 1.0700001 4288190110
-0.130301 0.46285999 1.0700001 4288190365
-0.12741201 0.46285599 1.0700001 4288322465
-0.124523 0.46285301 1.0700001 4287927452
-0.121633 0.46284899 1.0700001 4288454566
-0.118522 0.46197999 1.068 4288980909
-0.115638 0.46197701 1.068 4288586151
-0.112755 0.46197301 1.068 4288322979
-0.109768 0.46153799 1.067 4289375406
-0.106887 0.46153501 1.067 4288388511
-0.103714 0.46023399 1.064 4288388256
-0.100936 0.460664 1.0650001 4289638325
-0.097876899 0.45979601 1.063 4289506739
-0.095096499 0.460226 1.064 4290362563
-0.092137396 0.459791 1.063 4289507254
-0.089183703 0.45935699 1.062 4289902012
-0.0861542 0.45849001 1.0599999 4289836733
-0.083292797 0.45848799 1.0599999 4290691788
-0.080507196 0.45891801 1.061 4290824146
-0.077643096 0.45891601 1.061 4290889941
-0.074708603 0.458482 1.0599999 4291285213
-0.071643896 0.457183 1.057 4291547869
-0.068790697 0.45718101 1.057 4290626767
-0.065750398 0.45588201 1.054 4290626252
-0.062845699 0.45544899 1.053 4290889425
-0.059889399 0.45458201 1.051 4291086803
-0.0571611 0.455446 1.053 4291744734
-0.054215699 0.45458001 1.051 4292139234
-0.0513299 0.454146 1.05 4291086547
-0.048403401 0.45328 1.048 4292073441
-0.045531299 0.452847 1.0470001 4291876063
-0.042582899 0.45154801 1.044 4291349722
-0.039765 0.45154801 1.044 4291547101
-0.036876399 0.45068201 1.0420001 4291678941
-0.034031302 0.45024899 1.041 4291744477
-0.0311315 0.44895101 1.038 4291152340
-0.0283299 0.44894999 1.038 4291152339
-0.025479101 0.44808501 1.036 4290954700
-0.0226391 0.44721901 1.034 4290625220
-0.0198291 0.44678599 1.033 4290625220
-0.0170245 0.44635299 1.0319999 4290362048
-0.0142115 0.44548801 1.03 4290296000
-0.0114093 0.44462299 1.028 4290888907
-0.0086263604 0.44419 1.027 4290034112
-0.0058544702 0.44419 1.027 4289244595
-0.0030795899 0.443757 1.026 4288652458
-0.00030979601 0.44289199 1.024 4287928989
0.00245399 0.44289199 1.024 4288257953
0.0052177799 0.442893 1.024 4288849576
0.0079815704 0.442893 1.024 4289573299
0.0107454 0.442893 1.024 4288651942
0.013496 0.44246 1.023 4288388256
0.0162571 0.44246101 1.023 4287138444
0.0190368 0.44289401 1.024 4286612098
0.0218006 0.44289401 1.024 4285362545
0.0245884 0.44332701 1.025 4286020729
0.027328201 0.442895 1.024 4286875270
0.030121399 0.44332799 1.025 4286151547
0.032855898 0.44289601 1.024 4285954168
0.035654601 0.44332901 1.025 4286216310
0.038458601 0.443762 1.026 4285821807
0.041308299 0.444628 1.028 4285427047
0.0441687 0.445494 1.03 4285623912
0.046948802 0.44549501 1.03 4284768602
0.049873799 0.44679299 1.033 4285163360
0.052763999 0.44765899 1.035 4284768602
0.055718701 0.44895801 1.038 4284637786
0.058633301 0.44982401 1.04 4284637531
0.061735898 0.45198801 1.045 4284571738
0.0648655 0.45415199 1.05 4284505945
0.068022102 0.45631599 1.0549999 4283453257
0.071071401 0.45761499 1.058 4285031774
0.074067101 0.458482 1.0599999 4284834395
0.077218696 0.46021301 1.064 4284505430
0.080241501 0.46108001 1.066 4284044880
0.083274998 0.46194699 1.068 4284110672
0.086319499 0.462814 1.0700001 4284111440
0.089374699 0.463682 1.072 4284242511
0.092526898 0.46498099 1.075 4284505423
0.095695302 0.466281 1.0779999 4284243010
0.0987885 0.46714899 1.08 4284242249
0.101893 0.46801701 1.082 4284241998
0.104814 0.46801901 1.082 4284504916
0.107835 0.46845499 1.0829999 4283978825
0.110759 0.468458 1.0829999 4284176201
0.113788 0.468894 1.084 4283781440
0.11693 0.469762 1.086 4284242249
0.120193 0.47106299 1.089 4284768593
0.123247 0.471499 1.09 4284308304
0.126306 0.47193599 1.091 4284702809
0.129252 0.47194001 1.091 4283913808
0.132441 0.47280899 1.0930001 4283913808
0.135516 0.47324601 1.094 4284439637
0.13847101 0.47325 1.094 4284374098
0.141425 0.47325501 1.094 4284637007
0.144512 0.47369301 1.095 4284571214
0.147604 0.47413 1.096 4284110663
0.150702 0.47456801 1.097 4284637269
0.15366501 0.474574 1.097 4284439891
0.156914 0.475445 1.099 4284637270
0.15988301 0.47545099 1.099 4284637270
0.163001 0.47589001 1.1 4284439637
0.16597299 0.475896 1.1 4285031775
0.169405 0.47720101 1.103 4285097053
0.17269801 0.478073 1.105 4284044365
0.176002 0.478946 1.107 4283978572
0.178671 0.47808799 1.105 4284702549
0.181657 0.47809601 1.105 4285031513
0.184477 0.47767201 1.104 4284505169
0.187461 0.47768 1.104 4284440144
0.19061799 0.47812101 1.105 4284834386
0.19378 0.47856301 1.1059999 4285097813
0.196771 0.47857299 1.1059999 4283715905
0.199761 0.47858301 1.1059999 4284571214
0.20238499 0.477727 1.104 4285097560
0.205557 0.47817001 1.105 4284440144
0.208545 0.478181 1.105 4284045133
0.21172599 0.478625 1.1059999 4284242258
0.214912 0.47906899 1.107 4285229153
0.217907 0.479081 1.107 4285754984
0.220902 0.479094 1.107 4284833882
0.22349299 0.478241 1.105 4285952362
0.226484 0.47825399 1.105 4285952616
0.229267 0.477835 1.104 4284835155
0.232256 0.47784901 1.104 4285821543
0.235671 0.47872901 1.1059999 4285360993
0.23888201 0.479177 1.107 4284966751
0.24188 0.47919199 1.107 4285295716
0.244436 0.478342 1.105 4284505945
0.24765299 0.47879201 1.1059999 4284703579
0.25042301 0.47837499 1.105 4285822574
0.25318801 0.47795999 1.104 4285691502
0.25617999 0.47797799 1.104 4286152053
0.25893801 0.47756299 1.103 4286152054
0.26192901 0.47758201 1.103 4286744191
0.26468 0.47716799 1.102 4286152054
0.26742601 0.47675499 1.101 4286875777
0.269921 0.47591001 1.099 4285625710
0.27315101 0.47636399 1.1 4287730316
0.27613699 0.476385 1.1 4286940800
0.279376 0.476841 1.101 4286742907
0.281596 0.475564 1.098 4286940288
0.28431901 0.475155 1.097 4287335046
0.287036 0.47474599 1.096 4287664270
0.290279 0.47520399 1.097 4287993235
0.292992 0.474796 1.096 4288585374
0.29543099 0.47395501 1.094 4287664270
0.29786 0.473115 1.092 4288453786
0.30083001 0.47314301 1.092 4288387993
0.30352199 0.472738 1.091 4288388763
0.30592901 0.47189999 1.089 4288520349
0.30804199 0.47062901 1.086 4288125591
0.31014001 0.46935901 1.0829999 4289243818
0.31279999 0.46895599 1.082 4287862165
0.31574801 0.468988 1.082 4288388509
0.31899101 0.46945301 1.0829999 4289375658
0.32134899 0.46861899 1.081 4289178793
0.32369599 0.46778601 1.079 4289113000
0.32603401 0.46695399 1.077 4289179309
0.328973 0.46698901 1.077 4290824134
0.33160499 0.46659201 1.076 4290165951
0.33392099 0.46576101 1.074 4289836986
0.33591399 0.46449801 1.071 4289902778
0.337892 0.463236 1.068 4289375920
0.339854 0.46197399 1.0650001 4290231227
0.342123 0.461146 1.063 4289442227
0.34405801 0.45988601 1.0599999 4290100157
0.345323 0.45775801 1.0549999 4290955467
0.347222 0.45649901 1.052 4290823884
0.34877199 0.45480701 1.048 4291087056
0.35030299 0.45311499 1.044 4291021263
0.35181201 0.451424 1.04 4289902782
0.35295999 0.44929901 1.035 4290692295
0.35477 0.44804299 1.0319999 4290231743
0.35656399 0.44678801 1.029 4289178793
0.358693 0.445968 1.027 4287730833
0.36081201 0.445149 1.025 4288586142
0.363276 0.444765 1.024 4288849828
0.36609399 0.44481701 1.024 4287205002
0.370354 0.44660699 1.028 4286678912
0.37500101 0.44883299 1.033 4284573536
0.379677 0.45106101 1.038 4285165673
0.386594 0.45589799 1.049 4284178777
0.39840001 0.466389 1.073 4284178516
0.41669899 0.48427299 1.114 4284178516
0.429198 0.49520701 1.1390001 4283585865
0.435763 0.49918801 1.148 4282731061
0.439704 0.50012702 1.15 4282927158
0.44365799 0.501068 1.152 4282203435
0.44723701 0.50157499 1.153 4282137387
0.451215 0.50251901 1.155 4282663217
0.45481199 0.50303 1.156 4282663733
0.45841801 0.50354201 1.1569999 4282466868
0.46163201 0.50362098 1.1569999 4282401077
0.46565199 0.50457102 1.159 4282730556
0.46887699 0.50465298 1.159 4282335282
0.47210401 0.50473702 1.159 4282203180
0.47451401 0.50395 1.1569999 4281874215
0.47815299 0.50447297 1.158 4282729012
0.48138499 0.50456101 1.158 4282532147
0.48462 0.50465101 1.158 4282335282
0.487858 0.50474203 1.158 4282664247
0.49024999 0.50396401 1.156 4282335282
0.492634 0.50318599 1.154 4282138157
0.49500999 0.50241101 1.152 4282138156
0.49781001 0.50207198 1.151 4282861879
-0.19752701 0.46182501 1.074 4288190877
-0.19426 0.46095499 1.072 4287401361
-0.191184 0.46051601 1.071 4287598226
-0.188288 0.46050701 1.071 4287466640
-0.185739 0.46135899 1.073 4286874503
-0.183009 0.461781 1.074 4287466640
-0.180107 0.46177301 1.074 4288058779
-0.177039 0.46133599 1.073 4287599256
-0.17413899 0.461328 1.073 4288717737
-0.171399 0.46175101 1.074 4288651944
-0.16865399 0.462174 1.075 4287467670
-0.165287 0.46087801 1.072 4288191393
-0.16208801 0.46001199 1.0700001 4288980909
-0.159197 0.460006 1.0700001 4288520358
-0.156307 0.46000001 1.0700001 4288915116
-0.15341599 0.459995 1.0700001 4288849323
-0.150667 0.460419 1.071 4290165436
-0.147774 0.46041399 1.071 4288651942
-0.144881 0.46040899 1.071 4289046702
-0.141856 0.459975 1.0700001 4288651430
-0.139226 0.46083 1.072 4288322465
-0.136204 0.46039599 1.071 4288585637
-0.133311 0.460392 1.071 4288256672
-0.13029701 0.45995799 1.0700001 4288059291
-0.127408 0.45995399 1.0700001 4288256670
-0.124519 0.45995101 1.0700001 4287796635
-0.121516 0.459517 1.069 4288388772
-0.118519 0.459084 1.068 4289244081
-0.115635 0.45908099 1.068 4288783530
-0.112752 0.45907801 1.068 4288717223
-0.109765 0.45864499 1.067 4289111720
-0.106884 0.45864299 1.067 4288453535
-0.103809 0.45778 1.0650001 4288782500
-0.100934 0.45777801 1.0650001 4289375151
-0.0978745 0.456916 1.063 4289572532
-0.095004797 0.45691401 1.063 4290165183
-0.092048503 0.45648199 1.062 4289507253
-0.089013703 0.45561999 1.0599999 4289967805
-0.086071 0.45518801 1.059 4290296770
-0.083290897 0.455616 1.0599999 4290889167
-0.0805813 0.45647401 1.062 4290889171
-0.077641398 0.456043 1.061 4290956248
-0.074636497 0.45518199 1.059 4292008422
-0.071642399 0.454321 1.057 4291547871
-0.0687242 0.45388901 1.056 4290692815
-0.0658115 0.45345801 1.0549999 4290231494
-0.062904097 0.45302701 1.054 4290823632
-0.0599452 0.452167 1.052 4291086804
-0.057105701 0.45216599 1.052 4291942113
-0.054163098 0.451305 1.05 4292271078
-0.051329002 0.45130399 1.05 4291020757
-0.0484026 0.45044401 1.048 4291876063
-0.045486901 0.44958299 1.046 4291547097
-0.042622901 0.44915301 1.045 4291349976
-0.039802399 0.44915199 1.045 4291481562
-0.036875799 0.447862 1.0420001 4291547097
-0.033998001 0.44700199 1.04 4291810269
-0.031101 0.445712 1.0369999 4291086546
-0.0283294 0.446141 1.038 4291349458
-0.0254787 0.445281 1.036 4290954185
-0.022616901 0.44399101 1.033 4290427586
-0.0198096 0.44356099 1.0319999 4290559172
-0.017007699 0.443131 1.031 4290230462
-0.0142113 0.44270101 1.03 4290296000
-0.0114092 0.44184101 1.028 4290756806
-0.0086262198 0.44141099 1.027 4289967804
-0.0058543799 0.44141099 1.027 4289178288
-0.0030795401 0.440981 1.026 4288651942
-0.00031009299 0.44055101 1.025 4287994781
0.00245395 0.44012201 1.024 4288323746
0.0052176998 0.44012201 1.024 4288652712
0.0079736402 0.43969199 1.023 4289113263
0.0107452 0.44012201 1.024 4289046188
0.0135089 0.44012201 1.024 4287993500
0.016272699 0.44012201 1.024 4287071882
0.019036399 0.44012299 1.024 4286743172
0.0218002 0.44012299 1.024 4286085756
0.024564 0.44012299 1.024 4285954682
0.0273278 0.44012401 1.024 4286546821
0.0301209 0.44055399 1.025 4285691512
0.032887399 0.44055399 1.025 4286019963
0.035688698 0.44098499 1.026 4286479482
0.0384579 0.44098499 1.026 4286084979
0.041307501 0.44184601 1.028 4285427047
0.044125099 0.442276 1.029 4285097568
0.046993598 0.44313699 1.031 4284768602
0.049872901 0.443997 1.033 4285031774
0.052763 0.44485801 1.035 4284768602
0.055717699 0.44614801 1.038 4284637531
0.058688499 0.447438 1.041 4284637533
0.061734699 0.449159 1.045 4284505945
0.064802401 0.45087901 1.049 4284637533
0.067891799 0.4526 1.053 4283782224
0.071002796 0.45432001 1.057 4285031775
0.0741354 0.45604101 1.061 4284571224
0.077144504 0.456902 1.063 4284900189
0.080239698 0.458193 1.066 4284176466
0.083273202 0.45905501 1.068 4284045394
0.086398199 0.46034601 1.071 4283979854
0.089372702 0.460778 1.072 4284637269
0.0925247 0.462069 1.075 4284439628
0.095693 0.463361 1.0779999 4284176456
0.0986946 0.46379301 1.079 4284176458
0.101796 0.46465501 1.081 4283978826
0.104811 0.465087 1.082 4284307537
0.107832 0.46551901 1.0829999 4284110411
0.110858 0.46595201 1.084 4284176204
0.11389 0.46638501 1.085 4284110663
0.117034 0.46724701 1.087 4283781953
0.12008 0.46768001 1.0880001 4284176711
0.123243 0.46854299 1.09 4284571730
0.126302 0.468977 1.091 4284505683
0.12936699 0.46941 1.092 4284177235
0.13243701 0.46984401 1.0930001 4284242258
0.13551199 0.47027799 1.094 4284571223
0.138466 0.47028199 1.094 4284505684
0.14142101 0.47028601 1.094 4284703316
0.14450701 0.47072101 1.095 4284703062
0.147734 0.47158501 1.097 4284374097
0.15083399 0.47202 1.098 4284703063
0.15408 0.47288501 1.1 4284834649
0.157051 0.472891 1.1 4284637270
0.160023 0.47289601 1.1 4284768856
0.162846 0.47247201 1.099 4284637017
0.165815 0.472478 1.099 4284965468
0.169245 0.47377399 1.102 4284833629
0.172535 0.474641 1.104 4283912016
0.175836 0.475508 1.1059999 4283715654
0.17882501 0.47551501 1.1059999 4284570963
0.181814 0.47552201 1.1059999 4284834134
0.184636 0.47510001 1.105 4284241997
0.187622 0.475108 1.105 4284834134
0.19060899 0.47511601 1.105 4284965974
0.193771 0.475555 1.1059999 4285229144
0.196583 0.47513399 1.105 4283979077
0.199571 0.47514299 1.105 4284571214
0.20237499 0.47472301 1.104 4285097558
0.20554601 0.475162 1.105 4284571730
0.20834599 0.47474301 1.104 4283913547
0.211523 0.47518301 1.105 4284439637
0.214706 0.475624 1.1059999 4285426533
0.21809199 0.47649601 1.108 4285492326
0.22089 0.476078 1.107 4284965214
0.223683 0.47566 1.1059999 4285886570
0.22647101 0.47524199 1.105 4286083949
0.229461 0.47525501 1.105 4284768088
0.232242 0.474839 1.104 4286084716
0.23544399 0.47528201 1.105 4285360993
0.23865101 0.47572699 1.1059999 4285360739
0.24164601 0.47574201 1.1059999 4285294946
0.24464101 0.475757 1.1059999 4285098082
0.24741299 0.47534201 1.105 4284835165
0.250406 0.47535801 1.105 4285690988
0.253171 0.47494501 1.104 4285757295
0.25593099 0.47453201 1.103 4286349432
0.25868499 0.47411901 1.102 4286349433
0.26190999 0.47456801 1.103 4286481533
0.26466 0.47415599 1.102 4286217593
0.26740599 0.47374499 1.101 4287072133
0.26965499 0.47247401 1.098 4285624687
0.272634 0.47249401 1.098 4287598477
0.27586401 0.472945 1.099 4287137665
0.27884701 0.472967 1.099 4286874493
0.281573 0.47255901 1.098 4287532425
0.28403601 0.47172001 1.096 4287598218
0.28674999 0.471313 1.095 4287598732
0.28998899 0.47176799 1.096 4288124821
0.29269999 0.47136199 1.095 4288585888
0.29486501 0.47009501 1.092 4288059798
0.29756099 0.46969101 1.091 4288586142
0.30052701 0.469717 1.091 4288257177
0.30321601 0.46931401 1.09 4288059797
0.30533901 0.46805 1.087 4288783520
0.307446 0.466786 1.084 4288323223
0.31011 0.46638501 1.0829999 4289375657
0.31277001 0.46598399 1.082 4288125591
0.31542501 0.46558401 1.081 4288717728
0.31866401 0.46604601 1.082 4289441451
0.321316 0.46564701 1.081 4289178539
0.323663 0.46481901 1.079 4288981930
0.325394 0.46312901 1.075 4289442227
0.328327 0.46316299 1.075 4291021259
0.33064401 0.46233699 1.073 4290363076
0.33326301 0.46194199 1.072 4289902525
0.33524901 0.460686 1.069 4290230974
0.33785301 0.46029201 1.068 4289310127
0.33949599 0.45860699 1.064 4289902262
0.34143999 0.457353 1.061 4289375920
0.343043 0.455668 1.057 4290034364
0.34462699 0.45398501 1.053 4290823627
0.34618899 0.452301 1.049 4290823884
0.34773099 0.45061901 1.045 4290955470
0.34958801 0.449368 1.0420001 4290429380
0.35142899 0.448118 1.039 4289903036
0.35257399 0.446006 1.034 4289902778
0.354036 0.44432601 1.03 4288652965
0.35582399 0.44307801 1.027 4288060312
0.35829499 0.44269401 1.026 4288126104
0.360762 0.44231099 1.025 4288257690
0.363226 0.44192901 1.024 4287863186
0.3664 0.44240999 1.025 4286744705
0.370662 0.444188 1.029 4284902501
0.37494701 0.445968 1.033 4283849559
0.37962201 0.448181 1.038 4284310364
0.386168 0.452555 1.048 4283784020
0.39833999 0.46340901 1.073 4284244056
0.41588801 0.48031399 1.112 4284375128
0.42875499 0.49160901 1.138 4283585612
0.43569499 0.49599499 1.148 4283125059
0.439634 0.49692699 1.15 4282137905
0.44358701 0.497861 1.152 4282532147
0.447552 0.498797 1.154 4282334768
0.45153099 0.49973401 1.156 4282466352
0.45513001 0.50024003 1.1569999 4282729526
0.45833999 0.50031602 1.1569999 4282729526
0.46115401 0.49996001 1.156 4281940524
0.46476799 0.500471 1.1569999 4282927419
0.46798599 0.50055099 1.1569999 4282334766
0.47120601 0.500633 1.1569999 4281742884
0.47442901 0.50071597 1.1569999 4282071080
0.47765401 0.50080103 1.1569999 4282465838
0.48088199 0.50088698 1.1569999 4282400559
0.48411199 0.50097501 1.1569999 4282466868
0.48734501 0.50106502 1.1569999 4282466870
0.49015701 0.50072402 1.156 4282335284
0.492966 0.50038302 1.155 4282072112
0.495343 0.499612 1.153 4282137903
0.49771199 0.49884099 1.151 4282861626
-0.19788501 0.45975801 1.076 4287993498
-0.194433 0.45846701 1.073 4287532947
-0.19171099 0.45888501 1.074 4287729812
-0.188456 0.45802301 1.072 4287269261
-0.18555801 0.45801499 1.072 4287071882
-0.182831 0.45843399 1.073 4287203470
-0.18026701 0.45928201 1.075 4288256158
-0.17736199 0.45927399 1.075 4288059293
-0.17429499 0.45884001 1.074 4288651944
-0.17139301 0.45883399 1.074 4288717223
-0.16833401 0.45840001 1.073 4287928221
-0.165281 0.45796701 1.072 4288454565
-0.162082 0.45710701 1.0700001 4288849323
-0.15933999 0.457528 1.071 4288520358
-0.15644699 0.45752299 1.071 4288651944
-0.15355401 0.45751801 1.071 4288980907
-0.150662 0.457513 1.071 4290296508
-0.147769 0.457508 1.071 4288520097
-0.144876 0.457504 1.071 4289243565
-0.141984 0.457499 1.071 4288651428
-0.139092 0.457495 1.071 4288454049
-0.1362 0.45749101 1.071 4288190363
-0.133432 0.45791501 1.072 4287993753
-0.130294 0.457057 1.0700001 4287927960
-0.127524 0.45748001 1.071 4288256925
-0.124399 0.45662299 1.069 4287928219
-0.121626 0.45704699 1.0700001 4288651944
-0.118516 0.45618901 1.068 4289309874
-0.11574 0.45661399 1.069 4288980909
-0.112749 0.456184 1.068 4289046188
-0.109763 0.45575401 1.067 4289374892
-0.106782 0.45532501 1.066 4288190363
-0.103904 0.455322 1.066 4288716707
-0.100837 0.45446599 1.064 4289374637
-0.097964399 0.45446399 1.064 4289440946
-0.0950028 0.45403501 1.063 4290427841
-0.092133202 0.45403299 1.063 4289572532
-0.089095801 0.45317701 1.061 4290033597
-0.086150497 0.452748 1.0599999 4290165184
-0.083367802 0.45317301 1.061 4290757581
-0.080503903 0.453172 1.061 4290889171
-0.077566803 0.45274299 1.0599999 4291021787
-0.074635103 0.452315 1.059 4292008422
-0.071708903 0.45188701 1.058 4291284699
-0.068788096 0.45145801 1.057 4290692560
-0.065872699 0.45102999 1.056 4290099908
-0.062843397 0.44974801 1.053 4290757839
-0.059944201 0.44931999 1.052 4291218390
-0.0569962 0.44846401 1.05 4292007906
-0.054162201 0.44846401 1.05 4292073699
-0.051279299 0.44803599 1.049 4290954964
-0.048448 0.448035 1.049 4291876063
-0.045529701 0.44718 1.0470001 4291612890
-0.0427039 0.44717899 1.0470001 4291349718
-0.039801799 0.446325 1.045 4291152596
-0.036910601 0.44547001 1.043 4291547351
-0.034030199 0.44461501 1.041 4291678937
-0.031130601 0.44333401 1.038 4290757835
-0.028329 0.443333 1.038 4291086286
-0.0255029 0.44290599 1.0369999 4290361793
-0.0226603 0.44205099 1.035 4290032828
-0.0198285 0.44119701 1.033 4289507254
-0.017023999 0.44076899 1.0319999 4289244082
-0.0142249 0.44034201 1.031 4289046703
-0.011409 0.43906099 1.028 4289507253
-0.0086260997 0.43863299 1.027 4288519844
-0.0058543002 0.43863299 1.027 4287467156
-0.00307649 0.43777901 1.025 4287401361
-0.00030978699 0.437352 1.024 4287007372
0.00245392 0.437352 1.024 4287073679
0.0052278098 0.43820599 1.026 4286876301
0.0079813302 0.437352 1.024 4287533977
0.0107345 0.43692499 1.023 4287007119
0.0134824 0.43649799 1.022 4286282882
0.016256601 0.43692499 1.023 4286282366
0.0190176 0.43692601 1.023 4285294957
0.0217999 0.43735299 1.024 4285821815
0.024563599 0.43735299 1.024 4285625205
0.027354101 0.43778101 1.025 4286348928
0.030149899 0.43820801 1.026 4285757050
0.032919001 0.438209 1.026 4285427571
0.035757799 0.43906301 1.028 4286084724
0.038494799 0.43863699 1.027 4285558380
0.041347101 0.439491 1.029 4285098084
0.044124398 0.43949199 1.029 4285623912
0.046992801 0.44034699 1.031 4284571223
0.0498721 0.44120201 1.033 4284900958
0.052813102 0.44248399 1.036 4284571993
0.055770401 0.443766 1.039 4284506198
0.058800299 0.44547501 1.043 4284440152
0.061851699 0.44718501 1.0470001 4284308313
0.064863101 0.44846699 1.05 4284505947
0.068019502 0.45060399 1.0549999 4283781708
0.071068697 0.451886 1.058 4285163361
0.074203901 0.453596 1.062 4284900189
0.077215597 0.45445201 1.064 4284834396
0.080313496 0.45573401 1.067 4284373845
0.083427504 0.457017 1.0700001 4284176465
0.086477101 0.45787299 1.072 4284176719
0.089454196 0.45830199 1.073 4284768341
0.0925228 0.459158 1.075 4284373837
0.095779702 0.460868 1.079 4284571216
0.098875403 0.46172401 1.081 4284307790
0.101982 0.46258101 1.0829999 4284241998
0.105002 0.46301001 1.084 4284307537
0.108028 0.46344 1.085 4284241744
0.110958 0.463442 1.085 4284373584
0.113992 0.46387199 1.086 4284110665
0.117139 0.46472901 1.0880001 4284373835
0.120187 0.465159 1.089 4284044870
0.123353 0.46601599 1.091 4284637262
0.126415 0.46644601 1.092 4284703055
0.129482 0.46687701 1.0930001 4284110665
0.132433 0.46687999 1.0930001 4284373583
0.13563199 0.467738 1.095 4284636756
0.13858899 0.467742 1.095 4284374098
0.141675 0.468173 1.096 4284703063
0.144767 0.46860501 1.097 4284636502
0.147999 0.469464 1.099 4284176719
0.151104 0.46989501 1.1 4284177235
0.15421499 0.47032699 1.101 4284966751
0.157189 0.470332 1.101 4284703063
0.160163 0.47033799 1.101 4284834649
0.16284101 0.46948901 1.099 4284636502
0.16580901 0.46949399 1.099 4284636502
0.169085 0.470355 1.101 4285097050
0.172529 0.47164199 1.104 4284306764
0.175512 0.47164899 1.104 4283780673
0.178656 0.472083 1.105 4284635982
0.181642 0.47209001 1.105 4284965717
0.18479501 0.47252399 1.1059999 4284307790
0.187784 0.472532 1.1059999 4284636755
0.190773 0.47253999 1.1059999 4285031767
0.193763 0.47254801 1.1059999 4285163351
0.196574 0.47212899 1.105 4283847491
0.199562 0.47213799 1.105 4284703055
0.202549 0.47214699 1.105 4284834900
0.205909 0.47301099 1.107 4284440144
0.208902 0.47301999 1.107 4284110926
0.211704 0.47260299 1.1059999 4284439637
0.21469501 0.47261399 1.1059999 4285623912
0.217687 0.47262499 1.1059999 4285360742
0.220479 0.47220799 1.105 4284768350
0.223469 0.47222 1.105 4285558121
0.22666299 0.47265899 1.1059999 4285623912
0.229656 0.47267199 1.1059999 4285031775
0.232439 0.47225699 1.105 4285821290
0.23500399 0.471416 1.103 4284966235
0.238205 0.47185701 1.104 4285163360
0.24097601 0.471443 1.103 4284900188
0.244184 0.471885 1.104 4284637531
0.24695 0.47147301 1.103 4285361254
0.249937 0.471488 1.103 4285559147
0.25269601 0.471077 1.102 4285559917
0.25568199 0.471093 1.102 4285757296
0.25866801 0.47110999 1.102 4286349179
0.26189199 0.47155499 1.103 4286744451
0.264642 0.471145 1.102 4286349180
0.26714399 0.47030899 1.1 4287335305
0.26988101 0.46990001 1.099 4285822068
0.27311 0.47034699 1.1 4287598477
0.27584299 0.46994001 1.099 4287335046
0.27882501 0.46996099 1.099 4286874495
0.281551 0.46955401 1.098 4287400839
0.284273 0.46914899 1.097 4287598218
0.286989 0.468743 1.096 4288059283
0.28996599 0.46876699 1.096 4288256662
0.29240799 0.467935 1.094 4288651935
0.29510999 0.467531 1.0930001 4287796625
0.29780799 0.46712899 1.092 4288586141
0.300776 0.467154 1.092 4287994004
0.30318901 0.46632501 1.09 4288257430
0.30531099 0.46506801 1.087 4288783520
0.30770099 0.46424001 1.085 4288389016
0.31008101 0.463413 1.0829999 4289507243
0.31302899 0.463442 1.0829999 4288125591
0.31568599 0.46304399 1.082 4288717474
0.31863299 0.463074 1.082 4289375404
0.320986 0.46224901 1.08 4289178539
0.32302999 0.46099699 1.077 4288981676
0.32505801 0.45974499 1.074 4289310641
0.32768199 0.459351 1.073 4290955467
0.33030099 0.45895699 1.072 4290363076
0.33291599 0.45856401 1.071 4289968318
0.33489901 0.457315 1.068 4290296767
0.337183 0.45649499 1.066 4289507251
0.33913901 0.45524701 1.063 4289836471
0.341079 0.45400101 1.0599999 4289508021
0.34300399 0.45275399 1.057 4290034365
0.34458601 0.45108101 1.053 4290889420
0.34614801 0.44940701 1.049 4290626248
0.34735599 0.44730601 1.044 4290757834
0.348874 0.44563401 1.04 4289968829
0.35070899 0.444392 1.0369999 4289508278
0.35252899 0.44315001 1.034 4290758088
0.354334 0.441908 1.031 4290297536
0.35612401 0.440667 1.028 4289639858
0.35859701 0.440285 1.027 4288323483
0.36106601 0.43990299 1.026 4288455323
0.363886 0.43995199 1.026 4289113253
0.367064 0.44042999 1.027 4287600014
0.37061 0.441338 1.029 4286415740
0.374531 0.44267601 1.0319999 4284704868
0.37920201 0.44487399 1.0369999 4285099366
0.38611299 0.44964799 1.048 4284375643
0.39791101 0.46000201 1.072 4283388748
0.41507801 0.47636899 1.11 4283190599
0.427937 0.48758999 1.136 4283519305
0.435249 0.492376 1.147 4283058752
0.43918401 0.493301 1.149 4282531893
0.44313201 0.49422801 1.151 4282663479
0.44709399 0.49515599 1.153 4282400559
0.45106801 0.496086 1.155 4282400559
0.45466301 0.49658799 1.156 4282729524
0.45786899 0.49666199 1.156 4282730293
0.46067801 0.496308 1.155 4282072364
0.46388701 0.49638501 1.155 4282861880
0.467502 0.49689299 1.156 4282401328
0.47071701 0.49697301 1.156 4281546019
0.474345 0.49748501 1.1569999 4282071849
0.47756901 0.49756801 1.1569999 4282400814
0.48038 0.49722201 1.156 4282532915
0.48360601 0.497309 1.156 4282335536
0.486413 0.49696699 1.155 4282730042
0.48964199 0.49705601 1.155 4282335543
0.49202001 0.49628699 1.153 4282072112
0.495249 0.49637899 1.153 4282137903
0.497183 0.49518201 1.15 4282861880
-0.197877 0.45683199 1.076 4287401363
-0.19460499 0.45597401 1.074 4287269261
-0.19170199 0.455966 1.074 4287269261
-0.18862399 0.45553401 1.073 4286874758
-0.18572401 0.45552701 1.073 4286611845
-0.182824 0.45551899 1.073 4287138191
-0.18009201 0.455937 1.074 4287861914
-0.17719001 0.45592999 1.074 4287533464
-0.174126 0.45549899 1.073 4288717738
-0.17122699 0.455493 1.073 4288651945
-0.168328 0.45548701 1.073 4287862429
-0.165429 0.45548201 1.073 4288651430
-0.162379 0.45505199 1.072 4289046188
-0.159633 0.45547101 1.073 4288585123
-0.156734 0.455466 1.073 4288651428
-0.153836 0.455461 1.073 4288980648
-0.150657 0.45460799 1.071 4290361785
-0.147627 0.45417899 1.0700001 4288716962
-0.14473701 0.454175 1.0700001 4289243306
-0.141847 0.454171 1.0700001 4288453788
-0.13882799 0.45374301 1.069 4288387995
-0.135942 0.45373899 1.069 4288190616
-0.133304 0.454584 1.071 4288453786
-0.130412 0.45458099 1.071 4288058514
-0.12751999 0.45457801 1.071 4288124823
-0.124396 0.45372599 1.069 4287993239
-0.12151 0.45372301 1.069 4288651428
-0.118513 0.45329601 1.068 4289111981
-0.115629 0.45329401 1.068 4288783016
-0.112746 0.453291 1.068 4289111467
-0.109863 0.453289 1.068 4289637041
-0.10688 0.45286199 1.067 4288584353
-0.103902 0.452436 1.066 4288781732
-0.100835 0.45158499 1.064 4289308846
-0.098054498 0.452007 1.0650001 4289637811
-0.095179699 0.45200601 1.0650001 4290427327
-0.092218198 0.45157999 1.064 4289900983
-0.089094199 0.45030501 1.061 4290164669
-0.0862303 0.45030299 1.061 4290165184
-0.083444998 0.450726 1.062 4290757581
-0.080578402 0.45072499 1.062 4290954964
-0.077565499 0.449875 1.0599999 4291152859
-0.074633896 0.449449 1.059 4291941861
-0.0717078 0.44902399 1.058 4291415515
-0.068721898 0.448174 1.056 4291021011
-0.065809302 0.44774899 1.0549999 4290099909
-0.062782802 0.446475 1.052 4290757839
-0.0599433 0.44647399 1.052 4290955218
-0.056995399 0.44562399 1.05 4291810527
-0.0541614 0.44562399 1.05 4291547355
-0.051278599 0.445198 1.049 4290823375
-0.0484473 0.445198 1.049 4291415512
-0.045529101 0.44434899 1.0470001 4291218132
-0.042703301 0.44434801 1.0470001 4290889167
-0.0398013 0.443499 1.045 4290889421
-0.036945499 0.44307399 1.044 4291021006
-0.0340298 0.4418 1.041 4291218385
-0.0311902 0.441376 1.04 4290560456
-0.0283287 0.44052601 1.038 4290692042
-0.025478 0.439677 1.036 4290363077
-0.0226382 0.43882799 1.034 4290099651
-0.019809101 0.43797901 1.0319999 4289836480
-0.017007301 0.43755499 1.031 4289376186
-0.0142109 0.43713 1.03 4289902530
-0.0114089 0.436281 1.028 4291020753
-0.0086260103 0.435857 1.027 4289902526
-0.0058485302 0.43543199 1.026 4289309360
-0.00307646 0.43500799 1.025 4288848807
-0.000310086 0.43500799 1.025 4288388256
0.0024562899 0.43500799 1.025 4288651944
0.0052277599 0.43543199 1.026 4288652459
0.0079890396 0.43500799 1.025 4288783791
0.0107449 0.43458399 1.024 4289375928
0.0134954 0.43415901 1.023 4288256933
0.016256399 0.43415901 1.023 4287006091
0.0189988 0.43373501 1.022 4286478977
0.0217571 0.43373501 1.022 4286216573
0.0245394 0.43415999 1.023 4285887863
0.0273537 0.435009 1.025 4285756791
0.030149501 0.43543401 1.026 4285296240
0.032918599 0.43543401 1.026 4285164654
0.035722502 0.43585899 1.027 4284769378
0.038494401 0.43585899 1.027 4284505692
0.041306399 0.43628401 1.028 4283979348
0.044123799 0.43670899 1.029 4284111189
0.047037799 0.43798301 1.0319999 4283847762
0.049919698 0.43883201 1.034 4284440152
0.052812401 0.43968201 1.036 4284440407
0.0557696 0.440956 1.039 4284900442
0.058743101 0.44222999 1.0420001 4284637270
0.0617918 0.443928 1.046 4284439637
0.064862102 0.445627 1.05 4284571224
0.067953996 0.44732499 1.054 4283584329
0.071067601 0.44902399 1.058 4285097568
0.074202701 0.45072201 1.062 4284900189
0.077214397 0.451572 1.064 4284637017
0.0802368 0.45242199 1.066 4284308052
0.083270103 0.453273 1.068 4284110672
0.086394899 0.45454699 1.071 4284176719
0.089452602 0.45539701 1.073 4284439376
0.092521101 0.45624799 1.075 4284308044
0.0956892 0.45752299 1.0779999 4284373583
0.098782003 0.45837301 1.08 4284439376
0.101886 0.45922399 1.082 4284044619
0.104807 0.45922601 1.082 4284241744
0.107827 0.45965299 1.0829999 4284110158
0.110751 0.45965499 1.0829999 4283649861
0.113779 0.46008101 1.084 4284176204
0.117029 0.461357 1.087 4284044872
0.120184 0.46220899 1.089 4283913286
0.12335 0.46305999 1.091 4284373835
0.126296 0.463063 1.091 4284308297
0.12947799 0.46391499 1.0930001 4284308550
0.132429 0.463918 1.0930001 4284373835
0.13550501 0.46434599 1.094 4284373583
0.138458 0.464349 1.094 4284505169
0.141413 0.464353 1.094 4284439377
0.144499 0.46478099 1.095 4284504916
0.147725 0.46563399 1.097 4284504916
0.150962 0.46648699 1.099 4284637016
0.15407 0.46691599 1.1 4285097568
0.157184 0.46734601 1.101 4284439637
0.16001201 0.46692601 1.1 4284506198
0.162835 0.466506 1.099 4284636502
0.16595501 0.46693599 1.1 4284768088
0.16908 0.46736601 1.101 4284833878
0.17220999 0.467796 1.102 4284175947
0.17518701 0.46780199 1.102 4284175685
0.178326 0.46823299 1.103 4284767568
0.181306 0.46823999 1.103 4284834131
0.18462101 0.469096 1.105 4284439376
0.187777 0.46952701 1.1059999 4284965974
0.190938 0.46995899 1.107 4284965717
0.19393 0.46996701 1.107 4284965974
0.196566 0.46912599 1.105 4283979079
0.199553 0.469134 1.105 4284242249
0.20254 0.46914199 1.105 4285295453
0.20552699 0.46915099 1.105 4284571476
0.208515 0.46915999 1.105 4283979340
0.211503 0.46917 1.105 4284373844
0.21468499 0.46960399 1.1059999 4285426533
0.217676 0.46961501 1.1059999 4285425765
0.220468 0.469201 1.105 4284570971
0.22325499 0.46878701 1.104 4285623659
0.226447 0.46922299 1.105 4285689705
0.229436 0.469235 1.105 4284834396
0.232426 0.46924701 1.105 4285887083
0.234991 0.46840999 1.103 4285360739
0.23819201 0.46884799 1.104 4285163360
0.24118 0.468862 1.104 4284965981
0.24439099 0.4693 1.105 4284769117
0.246935 0.468465 1.103 4285229668
0.24992201 0.46847999 1.103 4285756526
0.252451 0.467646 1.101 4285296745
0.255665 0.468086 1.102 4286020468
0.25865099 0.46810201 1.102 4286217593
0.261637 0.468119 1.102 4286414973
0.264624 0.468137 1.102 4285822070
0.26736799 0.46772999 1.101 4287466640
0.27010801 0.46732301 1.1 4285822070
0.27284199 0.46691701 1.099 4287532688
0.275572 0.46651199 1.098 4287335307
0.27855101 0.46653199 1.098 4286874754
0.28127399 0.46612701 1.097 4287203719
0.28399199 0.46572301 1.096 4287532684
0.28696701 0.465745 1.096 4287795856
0.28941301 0.464917 1.094 4288190869
0.292117 0.464515 1.0930001 4288783521
0.294276 0.46326399 1.09 4287730833
0.29723799 0.46328801 1.09 4288849313
0.30019999 0.46331301 1.09 4287928211
0.302607 0.462488 1.0880001 4288454555
0.30444199 0.460814 1.084 4288849313
0.30710599 0.46041501 1.0829999 4288586141
0.30976599 0.460017 1.082 4289573037
0.312711 0.46004501 1.082 4288520095
0.31536499 0.459649 1.081 4288717474
0.318014 0.45925301 1.08 4289704371
0.32036099 0.458433 1.0779999 4289178541
0.322698 0.457614 1.076 4289244848
0.32472301 0.45636901 1.073 4289179055
0.32734299 0.45597601 1.072 4290823881
0.329651 0.45515901 1.0700001 4290363076
0.332881 0.45561799 1.071 4289639353
0.33486301 0.454377 1.068 4290165181
0.33746299 0.453987 1.067 4289507506
0.339421 0.452746 1.064 4289902262
0.34168401 0.451933 1.062 4289376434
0.34296501 0.44984299 1.057 4289968572
0.344547 0.44817901 1.053 4290494662
0.34544799 0.44566399 1.0470001 4290297283
0.346982 0.444002 1.043 4291021260
0.348497 0.44233999 1.039 4290363587
0.35066599 0.44152999 1.0369999 4289968829
0.35282701 0.44072101 1.035 4290955467
0.35429001 0.43906099 1.031 4290429122
0.35642499 0.43825299 1.029 4289574065
0.358551 0.437446 1.027 4288060825
0.36172301 0.43791899 1.028 4288521116
0.36419201 0.43753999 1.027 4288915620
0.36737201 0.438014 1.028 4287928725
0.36983901 0.437637 1.027 4286152315
0.373391 0.43854001 1.029 4284901734
0.378418 0.44114801 1.035 4285230698
0.38532099 0.44589001 1.046 4284836194
0.397111 0.456177 1.0700001 4284506459
0.41389599 0.47200999 1.107 4284506459
0.427497 0.48401099 1.135 4283519050
0.43480501 0.488765 1.146 4282927168
0.439118 0.49011001 1.149 4282531893
0.443064 0.49103001 1.151 4282400047
0.44702399 0.49195099 1.153 4282202666
0.450607 0.49244699 1.154 4282466607
0.45458999 0.49337101 1.156 4282466607
0.45779499 0.493444 1.156 4282532914
0.460603 0.49309099 1.155 4281941292
0.46340799 0.49273899 1.154 4282533429
0.46742299 0.49366999 1.156 4282335536
0.47063699 0.49374899 1.156 4281677606
0.47344401 0.49340099 1.155 4281940778
0.476248 0.493056 1.154 4282401075
0.47946399 0.493139 1.154 4282664501
0.482683 0.49322301 1.154 4282269743
0.48548299 0.49288201 1.153 4282466868
0.48870501 0.49296999 1.153 4282598456
0.49192899 0.49305901 1.153 4281808170
0.494726 0.49272299 1.152 4282335284
0.497089 0.49195999 1.15 4282269743
0.49987799 0.49162599 1.149 4282993465
-0.198052 0.45433 1.077 4287862428
-0.19477899 0.45347801 1.075 4287269775
-0.191873 0.45346999 1.075 4287006089
-0.18861599 0.45261899 1.073 4286677379
-0.185544 0.45219001 1.072 4286809224
-0.182817 0.45260599 1.073 4286940812
-0.180086 0.45302099 1.074 4287007119
-0.177349 0.453437 1.075 4286876048
-0.17411999 0.45258701 1.073 4287402392
-0.171381 0.45300299 1.074 4287336085
-0.168479 0.45299801 1.074 4287007120
-0.16557799 0.45299199 1.074 4287335570
-0.162677 0.45298699 1.074 4287598742
-0.159628 0.45256099 1.073 4287664021
-0.156876 0.45297799 1.074 4287467409
-0.153832 0.45255199 1.073 4287795860
-0.150793 0.452126 1.072 4289045927
-0.147622 0.451278 1.0700001 4287664274
-0.144733 0.45127401 1.0700001 4287861653
-0.141976 0.451693 1.071 4287730065
-0.138825 0.45084599 1.069 4287729549
-0.135811 0.45042101 1.068 4287597963
-0.133176 0.45126101 1.0700001 4287663756
-0.13028701 0.451258 1.0700001 4287137412
-0.127518 0.45167699 1.071 4287664272
-0.124626 0.45167401 1.071 4287335309
-0.121735 0.45167199 1.071 4288519328
-0.118732 0.45124701 1.0700001 4288519328
-0.115735 0.45082301 1.069 4288321951
-0.11285 0.45082101 1.069 4288847525
-0.109964 0.45081899 1.069 4288715939
-0.106878 0.449974 1.067 4288255388
-0.1039 0.44955 1.066 4288386974
-0.100833 0.44870499 1.064 4289176490
-0.098144896 0.44954699 1.066 4289308076
-0.095267497 0.449545 1.066 4290164155
-0.092303403 0.44912201 1.0650001 4288979881
-0.089176796 0.44785601 1.062 4289900983
-0.0863102 0.44785401 1.062 4289638840
-0.083522297 0.448275 1.063 4290231237
-0.080653101 0.44827399 1.063 4290889168
-0.0777108 0.447851 1.062 4290232011
-0.074703403 0.447007 1.0599999 4290758355
-0.071706802 0.44616199 1.058 4290231241
-0.068720996 0.44531801 1.056 4290231495
-0.065746099 0.44447401 1.054 4289968323
-0.062781997 0.44363001 1.052 4290165702
-0.059942599 0.443629 1.052 4290428874
-0.057048999 0.443207 1.051 4291021011
-0.054212399 0.44320601 1.051 4291284183
-0.051277999 0.44236201 1.049 4290625996
-0.0484006 0.44194001 1.048 4291678684
-0.045528602 0.44151801 1.0470001 4291547354
-0.042662099 0.44109601 1.046 4291021010
-0.039762799 0.44025201 1.044 4291086800
-0.0369098 0.43983001 1.043 4291678936
-0.034062099 0.439408 1.0420001 4291744730
-0.0311899 0.438564 1.04 4291086800
-0.0283284 0.43772101 1.038 4291152593
-0.025477801 0.43687701 1.036 4290691788
-0.022659799 0.43645501 1.035 4290428617
-0.0198281 0.43561199 1.033 4289573565
-0.0170072 0.43476799 1.031 4289705413
-0.0142108 0.43434599 1.03 4289902276
-0.0114088 0.433503 1.028 4291020754
-0.0086259302 0.433081 1.027 4289902272
-0.0058541801 0.433081 1.027 4289178288
-0.00307943 0.432659 1.026 4288717223
-0.00031008301 0.43223801 1.025 4288059293
0.0024562699 0.43223801 1.025 4288651944
0.0052277101 0.432659 1.026 4288455084
0.0079967603 0.432659 1.026 4288520877
0.0107658 0.432659 1.026 4289112757
0.0135085 0.43181601 1.024 4287796897
0.0162562 0.43139499 1.023 4287269008
0.018998601 0.43097299 1.022 4286939528
0.0217569 0.43097299 1.022 4286742402
0.0245631 0.431817 1.024 4286611584
0.027353499 0.432239 1.025 4286151033
0.030149201 0.432661 1.026 4285888375
0.0329183 0.432661 1.026 4285624691
0.0357222 0.433083 1.027 4285887859
0.038493998 0.433083 1.027 4285689966
0.041346099 0.433927 1.029 4285163622
0.0442091 0.434771 1.031 4285098084
0.0470828 0.435615 1.033 4284966496
0.049967401 0.43645799 1.035 4284440152
0.052862801 0.43730199 1.0369999 4284374359
0.0558227 0.438568 1.04 4284243028
0.058798701 0.439834 1.043 4284439637
0.061850101 0.44152099 1.0470001 4284242258
0.064984798 0.44363001 1.052 4284044880
0.068082102 0.44531801 1.056 4283650122
0.071200997 0.44700599 1.0599999 4285360740
0.074271597 0.44827199 1.063 4284637017
0.077358402 0.44953799 1.066 4284571738
0.080310903 0.44995999 1.067 4283848270
0.083268903 0.45038301 1.068 4284243028
0.086393602 0.45164999 1.071 4284241997
0.089534499 0.452916 1.074 4284571216
0.092605598 0.45376101 1.076 4283979077
0.095776297 0.45502701 1.079 4284373837
0.0986889 0.45502901 1.079 4284439630
0.10179 0.455874 1.081 4284439891
0.104805 0.45629701 1.082 4284242512
0.107925 0.45714301 1.084 4284176205
0.110851 0.45714501 1.084 4284241998
0.113777 0.457147 1.084 4283978825
0.116919 0.45799199 1.086 4284308044
0.120182 0.45925999 1.089 4284242251
0.123348 0.46010599 1.091 4284505676
0.12640899 0.46053001 1.092 4284308297
0.129475 0.46095401 1.0930001 4283913539
0.132548 0.46137899 1.094 4284176456
0.135501 0.461382 1.094 4284439630
0.138455 0.46138501 1.094 4284702548
0.14166801 0.46223199 1.096 4284768342
0.14489099 0.46307901 1.098 4284702549
0.147856 0.463083 1.098 4284570963
0.150958 0.46350801 1.099 4284570457
0.153926 0.463512 1.099 4285294433
0.157037 0.463938 1.1 4284768856
0.160007 0.463943 1.1 4284834648
0.16297799 0.463947 1.1 4284637270
0.1661 0.46437401 1.101 4284899928
0.169228 0.46480101 1.102 4284965721
0.172517 0.46564999 1.104 4284307791
0.17534 0.46523401 1.103 4284176201
0.178643 0.46608299 1.105 4284636752
0.181464 0.46566701 1.104 4284637009
0.184781 0.466517 1.1059999 4284637009
0.18776999 0.466524 1.1059999 4284637007
0.19093101 0.46695301 1.107 4284768593
0.193922 0.46696001 1.107 4285097558
0.196914 0.46696699 1.107 4284044618
0.19990601 0.466975 1.107 4284110411
0.20271499 0.46656099 1.1059999 4285163614
0.205891 0.46699101 1.107 4284637016
0.208883 0.46700001 1.107 4284044879
0.211685 0.46658701 1.1059999 4284439637
0.21467499 0.46659699 1.1059999 4285623398
0.217666 0.466607 1.1059999 4285491812
0.22065701 0.46661699 1.1059999 4284702812
0.223244 0.465783 1.104 4285755500
0.22623 0.465794 1.104 4285558633
0.22921699 0.46580499 1.104 4285032289
0.23241401 0.46623901 1.105 4285689704
0.235191 0.46582901 1.104 4285295200
0.23839501 0.466263 1.105 4285097560
0.24116699 0.46585399 1.104 4285623650
0.244156 0.46586701 1.104 4284637016
0.246921 0.46545899 1.103 4285164130
0.249681 0.465051 1.102 4285559402
0.25243601 0.46464401 1.101 4285691503
0.255418 0.46465901 1.101 4286611837
0.25863501 0.46509701 1.102 4286414972
0.261383 0.46469101 1.101 4286217594
0.26436701 0.46470699 1.101 4286151035
0.26710799 0.464302 1.1 4287466640
0.27009001 0.46432 1.1 4286085242
0.27282399 0.463916 1.099 4287466895
0.27530199 0.46309 1.097 4287466893
0.27827701 0.46310899 1.097 4287137928
0.28125301 0.46312901 1.097 4287269512
0.283712 0.46230501 1.095 4287466893
0.28668299 0.46232599 1.095 4287664270
0.28939101 0.461925 1.094 4288387993
0.29209399 0.46152499 1.0930001 4289045923
0.294523 0.46070299 1.091 4287796626
0.29748601 0.46072701 1.091 4288586142
0.30017501 0.46032801 1.09 4287730833
0.30258101 0.459508 1.0880001 4288586142
0.30469701 0.458267 1.085 4289046692
0.307363 0.45787001 1.084 4288388762
0.31002501 0.45747399 1.0829999 4289244072
0.31297201 0.45750099 1.0829999 4288520095
0.31504399 0.45626199 1.08 4288586404
0.31769001 0.45586801 1.079 4289244334
0.320034 0.45505199 1.077 4289046955
0.322368 0.45423701 1.075 4289113262
0.32469201 0.45342299 1.073 4289442227
0.32731101 0.45303199 1.072 4290955466
0.32992601 0.45264199 1.071 4290494915
0.332847 0.45267501 1.071 4289639606
0.33514199 0.45186299 1.069 4290560192
0.337744 0.45147499 1.068 4289310125
0.33970299 0.45024201 1.0650001 4289704883
0.34196901 0.449433 1.063 4288850344
0.34357601 0.44777799 1.059 4290034364
0.34450799 0.445279 1.053 4290823881
0.34573799 0.443203 1.048 4290823881
0.34694299 0.441127 1.043 4291284431
0.348456 0.439475 1.039 4290100929
0.35028699 0.438247 1.036 4290035136
0.35244301 0.437442 1.034 4291218896
0.35424599 0.43621501 1.031 4290363587
0.356727 0.435835 1.03 4289310641
0.35850599 0.43461001 1.027 4288521379
0.361325 0.43465501 1.027 4288389276
0.36379099 0.43427801 1.026 4289244585
0.36660999 0.43432501 1.026 4287533453
0.36943001 0.43437299 1.026 4285757043
0.37334099 0.43569201 1.029 4284572768
0.37799999 0.43786001 1.034 4285296491
0.38489899 0.44257 1.045 4284770401
0.39631301 0.45236501 1.068 4284178264
0.41308901 0.468095 1.105 4284243287
0.426682 0.48001599 1.133 4283717198
0.43436199 0.48516199 1.145 4283519303
0.43867001 0.48649701 1.148 4282860858
0.44261301 0.48741001 1.15 4282531633
0.446181 0.48789999 1.151 4282531886
0.449366 0.487968 1.151 4282663472
0.453733 0.48930901 1.154 4282598193
0.45693099 0.48938 1.154 4282795317
0.46013099 0.48945299 1.154 4281743145
0.46293101 0.48910201 1.153 4282927421
0.46694201 0.490026 1.155 4282137903
0.47015199 0.49010301 1.155 4281546280
0.47295401 0.489757 1.154 4281677866
0.47616601 0.48983601 1.154 4282270005
0.479381 0.48991799 1.154 4282006831
0.48259801 0.49000099 1.154 4282138417
0.485818 0.49008501 1.154 4282466868
0.489041 0.49017099 1.154 4282729526
0.491413 0.48941001 1.152 4282005549
0.49420601 0.48907399 1.151 4282401075
0.496564 0.48831499 1.149 4282467122
0.49978399 0.488408 1.149 4282861879
-0.198044 0.45140401 1.077 4287928221
-0.194952 0.450977 1.076 4287532947
-0.191687 0.45013201 1.074 4287138189
-0.188785 0.45012501 1.074 4287269261
-0.18571 0.44969901 1.073 4287335568
-0.18281101 0.44969299 1.073 4287467670
-0.180079 0.45010599 1.074 4287928221
-0.177343 0.45052001 1.075 4287599770
-0.174439 0.45051399 1.075 4288718251
-0.171535 0.45050901 1.075 4288586151
-0.168631 0.450504 1.075 4288454565
-0.165573 0.45008001 1.074 4288585637
-0.162673 0.450075 1.074 4289243051
-0.159474 0.44923201 1.072 4288848548
-0.156725 0.44964701 1.073 4288585376
-0.15368401 0.449224 1.072 4289045927
-0.150649 0.44880101 1.071 4290822338
-0.14775699 0.448798 1.071 4288848548
-0.14486501 0.44879401 1.071 4289243306
-0.14184 0.44837201 1.0700001 4288650399
-0.13882101 0.44795001 1.069 4288584860
-0.136062 0.44836599 1.0700001 4288386713
-0.13329799 0.448782 1.071 4288387227
-0.130528 0.44919801 1.072 4287794576
-0.127515 0.44877699 1.071 4288321434
-0.124624 0.44877401 1.071 4288124055
-0.121732 0.44877201 1.071 4288255642
-0.11873 0.448351 1.0700001 4288979365
-0.115625 0.44751099 1.068 4288584353
