# .PCD v0.7 - Point Cloud Data file format
VERSION 0.7
FIELDS x y z rgb
SIZE 4 4 4 4
TYPE F F F U
COUNT 1 1 1 1
WIDTH 1127
HEIGHT 1
VIEWPOINT 0 0 0 1 0 0 0
POINTS 1127
DATA ascii
0.38291699 0.25217301 0.54500002 4287336300
0.384065 0.25191301 0.54400003 4287402093
0.38521299 0.25165501 0.54299998 4287204974
0.38707501 0.251863 0.54299998 4287007595
0.38751099 0.25114599 0.54100001 4287468147
-0.199698 0.241593 0.54900002 4288979600
-0.198184 0.24156301 0.54900002 4289045134
-0.19702899 0.241974 0.55000001 4289176719
-0.19587 0.242385 0.551 4288914060
-0.19400001 0.241916 0.55000001 4289110927
-0.192137 0.241449 0.54900002 4289176206
-0.190975 0.241861 0.55000001 4289241999
-0.189119 0.241395 0.54900002 4289110673
-0.187269 0.24092899 0.54799998 4289373585
-0.186103 0.24134301 0.54900002 4289110666
-0.18493301 0.241758 0.55000001 4289242252
-0.183424 0.241733 0.55000001 4289111180
-0.181916 0.24170899 0.55000001 4289110926
-0.180409 0.241686 0.55000001 4288914060
-0.17857701 0.24122301 0.54900002 4288979340
-0.177074 0.241201 0.54900002 4289110926
-0.17525201 0.24074 0.54799998 4288650376
-0.17375199 0.24071801 0.54799998 4288979340
-0.17256799 0.241137 0.54900002 4288847755
-0.171379 0.24155501 0.55000001 4288979087
-0.170185 0.241974 0.551 4288913807
-0.16898599 0.242394 0.55199999 4289045134
-0.16717499 0.241936 0.551 4288913034
-0.165371 0.241478 0.55000001 4289044619
-0.163572 0.24101999 0.54900002 4288978310
-0.162074 0.24100301 0.54900002 4288978565
-0.16087 0.24142399 0.55000001 4288912772
-0.159371 0.24140701 0.55000001 4289044358
-0.158159 0.24182899 0.551 4288846979
-0.15637399 0.241374 0.55000001 4288978310
-0.15487599 0.241358 0.55000001 4288846724
-0.153099 0.240904 0.54900002 4289044358
-0.151329 0.24044999 0.54799998 4288912770
-0.15038501 0.241313 0.55000001 4288781438
-0.149159 0.24173699 0.551 4288847231
-0.147929 0.242162 0.55199999 4288584059
-0.146163 0.24171001 0.551 4288584573
-0.144402 0.241258 0.55000001 4288715391
-0.14290801 0.241245 0.55000001 4288715391
-0.141671 0.241671 0.551 4288715391
-0.14042801 0.24209701 0.55199999 4288386166
-0.138678 0.24164601 0.551 4288977789
-0.137182 0.24163499 0.551 4288911996
-0.13544001 0.24118499 0.55000001 4288846203
-0.13418999 0.241612 0.551 4288649338
-0.132695 0.24160101 0.551 4288583291
-0.131201 0.24159101 0.551 4288715393
-0.129706 0.24158099 0.551 4288649600
-0.128445 0.242009 0.55199999 4288517759
-0.126718 0.241561 0.551 4288649600
-0.12522399 0.241552 0.551 4288518014
-0.123731 0.24154299 0.551 4288714877
-0.122459 0.241972 0.55199999 4288583545
-0.120964 0.241963 0.55199999 4288846463
-0.119035 0.241078 0.55000001 4288451705
-0.117546 0.24107 0.55000001 4288649084
-0.116267 0.241501 0.551 4288714879
-0.114983 0.24193101 0.55199999 4288715138
-0.113489 0.241924 0.55199999 4288386173
-0.111791 0.241478 0.551 4288452989
-0.1107 0.242348 0.55299997 4288387196
-0.108808 0.241465 0.551 4288583805
-0.107317 0.241458 0.551 4288189301
-0.105634 0.24101301 0.55000001 4288057461
-0.104525 0.24188399 0.55199999 4288057977
-0.103031 0.241878 0.55199999 4288255871
-0.101722 0.24231 0.55299997 4288321664
-0.100226 0.242304 0.55299997 4288255871
-0.098730698 0.24229901 0.55299997 4288387456
-0.096883498 0.24141701 0.551 4288452735
-0.095393501 0.241412 0.551 4288321403
-0.0940741 0.241846 0.55199999 4288452473
-0.092917196 0.242717 0.55400002 4288452473
-0.091089398 0.241836 0.55199999 4288255094
-0.089597203 0.241832 0.55199999 4288583545
-0.088105202 0.241827 0.55199999 4288649338
-0.086770102 0.24226101 0.55299997 4288255357
-0.085121296 0.24181899 0.55199999 4288255357
-0.083629601 0.241815 0.55199999 4288452482
-0.081989102 0.241374 0.551 4288189310
-0.080646299 0.241808 0.55199999 4288386689
-0.079154797 0.241805 0.55199999 4288452482
-0.0779448 0.242677 0.55400002 4288584582
-0.076448098 0.24267399 0.55400002 4288452997
-0.074951403 0.242671 0.55400002 4288321410
-0.073322304 0.24223 0.55299997 4288518789
-0.071958303 0.24266499 0.55400002 4288255618
-0.070461899 0.242662 0.55400002 4288386690
-0.069090001 0.24309801 0.55500001 4288452482
-0.0673474 0.242219 0.55299997 4288649862
-0.065734804 0.241779 0.55199999 4288255104
-0.064244002 0.241776 0.55199999 4288320897
-0.062866896 0.242212 0.55299997 4288189824
-0.0612625 0.241772 0.55199999 4288386943
-0.059663601 0.24133199 0.551 4288255357
-0.058281299 0.241768 0.55199999 4288123771
-0.056996498 0.242642 0.55400002 4288321149
-0.055801101 0.243954 0.55699998 4288321150
-0.054394599 0.24439 0.55800003 4288320380
-0.052793201 0.24394999 0.55699998 4288451966
-0.051197201 0.24351101 0.55599999 4288057210
-0.0495173 0.242633 0.55400002 4288189311
-0.048021499 0.242632 0.55400002 4287926399
-0.046525799 0.24263 0.55400002 4287137141
-0.0451927 0.243505 0.55599999 4285755490
-0.043770298 0.24394201 0.55699998 4285492318
-0.042342398 0.244378 0.55800003 4286018660
-0.040909201 0.24481501 0.55900002 4286084196
-0.039259199 0.243938 0.55699998 4287400055
-0.037755501 0.243937 0.55699998 4287597434
-0.036251899 0.243936 0.55699998 4287794813
-0.0348107 0.24437299 0.55800003 4287662967
-0.033304401 0.244372 0.55800003 4288189057
-0.031741101 0.24393401 0.55699998 4287925624
-0.0302376 0.24393301 0.55699998 4287596398
-0.028734 0.24393199 0.55699998 4286412376
-0.027279399 0.244369 0.55800003 4287925101
-0.025727 0.243931 0.55699998 4287860336
-0.024266999 0.244368 0.55800003 4288058231
-0.022760799 0.244367 0.55800003 4287860859
-0.0212927 0.24480499 0.55900002 4287795324
-0.0197838 0.24480399 0.55900002 4287795326
-0.018307701 0.245242 0.56 4287663740
-0.016766099 0.24480399 0.55900002 4287532154
-0.0152573 0.244803 0.55900002 4287203187
-0.0136993 0.243927 0.55699998 4287466102
-0.0122177 0.24436501 0.55800003 4287663220
-0.0106924 0.243926 0.55699998 4287597426
-0.0092054904 0.24436399 0.55800003 4288254580
-0.0076993699 0.24436399 0.55800003 4287794029
-0.0062043602 0.244802 0.55900002 4287728236
-0.0047039501 0.245239 0.56 4288056686
-0.0031924399 0.245239 0.56 4287990893
-0.00167793 0.244801 0.55900002 4287925615
-0.000169426 0.245239 0.56 4287662703
0.00133968 0.244801 0.55900002 4287531887
0.0028484899 0.244801 0.55900002 4287992184
0.0043572998 0.244802 0.55900002 4287334255
0.0058871 0.24567799 0.56099999 4287531894
0.0074013099 0.24567799 0.56099999 4287795066
0.00889963 0.24524 0.56 4287729273
0.0103926 0.244802 0.55900002 4287597687
0.0119014 0.244802 0.55900002 4287729273
0.0134342 0.245241 0.56 4287861112
0.014919 0.244803 0.55900002 4287926391
0.016427901 0.244803 0.55900002 4287991668
0.0178726 0.243928 0.55699998 4287004259
0.019376 0.243928 0.55699998 4286148690
0.020917 0.244367 0.55800003 4286608471
0.0224231 0.244367 0.55800003 4286871898
0.024015101 0.245244 0.56 4286608724
0.025526701 0.245244 0.56 4286543186
0.0270383 0.24524499 0.56 4286740565
0.028498899 0.244808 0.55900002 4287069530
0.030061601 0.24524599 0.56 4287069530
0.031573199 0.24524701 0.56 4287201116
0.0331439 0.24568599 0.56099999 4287398756
0.034534801 0.244811 0.55900002 4287267171
0.036172699 0.24568801 0.56099999 4287069022
0.037620001 0.245251 0.56 4287266656
0.0392715 0.24612799 0.56199998 4286213968
0.0407161 0.245691 0.56099999 4286805846
0.04208 0.24481601 0.55900002 4287990122
0.0435111 0.244379 0.55800003 4287792741
0.0450176 0.244381 0.55800003 4286740053
0.046607401 0.24482 0.55900002 4286213709
0.048030499 0.24438301 0.55800003 4287069018
0.0495371 0.244385 0.55800003 4286937944
0.0510436 0.244386 0.55800003 4287200861
0.0525502 0.244388 0.55800003 4287990891
0.054056801 0.24439 0.55800003 4287925868
0.055563498 0.24439099 0.55800003 4287860589
0.057070199 0.24439301 0.55800003 4287597163
0.058577001 0.244395 0.55800003 4287136352
0.0601914 0.244835 0.55900002 4287465064
0.061921701 0.245713 0.56099999 4287398757
0.063323602 0.245277 0.56 4286872926
0.064720199 0.24484199 0.55900002 4287004512
0.066111401 0.244406 0.55800003 4286873946
0.067497298 0.24397101 0.55699998 4285953624
0.069001697 0.243973 0.55699998 4281019161
0.070253 0.2431 0.55500001 4284439901
0.072010703 0.24397901 0.55699998 4287466368
0.073515303 0.243981 0.55699998 4287532654
0.07502 0.243984 0.55699998 4286741601
0.076387301 0.243549 0.55599999 4286806880
0.077889398 0.243553 0.55599999 4286675296
0.079391703 0.24355599 0.55599999 4286872675
0.080893897 0.243559 0.55599999 4287135339
0.082248099 0.24312501 0.55500001 4286872927
0.083747797 0.243129 0.55500001 4286872927
0.084940501 0.242256 0.55299997 4287003998
0.086434998 0.24225999 0.55299997 4287069791
0.087929703 0.242265 0.55299997 4287201377
0.089586101 0.242707 0.55400002 4287004513
0.090919301 0.242273 0.55299997 4287004513
0.092414297 0.24227799 0.55299997 4286675548
0.094079196 0.24272101 0.55400002 4286806882
0.095749602 0.243164 0.55500001 4287070054
0.097250298 0.24316899 0.55500001 4286937952
0.098751202 0.243174 0.55500001 4287069024
0.099890999 0.242303 0.55299997 4286674264
0.101387 0.242309 0.55299997 4286871643
0.102883 0.24231499 0.55299997 4287069022
0.104567 0.242759 0.55400002 4287134815
0.106066 0.24276499 0.55400002 4287003492
0.107371 0.24233299 0.55299997 4286806366
0.108868 0.24234 0.55299997 4286675548
0.110365 0.242346 0.55299997 4286741341
0.111659 0.241915 0.55199999 4286675041
0.112949 0.241484 0.551 4286675548
0.114025 0.240615 0.54900002 4286675286
0.115512 0.240622 0.54900002 4287069528
0.117212 0.241069 0.55000001 4286674770
0.118917 0.241515 0.551 4286937689
0.120628 0.241962 0.55199999 4286543447
0.122124 0.24197 0.55199999 4286477654
0.123844 0.24241699 0.55299997 4286675034
0.124889 0.24155 0.551 4286806619
0.12615401 0.24112099 0.55000001 4286741079
0.127413 0.240692 0.54900002 4286477905
0.129136 0.24113999 0.55000001 4286411853
0.13110299 0.242027 0.55199999 4286609232
0.13284101 0.242476 0.55299997 4286872149
0.13409799 0.242048 0.55199999 4286740565
0.135842 0.242498 0.55299997 4286477393
0.137343 0.24250899 0.55299997 4286214480
0.13909499 0.24295899 0.55400002 4286346835
0.1406 0.242971 0.55400002 4286412628
0.142104 0.242984 0.55400002 4286214733
0.14361 0.24299601 0.55400002 4286478160
0.144853 0.242571 0.55299997 4286543953
0.146356 0.242584 0.55299997 4286675286
0.14786001 0.242598 0.55299997 4286543700
0.149363 0.242612 0.55299997 4286543700
0.15059499 0.24218699 0.55199999 4286543700
0.152372 0.242641 0.55299997 4286214480
0.154156 0.243095 0.55400002 4286477907
0.155664 0.24311 0.55400002 4286412114
0.15717299 0.243126 0.55400002 4286148690
0.15839501 0.24270301 0.55299997 4286411862
0.15990201 0.24271999 0.55299997 4286477655
0.16170099 0.243176 0.55400002 4286543962
0.163212 0.243194 0.55400002 4286346583
0.165317 0.24408901 0.55599999 4286215249
0.166234 0.24323 0.55400002 4286281042
0.16744401 0.24281 0.55299997 4286412628
0.168648 0.24239001 0.55199999 4286609746
0.170156 0.24240901 0.55199999 4286675791
0.171353 0.24199 0.551 4286412365
0.172545 0.24157099 0.55000001 4286543953
0.17468201 0.24247099 0.55199999 4286478160
0.176511 0.24293099 0.55299997 4286083917
0.17802501 0.242953 0.55299997 4286280273
0.17986301 0.243415 0.55400002 4286543445
0.18170799 0.24387801 0.55500001 4286477652
0.183229 0.243901 0.55500001 4286214480
0.184085 0.243046 0.55299997 4286214735
0.18493 0.242192 0.551 4286412628
0.186781 0.24265601 0.55199999 4286281042
0.18795501 0.24224199 0.551 4286281043
0.189468 0.242268 0.551 4286412628
0.190982 0.242295 0.551 4286609493
0.192847 0.242762 0.55199999 4286214480
0.19436499 0.24279 0.55199999 4285952078
0.195885 0.242818 0.55199999 4286215250
0.197762 0.243287 0.55299997 4286346066
0.199286 0.24331699 0.55299997 4286214733
0.200084 0.242467 0.551 4286346060
0.20197 0.242938 0.55199999 4286346060
0.20386299 0.24340899 0.55299997 4286148940
0.20539001 0.243441 0.55299997 4286148940
0.206544 0.24303401 0.55199999 4286083147
0.20807099 0.243067 0.55199999 4286083147
0.209978 0.243542 0.55299997 4286280781
0.21189199 0.244017 0.55400002 4286346058
0.21342701 0.24405301 0.55400002 4286214986
0.21457499 0.24364799 0.55299997 4286083654
0.215718 0.24324501 0.55199999 4286017861
0.216857 0.24284101 0.551 4286149193
0.218389 0.24288 0.551 4286280781
0.22032 0.243359 0.55199999 4286149195
0.222258 0.24383999 0.55299997 4286280528
0.22420301 0.244322 0.55400002 4286017354
0.225747 0.244363 0.55400002 4286280012
0.22770301 0.244847 0.55500001 4286346060
0.22842599 0.24400701 0.55299997 4286214726
0.22997101 0.24405099 0.55299997 4286477898
0.23109899 0.243654 0.55199999 4286346312
0.23306499 0.244141 0.55299997 4286017095
0.234614 0.244187 0.55299997 4286083147
0.236165 0.244234 0.55299997 4286214733
0.237287 0.24383999 0.55199999 4285952077
0.238405 0.24344701 0.551 4285688905
0.24039 0.243939 0.55199999 4285886284
0.241943 0.24398901 0.55199999 4285821005
0.243499 0.244041 0.55199999 4286018638
0.245055 0.244093 0.55199999 4286215250
0.246167 0.24370401 0.551 4285886285
0.247724 0.24375799 0.551 4286082894
0.249282 0.24381299 0.551 4286083400
0.25129801 0.244312 0.55199999 4286346572
0.25286299 0.244369 0.55199999 4285951814
0.25396901 0.243984 0.551 4286346826
0.25507101 0.24360099 0.55000001 4286938197
0.25616899 0.24321701 0.54900002 4286214725
0.25820199 0.24372201 0.55000001 4286346312
0.25977001 0.243784 0.55000001 4286609232
0.26181501 0.24428999 0.551 4286543698
0.26339 0.24435399 0.551 4286149195
0.265448 0.244863 0.55199999 4286149195
0.26654601 0.244486 0.551 4286281295
0.26763999 0.24411 0.55000001 4286543698
0.26971 0.24462301 0.551 4285951563
0.27129501 0.244693 0.551 4286544728
0.272883 0.244764 0.551 4286742107
0.27447301 0.244836 0.551 4286808415
0.275563 0.24446499 0.55000001 4286414175
0.277659 0.244984 0.551 4286414175
0.279255 0.24506 0.551 4286546279
0.28085399 0.245138 0.551 4286808937
0.28143001 0.244326 0.54900002 4286545763
0.28302801 0.244405 0.54900002 4286677090
0.28514701 0.244932 0.55000001 4287005794
0.287274 0.24545901 0.551 4287137379
0.28836101 0.245097 0.55000001 4286940000
0.29049999 0.245628 0.551 4287203173
0.29264599 0.246161 0.55199999 4286743136
0.294269 0.24624901 0.55199999 4287006567
0.295358 0.245892 0.551 4287203691
0.296444 0.245536 0.55000001 4287401070
0.298069 0.245628 0.55000001 4287072358
0.29969701 0.245722 0.55000001 4286546014
0.301328 0.24581701 0.55000001 4287138149
0.30406299 0.24680699 0.55199999 4286743391
0.305152 0.24645799 0.551 4286874977
0.30679601 0.246558 0.551 4287203173
0.30788201 0.24621201 0.55000001 4286874722
0.30896601 0.245867 0.54900002 4287466094
0.31061301 0.24597099 0.54900002 4287400038
0.31226301 0.246076 0.54900002 4286281800
0.31391701 0.24618401 0.54900002 4286215239
0.31557399 0.24629299 0.54900002 4286741323
0.31665701 0.24595501 0.54799998 4286346562
0.31889901 0.246516 0.54900002 4286281024
0.32056701 0.246631 0.54900002 4286609736
0.32282501 0.247196 0.55000001 4286543690
0.32450399 0.24731401 0.55000001 4286411847
0.32677901 0.24788401 0.551 4286478151
0.32846799 0.248006 0.551 4286675272
0.32956201 0.247679 0.55000001 4286741322
0.330654 0.247354 0.54900002 4286280772
0.332955 0.247932 0.55000001 4286544719
0.33404899 0.24761 0.54900002 4286611785
0.33636501 0.248193 0.55000001 4286939993
0.33746099 0.24787501 0.54900002 4287070811
0.33855599 0.247558 0.54799998 4286215500
0.33964899 0.247243 0.54699999 4287202135
0.342612 0.24828599 0.54900002 4287267928
0.34433901 0.248428 0.54900002 4286807891
0.34543899 0.248118 0.54799998 4287070811
0.34590501 0.24735799 0.546 4286610775
0.34827301 0.247958 0.54699999 4286347603
0.349372 0.24765401 0.546 4286873432
0.35047001 0.247352 0.54500002 4286216260
0.35092101 0.24659701 0.54299998 4285493061
0.35136399 0.24584401 0.54100001 4283190318
0.35179901 0.24509101 0.53899997 4283453492
0.355506 0.24661499 0.542 4287203946
0.36055699 0.249054 0.54699999 4287598702
0.36299601 0.249676 0.54799998 4287532909
0.36478099 0.249844 0.54799998 4287532656
0.36657199 0.250016 0.54799998 4287401325
0.36836901 0.25018999 0.54799998 4287335277
0.369497 0.249909 0.54699999 4287401070
0.37062299 0.249631 0.546 4287401070
0.371068 0.248897 0.54400003 4287532658
0.37424701 0.24999601 0.546 4287335277
0.37813401 0.25155699 0.54900002 4287466863
0.38066399 0.252206 0.55000001 4287598449
0.38112101 0.25148201 0.54799998 4287664242
0.38157099 0.25075901 0.546 4287598449
0.38271701 0.25049701 0.54500002 4287665012
0.38527301 0.25115699 0.546 4287401840
0.386426 0.2509 0.54500002 4287533426
0.38757899 0.250646 0.54400003 4287402354
0.38873199 0.25039399 0.54299998 4287336307
-0.199304 0.239631 0.54799998 4289176466
-0.198154 0.24003901 0.54900002 4289045134
-0.196642 0.24000999 0.54900002 4289176720
-0.19548599 0.240419 0.55000001 4288979598
-0.19362 0.23995399 0.54900002 4289176720
-0.19211 0.23992699 0.54900002 4289308052
-0.19060101 0.23989999 0.54900002 4289044880
-0.18909299 0.23987401 0.54900002 4289242259
-0.187243 0.23941199 0.54799998 4289307792
-0.185739 0.23938701 0.54799998 4289307791
-0.184572 0.23979899 0.54900002 4289176459
-0.18306699 0.239775 0.54900002 4288848008
-0.18156201 0.23975199 0.54900002 4288979594
-0.18038601 0.24016599 0.55000001 4289045646
-0.17823 0.23927 0.54799998 4289111439
-0.17673001 0.23924799 0.54799998 4288979853
-0.17490999 0.23879001 0.54699999 4288847755
-0.17404801 0.23964199 0.54900002 4289111439
-0.172233 0.239186 0.54799998 4288979598
-0.170736 0.23916601 0.54799998 4288913805
-0.169239 0.23914599 0.54799998 4288716426
-0.16804799 0.239563 0.54900002 4288913548
-0.16655 0.239545 0.54900002 4288913034
-0.165052 0.239527 0.54900002 4288913033
-0.163256 0.23907299 0.54799998 4288913287
-0.161762 0.23905499 0.54799998 4288913287
-0.160853 0.239911 0.55000001 4288979080
-0.15964399 0.24033 0.551 4288979080
-0.15843 0.24075 0.55199999 4288847494
-0.156358 0.23986199 0.55000001 4288781447
-0.154579 0.239411 0.54900002 4288913034
-0.152806 0.23896 0.54799998 4288847240
-0.15103801 0.238509 0.54699999 4288979080
-0.14982399 0.238931 0.54799998 4288781701
-0.148333 0.23891699 0.54799998 4288715393
-0.147111 0.23934001 0.54900002 4288518012
-0.145354 0.23889001 0.54799998 4288584575
-0.14386401 0.238878 0.54799998 4288650368
-0.142635 0.239301 0.54900002 4288650368
-0.14140099 0.23972499 0.55000001 4288781954
-0.14016201 0.24014799 0.551 4288847231
-0.138414 0.239701 0.55000001 4288649852
-0.136921 0.23969001 0.55000001 4288847231
-0.13542899 0.23967899 0.55000001 4288780924
-0.13417999 0.240104 0.551 4288781438
-0.13268501 0.24009299 0.551 4288452219
-0.130952 0.239648 0.55000001 4288650114
-0.129696 0.240073 0.551 4288518529
-0.12820201 0.240064 0.551 4288386943
-0.126479 0.239619 0.55000001 4288584321
-0.124761 0.23917399 0.54900002 4288452735
-0.123048 0.23873 0.54799998 4288583805
-0.122007 0.239593 0.55000001 4288649598
-0.120955 0.240456 0.55199999 4288517498
-0.119027 0.239576 0.55000001 4288714877
-0.117324 0.239133 0.54900002 4288714879
-0.115626 0.23869 0.54799998 4288583807
-0.114559 0.239554 0.55000001 4288649345
-0.11307 0.239547 0.55000001 4288452221
-0.111784 0.23997501 0.551 4288452219
-0.110293 0.239968 0.551 4288386680
-0.108802 0.239962 0.551 4288451959
-0.107311 0.23995601 0.551 4288386166
-0.10582 0.23995 0.551 4288254840
-0.104519 0.24037901 0.55199999 4288518012
-0.103026 0.240373 0.55199999 4288386428
-0.101533 0.24036799 0.55199999 4288321149
-0.10004 0.240363 0.55199999 4288123770
-0.098368399 0.239922 0.551 4288255357
-0.096878402 0.239917 0.551 4288584322
-0.095215499 0.23947699 0.55000001 4288518529
-0.093898997 0.239907 0.551 4288321149
-0.092577197 0.240338 0.55199999 4288583805
-0.090920001 0.23989899 0.551 4288649852
-0.089430697 0.239894 0.551 4288452473
-0.087941498 0.23988999 0.551 4288255094
-0.0866092 0.24032199 0.55199999 4288321149
-0.084809102 0.239447 0.55000001 4288321150
-0.083171397 0.23900799 0.54900002 4288255357
-0.081539199 0.23856901 0.54799998 4288058238
-0.0800585 0.238566 0.54799998 4287926906
-0.078864701 0.239434 0.55000001 4288190077
-0.077519603 0.239866 0.551 4288387457
-0.076030999 0.23986299 0.551 4288387203
-0.074542597 0.23986 0.551 4288387457
-0.073054202 0.239857 0.551 4288518529
-0.071695797 0.24029 0.55199999 4288584068
-0.070204899 0.24028701 0.55199999 4288386173
-0.068838499 0.24072 0.55299997 4288583552
-0.067223199 0.240282 0.55199999 4288518014
-0.065732397 0.24028 0.55199999 4288452221
-0.064125396 0.239842 0.551 4288518528
-0.062637404 0.23984 0.551 4288321149
-0.0611495 0.239838 0.551 4288189564
-0.059553299 0.239401 0.55000001 4288451966
-0.058068201 0.239399 0.55000001 4288123771
-0.056788899 0.24026801 0.55199999 4288189564
-0.055498801 0.241137 0.55400002 4288386943
-0.054003 0.241135 0.55400002 4288321150
-0.0525073 0.241134 0.55400002 4288057978
-0.051011499 0.24113201 0.55400002 4288255357
-0.049426399 0.240696 0.55299997 4288189311
-0.047846802 0.24025901 0.55199999 4288057725
-0.0463566 0.24025799 0.55199999 4287728760
-0.045028899 0.241127 0.55400002 4287662967
-0.043611899 0.241561 0.55500001 4287070830
-0.0420378 0.241125 0.55400002 4287466102
-0.0406886 0.24199399 0.55599999 4287926652
-0.0391877 0.241993 0.55599999 4287795324
-0.037686799 0.241992 0.55599999 4287795067
-0.036120798 0.241556 0.55500001 4287728507
-0.034685001 0.241991 0.55599999 4287926139
-0.033184201 0.24199 0.55599999 4287926392
-0.031740401 0.242424 0.55699998 4288254328
-0.0301283 0.24155299 0.55500001 4287070306
-0.028630201 0.241552 0.55500001 4286609503
-0.027181 0.241987 0.55599999 4287859570
-0.025680199 0.24198601 0.55599999 4287925622
-0.0241795 0.24198601 0.55599999 4288057724
-0.0226379 0.24155 0.55500001 4287663227
-0.021178 0.24198499 0.55599999 4287729533
-0.019677199 0.24198399 0.55599999 4287466361
-0.018241899 0.242855 0.55800003 4287531899
-0.0167358 0.242854 0.55800003 4287466361
-0.0152297 0.242854 0.55800003 4287268982
-0.013699 0.24241801 0.55699998 4287071343
-0.0121956 0.24241801 0.55699998 4287466355
-0.0106922 0.24241801 0.55699998 4287334254
-0.0091888001 0.24241801 0.55699998 4287860336
-0.0077130101 0.243288 0.55900002 4287530857
-0.0061931298 0.242853 0.55800003 4287399271
-0.0046870499 0.242852 0.55800003 4287859821
-0.00317527 0.24241699 0.55699998 4287991408
-0.0016748901 0.242852 0.55800003 4287859822
-0.00016881801 0.242852 0.55800003 4287728496
0.00133726 0.242852 0.55800003 4287662703
0.0028433299 0.242852 0.55800003 4287860084
0.00434162 0.24241699 0.55699998 4287728498
0.00585549 0.242853 0.55800003 4288057463
0.0073615699 0.242853 0.55800003 4287925877
0.0088517601 0.24241801 0.55699998 4287794805
0.0103552 0.24241801 0.55699998 4287465841
0.0118373 0.241983 0.55599999 4287532147
0.0133619 0.24241801 0.55699998 4287860852
0.0148653 0.242419 0.55699998 4287992438
0.0163981 0.242854 0.55800003 4287991154
0.017872199 0.242419 0.55699998 4287136099
0.0193408 0.24198399 0.55599999 4286346069
0.0208415 0.24198499 0.55599999 4286675034
0.0223825 0.242421 0.55699998 4286740827
0.023928801 0.242856 0.55800003 4286543448
0.0254349 0.24285699 0.55800003 4287003484
0.0268928 0.242422 0.55699998 4287135068
0.0284473 0.24285799 0.55800003 4286740565
0.0300608 0.243729 0.56 4287069530
0.031628799 0.244165 0.56099999 4287530081
0.033143099 0.244166 0.56099999 4286937689
0.034533899 0.243296 0.55900002 4287661414
0.035978399 0.242862 0.55800003 4287069022
0.037484702 0.242863 0.55800003 4286608726
0.039060801 0.24329901 0.55900002 4287134811
0.040569801 0.24330001 0.55900002 4287792741
0.041928299 0.24243 0.55699998 4286937689
0.043432001 0.242431 0.55699998 4287990632
0.0449357 0.242433 0.55699998 4287529826
0.046606101 0.243304 0.55900002 4286740310
0.0479431 0.24243499 0.55699998 4287529569
0.049446899 0.24243601 0.55699998 4286806103
0.050859202 0.242002 0.55599999 4286411347
0.052548598 0.242874 0.55800003 4287464549
0.053958301 0.242441 0.55699998 4287991407
0.0554622 0.242442 0.55699998 4287662956
0.0568639 0.242009 0.55599999 4287399784
0.058365099 0.242011 0.55599999 4287728489
0.0599741 0.242448 0.55699998 4286938720
0.061698899 0.24332 0.55900002 4287398757
0.063095301 0.24288701 0.55800003 4287069791
0.064602204 0.242889 0.55800003 4287136352
0.065872103 0.24202099 0.55599999 4286808667
0.067252502 0.241588 0.55500001 4285559119
0.068751402 0.24158999 0.55500001 4281018916
0.070250399 0.241592 0.55500001 4284571740
0.071878701 0.24202999 0.55599999 4287335036
0.073512502 0.242468 0.55699998 4287598449
0.074882299 0.242036 0.55599999 4287203172
0.076246902 0.241603 0.55500001 4287136359
0.077606097 0.241171 0.55400002 4287267692
0.079388402 0.242045 0.55599999 4287136106
0.080744997 0.241613 0.55500001 4287136361
0.082096398 0.241181 0.55400002 4287136612
0.083593301 0.241184 0.55400002 4287202152
0.084936701 0.240753 0.55299997 4286741855
0.086431101 0.24075601 0.55299997 4287136099
0.087766603 0.240325 0.55199999 4287136605
0.089096799 0.239893 0.551 4287070306
0.090586103 0.239898 0.551 4286872927
0.091908403 0.239467 0.55000001 4287201640
0.093904696 0.240777 0.55299997 4287135592
0.0953997 0.24078199 0.55299997 4287135592
0.096719697 0.24035101 0.55199999 4287332712
0.0980343 0.239921 0.551 4287266403
0.099524401 0.239926 0.551 4287134817
0.101381 0.240802 0.55299997 4286937436
0.102877 0.240808 0.55299997 4287200608
0.104184 0.24037801 0.55199999 4287134815
0.105486 0.239948 0.551 4287398757
0.106782 0.239519 0.55000001 4286938206
0.108271 0.23952501 0.55000001 4286609755
0.109759 0.239531 0.55000001 4286741341
0.111045 0.239103 0.54900002 4286807133
0.112531 0.23910899 0.54900002 4287004766
0.114018 0.239116 0.54900002 4286675791
0.115504 0.239124 0.54900002 4287135321
0.117204 0.239567 0.55000001 4287003737
0.118909 0.24000999 0.551 4286937689
0.12062 0.240454 0.55199999 4286740826
0.121894 0.240026 0.551 4286543448
0.123611 0.24047001 0.55199999 4286675548
0.12488 0.240044 0.551 4286675033
0.12614401 0.239617 0.55000001 4286806358
0.12740301 0.23919 0.54900002 4286608977
0.129126 0.239636 0.55000001 4286477391
0.131093 0.24051701 0.55199999 4286674770
0.13282999 0.240963 0.55299997 4286608979
0.13408799 0.240537 0.55199999 4286872151
0.135585 0.240548 0.55199999 4286411600
0.13708299 0.240559 0.55199999 4286412114
0.138833 0.241006 0.55299997 4286346319
0.14008 0.240582 0.55199999 4286083917
0.141323 0.24015801 0.551 4286346319
0.142819 0.24017 0.551 4286346574
0.14457799 0.24061801 0.55199999 4286346574
0.14607801 0.240631 0.55199999 4286478412
0.147311 0.240208 0.551 4286280528
0.14853901 0.239786 0.55000001 4286609238
0.15003499 0.23980001 0.55000001 4286345552
0.151807 0.24025001 0.551 4286477393
0.153584 0.240701 0.55199999 4286543184
0.155086 0.240716 0.55199999 4286477391
0.156589 0.240731 0.55199999 4286412104
0.15780599 0.240311 0.551 4286543439
0.159307 0.240327 0.551 4286345301
0.16051701 0.239907 0.55000001 4286280273
0.162311 0.24036001 0.551 4286280528
0.16381299 0.24037699 0.551 4286412112
0.165316 0.24039499 0.551 4286018124
0.166214 0.23954099 0.54900002 4286609746
0.168018 0.239996 0.55000001 4286478158
0.169211 0.23957799 0.54900002 4286412105
0.171022 0.240034 0.55000001 4286280519
0.17221101 0.239618 0.54900002 4286346574
0.17402799 0.24007399 0.55000001 4286478160
0.175532 0.240095 0.55000001 4286412629
0.177359 0.24055301 0.551 4286412629
0.178867 0.240575 0.551 4286215249
0.18103001 0.24147099 0.55299997 4286412114
0.18287501 0.24192999 0.55400002 4286412114
0.18406101 0.24151701 0.55299997 4286214733
0.18490601 0.240667 0.551 4286215249
0.186417 0.240692 0.551 4286346835
0.18758801 0.24028 0.55000001 4286478422
0.18875501 0.239868 0.54900002 4286610007
0.19060899 0.24033099 0.55000001 4286017870
0.19282 0.24123199 0.55199999 4286215250
0.194337 0.24125899 0.55199999 4286281042
0.195856 0.24128699 0.55199999 4286281043
0.197018 0.240878 0.551 4286281043
0.19853599 0.240907 0.551 4286281042
0.19932801 0.240062 0.54900002 4286346835
0.201208 0.240529 0.55000001 4286083147
0.20272499 0.24056 0.55000001 4286412112
0.204615 0.241028 0.551 4286477905
0.205763 0.240623 0.55000001 4286609746
0.20728301 0.240655 0.55000001 4286478160
0.20880499 0.24068899 0.55000001 4286215502
0.211092 0.241598 0.55199999 4286083916
0.212621 0.241633 0.55199999 4286280779
0.213763 0.24123 0.551 4286149707
0.21529099 0.241266 0.551 4286478675
0.21682 0.241303 0.551 4286347089
0.21795399 0.24090201 0.55000001 4286347089
0.219483 0.240941 0.55000001 4286083663
0.22101299 0.240979 0.55000001 4286083149
0.222948 0.241457 0.551 4286346319
0.224483 0.24149799 0.551 4286543184
0.22643 0.24197701 0.55199999 4286411853
0.22797 0.242019 0.55199999 4286083140
0.229927 0.24250101 0.55299997 4286214726
0.23105399 0.24210601 0.55199999 4286346572
0.232177 0.241712 0.551 4286083917
0.23372 0.24175701 0.551 4286083663
0.235264 0.24180301 0.551 4286149456
0.23638 0.241411 0.55000001 4285952077
0.23792399 0.241458 0.55000001 4286017870
0.23946901 0.24150699 0.55000001 4286215503
0.241455 0.24199601 0.551 4285952077
0.24256501 0.241607 0.55000001 4286018124
0.244115 0.241658 0.55000001 4286018124
0.245667 0.24171001 0.55000001 4286083916
0.24721999 0.241763 0.55000001 4285952330
0.24877501 0.241817 0.55000001 4286018123
0.24987601 0.24143299 0.54900002 4286018121
0.251432 0.24148799 0.54900002 4286346826
0.25298899 0.24154501 0.54900002 4286149447
0.25408399 0.241163 0.54799998 4286412104
0.25517601 0.24078199 0.54699999 4285952059
0.25673199 0.240841 0.54699999 4286149186
0.25923601 0.24178299 0.54900002 4286675277
0.26127699 0.242285 0.55000001 4286280265
0.26284799 0.242348 0.55000001 4286280265
0.26442099 0.242413 0.55000001 4286148681
0.26599601 0.242478 0.55000001 4285885770
0.267086 0.242103 0.54900002 4286609491
0.26915199 0.242612 0.55000001 4286280528
0.270733 0.242681 0.55000001 4286676054
0.27231699 0.24275 0.55000001 4286939740
0.273902 0.24282099 0.55000001 4286874207
0.27548999 0.24289399 0.55000001 4286743136
0.278088 0.24385101 0.55199999 4286808933
0.279686 0.243926 0.55199999 4286545763
0.28077701 0.24356 0.551 4286282593
0.28135201 0.242753 0.54900002 4286874728
0.282433 0.24238899 0.54799998 4286874726
0.28454801 0.24291 0.54900002 4287006055
0.28667 0.243434 0.55000001 4287400552
0.288802 0.24395899 0.551 4286676829
0.29041401 0.24404299 0.551 4287005794
0.29256001 0.244571 0.55199999 4286611036
0.293648 0.244214 0.551 4287006310
0.29526901 0.244302 0.551 4286874724
0.29689199 0.24439199 0.551 4287269739
0.297977 0.244039 0.55000001 4286743391
0.29960299 0.244131 0.55000001 4286546012
0.30068499 0.24378 0.54900002 4286743644
0.302865 0.24431901 0.55000001 4286874975
0.303947 0.243972 0.54900002 4286940770
0.306696 0.244959 0.551 4287006308
0.30834001 0.245059 0.551 4287203687
0.30998799 0.24516 0.551 4287138149
0.310509 0.24437299 0.54900002 4287269219
0.311589 0.244032 0.54799998 4286412881
0.31323799 0.244137 0.54799998 4286084168
0.31489 0.24424499 0.54799998 4286938448
0.31654599 0.24435399 0.54799998 4286346565
0.318205 0.244464 0.54799998 4286543943
0.320452 0.245023 0.54900002 4286872909
0.32212201 0.24513701 0.54900002 4286543690
0.32497501 0.24614701 0.551 4286609483
0.32547301 0.245372 0.54900002 4286741323
0.32655799 0.24504399 0.54799998 4286412606
0.32764199 0.244718 0.54699999 4286741070
0.32932499 0.24484099 0.54699999 4286938448
0.33101201 0.244966 0.54699999 4286544719
0.333312 0.24554101 0.54799998 4286875473
0.33562201 0.24611799 0.54900002 4286611785
0.336099 0.245353 0.54699999 4286478683
0.33718601 0.245037 0.546 4286150223
0.33951199 0.24562 0.54699999 4286544465
0.341849 0.246206 0.54799998 4287465307
0.34356999 0.246346 0.54799998 4287136855
0.344666 0.24603701 0.54699999 4287004756
0.34639299 0.24618 0.54699999 4287399514
0.34812501 0.246326 0.54699999 4286675791
0.34986201 0.246473 0.54699999 4286478926
0.35160401 0.24662299 0.54699999 4286545738
0.35205999 0.245873 0.54500002 4285558600
0.352507 0.245124 0.54299998 4284045882
0.35164201 0.24347199 0.53899997 4283256115
0.354691 0.244533 0.54100001 4286678117
0.359734 0.24695399 0.546 4287599471
0.363491 0.248475 0.54900002 4287664495
0.363947 0.24773701 0.54699999 4287927669
0.36372599 0.246546 0.54400003 4287401325
0.36617899 0.24717 0.54500002 4287664497
0.36796999 0.247343 0.54500002 4287532911
0.36908799 0.24706399 0.54400003 4287861621
0.369524 0.246334 0.542 4287401070
0.37337801 0.247878 0.54500002 4287335277
0.377258 0.24942701 0.54799998 4287466863
0.381165 0.250981 0.551 4287598449
0.381623 0.25026101 0.54900002 4287532658
0.382074 0.249542 0.54699999 4287664244
0.38181701 0.248368 0.54400003 4287796344
0.38366199 0.248565 0.54400003 4287796344
0.38480499 0.248308 0.54299998 4287927930
0.387373 0.248969 0.54400003 4287336307
0.38852301 0.248717 0.54299998 4287271030
-0.198911 0.237675 0.54699999 4288781448
-0.198125 0.238515 0.54900002 4288979341
-0.196614 0.23848701 0.54900002 4288650376
-0.195103 0.23845901 0.54900002 4288781708
-0.19288699 0.237564 0.54699999 4288913294
-0.191034 0.237103 0.546 4288978573
-0.189533 0.237077 0.546 4288978573
-0.188034 0.23705199 0.546 4288978827
-0.186877 0.237461 0.54699999 4289110412
-0.185376 0.23743699 0.54699999 4289175689
-0.18454801 0.238281 0.54900002 4288913287
-0.183043 0.238258 0.54900002 4289176459
-0.181539 0.238235 0.54900002 4288913287
-0.18003599 0.238213 0.54900002 4288913801
-0.178533 0.23819099 0.54900002 4288913801
-0.177031 0.23817 0.54900002 4289045133
-0.175209 0.23771501 0.54799998 4289176719
-0.17339399 0.237261 0.54699999 4289177232
-0.17189901 0.237241 0.54699999 4288848267
-0.170716 0.237655 0.54799998 4289111184
-0.16952799 0.23807 0.54900002 4289045133
-0.16802999 0.238051 0.54900002 4288847754
-0.16653199 0.238033 0.54900002 4288913033
-0.16473299 0.237582 0.54799998 4288978826
-0.162643 0.236698 0.546 4289307791
-0.16145 0.237115 0.54699999 4288978826
-0.160836 0.238398 0.55000001 4289110412
-0.159338 0.238382 0.55000001 4288715654
-0.157553 0.23793299 0.54900002 4289373838
-0.15549 0.237051 0.54699999 4288913547
-0.154282 0.23747 0.54799998 4288650376
-0.15279099 0.237455 0.54799998 4289044620
-0.151576 0.237874 0.54900002 4288781448
-0.14981 0.237427 0.54799998 4288979080
-0.14859 0.237847 0.54900002 4288846724
-0.14683001 0.23740099 0.54799998 4288715393
-0.14507601 0.236955 0.54699999 4288781700
-0.143589 0.23694199 0.54699999 4288518528
-0.142363 0.237363 0.54799998 4288715907
-0.140875 0.237352 0.54799998 4288650114
-0.139642 0.237773 0.54900002 4288584321
-0.137648 0.23689599 0.54699999 4288452735
-0.135915 0.236452 0.546 4288846977
-0.13492499 0.237308 0.54799998 4288781184
-0.134169 0.23859601 0.551 4288452219
-0.13267501 0.23858599 0.551 4288715391
-0.130943 0.238144 0.55000001 4288650114
-0.12898099 0.237268 0.54799998 4288781701
-0.12796 0.238125 0.55000001 4288584322
-0.12624 0.237683 0.54900002 4288715908
-0.124979 0.238107 0.55000001 4288518529
-0.123264 0.237666 0.54900002 4288518529
-0.121999 0.23809101 0.55000001 4288649600
-0.120728 0.238516 0.551 4288583807
-0.119236 0.238508 0.551 4288517759
-0.117744 0.2385 0.551 4288714624
-0.11583 0.237628 0.54900002 4288386173
-0.114344 0.23762099 0.54900002 4288583552
-0.112858 0.23761401 0.54900002 4288583807
-0.111372 0.237607 0.54900002 4288715391
-0.110287 0.23846599 0.551 4288452473
-0.108796 0.23846 0.551 4288451959
-0.1075 0.238887 0.55199999 4288715131
-0.105622 0.23801599 0.55000001 4288386166
-0.103945 0.23757701 0.54900002 4288517498
-0.10246 0.237572 0.54900002 4288649600
-0.101159 0.23799901 0.55000001 4288386428
-0.099672101 0.237994 0.55000001 4288321150
-0.098184898 0.23798899 0.55000001 4288057978
-0.096522003 0.237552 0.54900002 4288518529
-0.095037803 0.237547 0.54900002 4288584322
-0.093894497 0.238408 0.551 4288452735
-0.092572801 0.238837 0.55199999 4288649598
-0.0910808 0.238833 0.55199999 4288847231
-0.089589 0.238829 0.55199999 4288518266
-0.087778002 0.237959 0.55000001 4288452473
-0.086291701 0.237956 0.55000001 4288452735
-0.084805503 0.23795199 0.55000001 4288057978
-0.083167903 0.237516 0.54900002 4288452736
-0.0818334 0.237946 0.55000001 4288386943
-0.080347501 0.237942 0.55000001 4287926905
-0.079148397 0.238805 0.55199999 4288255870
-0.0775166 0.238369 0.551 4288124285
-0.075890198 0.23793399 0.55000001 4288321664
-0.074269302 0.237498 0.54900002 4288386943
-0.072786398 0.237496 0.54900002 4288518529
-0.071433499 0.23792601 0.55000001 4288320380
-0.070075303 0.23835599 0.551 4288451966
-0.068711698 0.238786 0.55199999 4288517500
-0.067221001 0.238784 0.55199999 4288386428
-0.065730304 0.238782 0.55199999 4288649600
-0.064123303 0.23834699 0.551 4288058231
-0.062635399 0.238345 0.551 4288321403
-0.0611476 0.238344 0.551 4288451966
-0.059659801 0.238342 0.551 4288254587
-0.058172099 0.23834001 0.551 4288188794
-0.056787301 0.23877101 0.55199999 4288451966
-0.055497199 0.23963501 0.55400002 4288188794
-0.054001499 0.23963299 0.55400002 4288452736
-0.052411001 0.239199 0.55299997 4288321150
-0.051010199 0.23963 0.55400002 4288386689
-0.049425099 0.239197 0.55299997 4288386690
-0.047845598 0.238763 0.55199999 4288123518
-0.046187401 0.23789699 0.55000001 4288123004
-0.044783901 0.23832799 0.551 4288057211
-0.043296501 0.238327 0.551 4287991932
-0.041885 0.238759 0.55199999 4288255103
-0.0404681 0.23919 0.55299997 4288124031
-0.039116301 0.240054 0.55500001 4287992446
-0.037618101 0.240053 0.55500001 4287992446
-0.036120001 0.240053 0.55500001 4287992185
-0.034621902 0.240052 0.55500001 4287992184
-0.0331835 0.240484 0.55599999 4287795312
-0.031625699 0.240051 0.55500001 4287859822
-0.030073401 0.239617 0.55400002 4286017364
-0.028526399 0.23918401 0.55299997 4287399017
-0.0271315 0.240049 0.55500001 4287925363
-0.025633501 0.24004801 0.55500001 4287597427
-0.024179 0.24048001 0.55599999 4287991931
-0.022637499 0.24004699 0.55500001 4287794553
-0.021139501 0.24004699 0.55500001 4287926399
-0.0196415 0.24004699 0.55500001 4287729020
-0.018143499 0.24004599 0.55500001 4287794813
-0.0166455 0.24004599 0.55500001 4287597947
-0.0151748 0.24047799 0.55599999 4287531895
-0.0136741 0.24047799 0.55599999 4287400048
-0.0121953 0.24090999 0.55699998 4287531634
-0.0106728 0.240477 0.55599999 4287597426
-0.0091886297 0.24090999 0.55699998 4288189047
-0.0076990598 0.24134199 0.55800003 4287859822
-0.0061819102 0.240909 0.55699998 4287662443
-0.0046701599 0.240477 0.55599999 4287859821
-0.0031638099 0.240044 0.55500001 4287662442
-0.00166886 0.240477 0.55599999 4287991408
-0.00016881499 0.24134199 0.55800003 4287727982
0.00133723 0.24134199 0.55800003 4287597164
0.0028381899 0.240909 0.55699998 4287728498
0.0043337401 0.240477 0.55599999 4287531119
0.0058344002 0.240477 0.55599999 4288123254
0.00733505 0.240477 0.55599999 4288057461
0.0088357097 0.240477 0.55599999 4287794289
0.010355 0.24090999 0.55699998 4287663473
0.0118796 0.24134301 0.55800003 4287663473
0.0133857 0.24134301 0.55800003 4287926645
0.0148384 0.24047799 0.55599999 4288057461
0.016339 0.24047799 0.55599999 4288056947
0.0178397 0.24047901 0.55599999 4286872927
0.0193404 0.24047901 0.55599999 4286609241
0.020841099 0.24047901 0.55599999 4286411862
0.022301599 0.24004699 0.55500001 4287003999
0.023885399 0.240913 0.55699998 4286609241
0.025343301 0.240481 0.55599999 4287134815
0.026892301 0.240914 0.55699998 4287398242
0.0283447 0.240482 0.55599999 4287003737
0.0299528 0.241347 0.55800003 4286872402
0.031515401 0.24178 0.55900002 4287793506
0.033142399 0.24264599 0.56099999 4286871896
0.034533098 0.24178199 0.55900002 4287924586
0.035977598 0.24135 0.55800003 4287397987
0.037349399 0.240486 0.55599999 4286279761
0.038989998 0.24135201 0.55800003 4287595619
0.040496301 0.24135301 0.55800003 4287398240
0.0419273 0.24092101 0.55699998 4286148173
0.043508898 0.241355 0.55800003 4287661667
0.0449345 0.240923 0.55699998 4287924584
0.0465215 0.241357 0.55800003 4287135070
0.0479418 0.240925 0.55699998 4287792998
0.049445499 0.240927 0.55699998 4287529828
0.050949302 0.24092799 0.55699998 4286608726
0.052547202 0.24136201 0.55800003 4287398242
0.054053701 0.241363 0.55800003 4287727721
0.055560201 0.241365 0.55800003 4287859822
0.056964502 0.240934 0.55699998 4287596650
0.0583634 0.240503 0.55599999 4287465063
0.059864599 0.240504 0.55599999 4287069791
0.0615867 0.24137101 0.55800003 4287530342
0.063093401 0.241373 0.55800003 4287069789
0.064484403 0.240942 0.55699998 4287003996
0.0657515 0.240079 0.55500001 4286676061
0.067007899 0.239216 0.55299997 4285492824
0.068625197 0.23965099 0.55400002 4281018158
0.070248 0.240086 0.55500001 4284570980
0.072005399 0.240953 0.55699998 4287006838
0.073641799 0.24138901 0.55800003 4287467632
0.074879602 0.24052601 0.55599999 4287532660
0.076243997 0.240096 0.55500001 4287400819
0.077603102 0.239666 0.55400002 4287926652
0.079385303 0.24053399 0.55599999 4287795320
0.080887303 0.240537 0.55599999 4287466355
0.081944898 0.239243 0.55299997 4287531634
0.083438903 0.239246 0.55299997 4287203182
0.084779501 0.23881701 0.55199999 4287465334
0.086583696 0.239686 0.55400002 4287268976
0.088080697 0.23968901 0.55400002 4287663471
0.089577898 0.239693 0.55400002 4287795057
0.0909108 0.239264 0.55299997 4287268713
0.092071198 0.23840301 0.551 4287267947
0.093900204 0.239273 0.55299997 4287201899
0.0952226 0.23884401 0.55199999 4287399278
0.096539699 0.238416 0.551 4287070054
0.0978515 0.237988 0.55000001 4287727984
0.099519297 0.238426 0.551 4287333226
0.101559 0.239729 0.55400002 4287661675
0.103057 0.23973399 0.55400002 4287596135
0.104178 0.238874 0.55199999 4287596135
0.105097 0.237582 0.54900002 4287333477
0.106388 0.23715501 0.54799998 4287333478
0.108068 0.237593 0.54900002 4287201892
0.109753 0.238032 0.55000001 4287201892
0.111039 0.237606 0.54900002 4286741340
0.112525 0.23761199 0.54900002 4286938973
0.113803 0.237186 0.54799998 4286873180
0.115707 0.238059 0.55000001 4287070559
0.117196 0.238066 0.55000001 4286938719
0.119117 0.238939 0.55199999 4287070306
0.120394 0.23851401 0.551 4287004513
0.121665 0.238089 0.55000001 4286807134
0.123155 0.238097 0.55000001 4286938206
0.124872 0.238538 0.551 4287135585
0.12613501 0.238114 0.55000001 4286543447
0.127626 0.238123 0.55000001 4286411859
0.129117 0.238132 0.55000001 4286674772
0.13060801 0.238141 0.55000001 4286543700
0.13234 0.238584 0.551 4286674517
0.134077 0.23902699 0.55199999 4286345807
0.135575 0.23903701 0.55199999 4286016840
0.137072 0.239048 0.55199999 4286411598
0.13857 0.239059 0.55199999 4286280781
0.14006899 0.23907 0.55199999 4286346574
0.141054 0.238215 0.55000001 4286412367
0.14254799 0.23822699 0.55000001 4286280526
0.14430401 0.238672 0.551 4286280526
0.146065 0.23911799 0.55199999 4286411861
0.14729799 0.23869701 0.551 4286675033
0.14879601 0.238711 0.551 4286346068
0.150567 0.23915701 0.55199999 4286608724
0.152343 0.239604 0.55299997 4286543186
0.15357 0.23918501 0.55199999 4286346060
0.15451001 0.238333 0.55000001 4286477646
0.15600701 0.23834801 0.55000001 4286543690
0.15779001 0.23879699 0.551 4286214219
0.159291 0.238812 0.551 4286411598
0.1605 0.23839501 0.55000001 4286082894
0.162294 0.23884501 0.551 4286017356
0.16379599 0.23886199 0.551 4286214735
0.165298 0.238879 0.551 4286346321
0.16649801 0.238463 0.55000001 4286280781
0.167999 0.238481 0.55000001 4286478158
0.16950101 0.238499 0.55000001 4286346312
0.171003 0.238518 0.55000001 4286412105
0.17250501 0.238538 0.55000001 4286478411
0.174641 0.239425 0.55199999 4286412367
0.17614999 0.239446 0.55199999 4286281042
0.17766 0.239466 0.55199999 4286412628
0.17917 0.23948801 0.55199999 4286347089
0.181008 0.239943 0.55299997 4286281295
0.182852 0.2404 0.55400002 4286214988
0.184037 0.239989 0.55299997 4286346574
0.185553 0.240012 0.55299997 4286214733
0.186731 0.239602 0.55199999 4286214733
0.187563 0.238758 0.55000001 4285952331
0.188729 0.23834901 0.54900002 4286149710
0.19058301 0.23880801 0.55000001 4286346835
0.192793 0.239703 0.55199999 4286083664
0.19430999 0.239729 0.55199999 4286346835
0.19582801 0.239756 0.55199999 4286346836
0.19699 0.23935001 0.551 4286215250
0.19886699 0.239812 0.55199999 4286346836
0.20002501 0.239407 0.551 4286148942
0.201544 0.239436 0.551 4286609491
0.202695 0.239032 0.55000001 4286477905
0.204212 0.239062 0.55000001 4286412112
0.205731 0.23909301 0.55000001 4286807125
0.207251 0.239125 0.55000001 4286281293
0.209151 0.239593 0.551 4286215502
0.210675 0.23962601 0.551 4286478674
0.212201 0.23965999 0.551 4286150224
0.213727 0.239695 0.551 4286544728
0.215645 0.240165 0.55199999 4286347096
0.217177 0.240201 0.55199999 4286413143
0.21831299 0.239803 0.551 4286478421
0.21944501 0.23940501 0.55000001 4286543698
0.220974 0.239443 0.55000001 4286609746
0.222909 0.239917 0.551 4286609230
0.22485 0.240392 0.55199999 4286543439
0.22638801 0.24043299 0.55199999 4286411853
0.227928 0.240474 0.55199999 4286214472
0.229469 0.24051601 0.55199999 4286346572
0.230592 0.240123 0.551 4286347086
0.232133 0.24016701 0.551 4286412882
0.233675 0.240211 0.551 4286347349
0.234791 0.23982 0.55000001 4286610007
0.236333 0.239866 0.55000001 4286346835
0.237444 0.23947699 0.54900002 4286083663
0.239856 0.24039701 0.551 4285821510
0.24096701 0.24000899 0.55000001 4286281042
0.242515 0.240059 0.55000001 4286083663
0.244064 0.240109 0.55000001 4286018124
0.246061 0.24059699 0.551 4285754951
0.24761599 0.240649 0.551 4286018121
0.24826901 0.239829 0.54900002 4286084682
0.24982201 0.23988301 0.54900002 4285887305
0.250918 0.2395 0.54799998 4286018121
0.252471 0.239556 0.54799998 4286280779
0.25356299 0.23917601 0.54699999 4286477898
0.25558299 0.23967101 0.54799998 4286675276
0.25761101 0.24016701 0.54900002 4286412104
0.26011899 0.241102 0.551 4286412105
0.26168999 0.241163 0.551 4286477644
0.26326299 0.241225 0.551 4286280265
0.264837 0.241289 0.551 4286148679
0.26593101 0.240915 0.55000001 4286346321
0.26701999 0.24054199 0.54900002 4286675286
0.26859501 0.24060901 0.54900002 4286346321
0.270172 0.240676 0.54900002 4286873433
0.271752 0.24074499 0.54900002 4286939225
0.27383101 0.241253 0.55000001 4286610775
0.27491701 0.240885 0.54900002 4286742875
0.278014 0.242274 0.55199999 4286940515
0.27961099 0.242348 0.55199999 4286282589
0.28121001 0.242423 0.55199999 4286348384
0.28178701 0.24162 0.55000001 4286808933
0.28286999 0.241258 0.54900002 4286743140
0.284468 0.241336 0.54900002 4286808676
0.28606799 0.24141601 0.54900002 4287268713
0.28819501 0.241937 0.55000001 4287071334
0.29033101 0.242459 0.551 4286940003
0.29194501 0.242543 0.551 4286741854
0.29356101 0.24262799 0.551 4286808417
0.29518101 0.242715 0.551 4287334761
0.296803 0.24280301 0.551 4287466859
0.29788601 0.242452 0.55000001 4286677598
0.298967 0.242101 0.54900002 4286743391
0.300044 0.241752 0.54799998 4287137632
0.301669 0.241845 0.54799998 4287203940
0.30385101 0.242382 0.54900002 4286874977
0.30659699 0.24336199 0.551 4286940517
0.30824101 0.24346 0.551 4287269482
0.30988699 0.24356 0.551 4287072360
0.30984101 0.24233501 0.54799998 4287268965
0.31148401 0.24243701 0.54799998 4286808153
0.31255999 0.242099 0.54699999 4286215754
0.314208 0.242204 0.54699999 4286543691
0.31643701 0.242755 0.54799998 4286478412
0.318095 0.242864 0.54799998 4286741584
0.319756 0.242974 0.54799998 4286609998
0.32200801 0.243531 0.54900002 4286412619
0.324269 0.24408901 0.55000001 4286872656
