# .PCD v0.7 - Point Cloud Data file format
VERSION 0.7
FIELDS x y z rgb
SIZE 4 4 4 4
TYPE F F F U
COUNT 1 1 1 1
WIDTH 1055
HEIGHT 1
VIEWPOINT 0 0 0 1 0 0 0
POINTS 1055
DATA ascii
0.30214801 -0.078965202 0.625 4287730561
0.304351 -0.079098597 0.62599999 4287467895
0.30607101 -0.079106003 0.62599999 4287993733
0.30730101 -0.078987204 0.625 4288454284
0.309021 -0.078995101 0.625 4287730561
0.310743 -0.0790032 0.625 4287532921
0.31296599 -0.0791381 0.62599999 4287795577
0.31419101 -0.079020403 0.625 4288059004
0.31591699 -0.079029404 0.625 4287861370
0.31815401 -0.079165198 0.62599999 4287598200
0.31937501 -0.079048403 0.625 4288124544
0.32007799 -0.078805298 0.62300003 4287795577
0.32180601 -0.078815497 0.62300003 4287992958
0.324054 -0.078952499 0.62400001 4287992956
0.32578701 -0.078963399 0.62400001 4286808162
0.326998 -0.078847997 0.62300003 4286676061
0.32925999 -0.078985997 0.62400001 4286939991
0.33152899 -0.079124399 0.625 4287136352
0.33327299 -0.079136603 0.625 4287004512
0.33448201 -0.0790224 0.62400001 4286676062
0.33514899 -0.078781903 0.62199998 4286675294
0.336891 -0.078795098 0.62199998 4287136099
0.33809 -0.078681797 0.62099999 4287004513
0.340379 -0.078822397 0.62199998 4286675547
0.342677 -0.078963302 0.62300003 4286872410
0.344982 -0.079104602 0.62400001 4287465316
0.347296 -0.079246402 0.625 4286610522
0.34850001 -0.079134896 0.62400001 4287465578
0.35082299 -0.079277501 0.625 4287400301
0.35202599 -0.079166703 0.62400001 4287006057
0.35436001 -0.079310097 0.625 4287005543
0.35613301 -0.079327002 0.625 4286150232
0.35676199 -0.079090402 0.62300003 4287005794
0.35853401 -0.079108 0.62300003 4287136865
0.36030799 -0.079126097 0.62300003 4287268191
0.36266601 -0.0792716 0.62400001 4286873433
0.36444899 -0.079290502 0.62400001 4287136604
0.366234 -0.079309903 0.62400001 4286544982
0.36861199 -0.079456799 0.625 4286676568
0.37099901 -0.079604201 0.62599999 4286807647
0.37220299 -0.079497702 0.625 4286347611
0.373404 -0.079391599 0.62400001 4285427284
0.374603 -0.079285897 0.62300003 4281282333
0.37700799 -0.079435199 0.62400001 4281677606
0.379421 -0.079585001 0.625 4288323204
0.38123301 -0.079608001 0.625 4288059777
0.38304901 -0.079631403 0.625 4287860864
0.384868 -0.079655401 0.625 4287861372
0.38730901 -0.079807296 0.62599999 4287992958
0.38851601 -0.079704799 0.625 4287730045
0.38972101 -0.079602703 0.62400001 4287730047
0.39155099 -0.079628602 0.62400001 4287335289
0.39338499 -0.079654999 0.62400001 4287795326
0.39585599 -0.079809599 0.625 4287400313
0.39833599 -0.079964899 0.62599999 4287729792
0.40018699 -0.079993002 0.62599999 4287467390
0.4014 -0.079893798 0.625 4287270525
0.403256 -0.079922996 0.625 4287467903
0.40576401 -0.080080599 0.62599999 4287467903
0.40763199 -0.080110997 0.62599999 4287204731
0.40950301 -0.080141902 0.62599999 4287138424
0.41137901 -0.080173403 0.62599999 4287598461
0.413919 -0.080333598 0.62699997 4287860613
0.41580701 -0.080366299 0.62699997 4287663740
0.41703299 -0.080271401 0.62599999 4287597947
0.41892701 -0.080305301 0.62599999 4287663993
0.420825 -0.080339901 0.62599999 4287203187
0.42272899 -0.080375001 0.62599999 4287269496
0.42328 -0.080153897 0.62400001 4287400829
0.42586899 -0.080318801 0.625 4287203703
0.427784 -0.080355801 0.625 4287072875
0.43108001 -0.080650799 0.62699997 4287138416
0.433011 -0.080689304 0.62699997 4287138416
0.43494901 -0.080728501 0.62699997 4287269747
-0.199742 -0.080075704 0.62099999 4289571484
-0.19743501 -0.079820998 0.61900002 4289966240
-0.19577099 -0.079824299 0.61900002 4289966240
-0.19410799 -0.079827599 0.61900002 4290229928
-0.193066 -0.080089003 0.62099999 4290229928
-0.191089 -0.079963498 0.62 4290492847
-0.189117 -0.079838097 0.61900002 4290361775
-0.187454 -0.079841703 0.61900002 4290624433
-0.186391 -0.080103397 0.62099999 4290690225
-0.18502 -0.080236197 0.62199998 4290624686
-0.183348 -0.080240101 0.62199998 4290493098
-0.181677 -0.080243997 0.62199998 4290822063
-0.17971601 -0.080118902 0.62099999 4290756272
-0.178047 -0.080123 0.62099999 4290427823
-0.176094 -0.079998001 0.62 4290427568
-0.174146 -0.0798731 0.61900002 4290295982
-0.172204 -0.079748198 0.61799997 4290230703
-0.170819 -0.079881497 0.61900002 4290362544
-0.169155 -0.079885699 0.61900002 4290164910
-0.167491 -0.079889998 0.61900002 4290362544
-0.16582701 -0.079894401 0.61900002 4290428337
-0.16389801 -0.079769701 0.61799997 4290165165
-0.162498 -0.0799032 0.61900002 4289967784
-0.16109399 -0.0800367 0.62 4290296489
-0.159427 -0.0800412 0.62 4290164903
-0.15750501 -0.079916596 0.61900002 4290098856
-0.15583999 -0.079921097 0.61900002 4290296235
-0.154424 -0.080054797 0.62 4290427823
-0.15300301 -0.080188498 0.62099999 4290033324
-0.151333 -0.080193102 0.62099999 4289836200
-0.149662 -0.080197804 0.62099999 4290230444
-0.147753 -0.080073297 0.62 4290296237
-0.146084 -0.080077901 0.62 4290098858
-0.144416 -0.080082603 0.62 4290033063
-0.143207 -0.080345601 0.62199998 4290098856
-0.141533 -0.080350302 0.62199998 4289901731
-0.140083 -0.080484197 0.62300003 4289835168
-0.138184 -0.080359697 0.62199998 4289900963
-0.136509 -0.080364399 0.62199998 4289835170
-0.1344 -0.080110699 0.62 4289966242
-0.13273101 -0.0801154 0.62 4290032547
-0.13106 -0.080120102 0.62 4289769630
-0.12939 -0.080124803 0.62 4289834909
-0.128132 -0.080387898 0.62199998 4290032288
-0.12645601 -0.080392599 0.62199998 4289834656
-0.124579 -0.080268003 0.62099999 4289834656
-0.122707 -0.0801434 0.62 4289900195
-0.121231 -0.080277301 0.62099999 4289768609
-0.119749 -0.080411203 0.62199998 4289965988
-0.118262 -0.080545098 0.62300003 4289835170
-0.116582 -0.080549702 0.62300003 4289440412
-0.114901 -0.080554202 0.62300003 4289637789
-0.113402 -0.080688097 0.62400001 4289440410
-0.111361 -0.080433898 0.62199998 4289506203
-0.109506 -0.0803091 0.62099999 4289440410
-0.107657 -0.080184199 0.62 4289703068
-0.105983 -0.080188602 0.62 4289703068
-0.10431 -0.080192998 0.62 4289703068
-0.102967 -0.080456004 0.62199998 4289769116
-0.101125 -0.080330998 0.62099999 4289637530
-0.099607803 -0.080464602 0.62199998 4289769116
-0.097927801 -0.080468804 0.62199998 4289769116
-0.0965572 -0.080731802 0.62400001 4289703323
-0.094719402 -0.080606498 0.62300003 4289440151
-0.0930361 -0.0806107 0.62300003 4289439896
-0.091205902 -0.080485299 0.62199998 4289900702
-0.089668803 -0.080618702 0.62300003 4289703323
-0.087984897 -0.080622703 0.62300003 4289834909
-0.086162098 -0.080497198 0.62199998 4289769114
-0.084344603 -0.080371603 0.62099999 4289769116
-0.082798503 -0.080504902 0.62199998 4289637530
-0.081246801 -0.080638103 0.62300003 4289769116
-0.079434097 -0.0805123 0.62199998 4289505944
-0.077626497 -0.080386497 0.62099999 4289505944
-0.075946502 -0.080390103 0.62099999 4289637275
-0.074625 -0.080782004 0.62400001 4289374103
-0.0732871 -0.081173897 0.62699997 4289439896
-0.072617799 -0.082342498 0.63599998 4289703068
-0.071676597 -0.083252199 0.64300001 4289703068
-0.072328903 -0.086104199 0.66500002 4289703068
-0.071589097 -0.0874025 0.67500001 4289637530
-0.069658101 -0.087276399 0.67400002 4289703323
-0.067530997 -0.086891197 0.671 4289966495
-0.061012998 -0.0806785 0.62300003 4289572766
-0.055516601 -0.075501204 0.583 4289835168
-0.050236698 -0.070323497 0.54299998 4289769630
-0.0473288 -0.068253703 0.52700001 4289310388
-0.045030002 -0.066960901 0.51700002 4285559167
-0.043544799 -0.0668336 0.51599997 4284571216
-0.041983102 -0.0665766 0.514 4284439883
-0.040590201 -0.066578701 0.514 4284439628
-0.039044499 -0.066321597 0.51200002 4283979077
-0.037583198 -0.066193998 0.51099998 4283584061
-0.036127198 -0.066066302 0.50999999 4283518268
-0.034744602 -0.066068098 0.50999999 4283452475
-0.033427302 -0.0661994 0.51099998 4283517754
-0.032041799 -0.066201098 0.51099998 4283583287
-0.0305961 -0.066073097 0.50999999 4282991149
-0.029155901 -0.065945096 0.509 4283254319
-0.0277209 -0.065816998 0.50800002 4283451700
-0.026395001 -0.065947898 0.509 4283320629
-0.0250144 -0.065949298 0.509 4283254836
-0.0236338 -0.065950498 0.509 4283189043
-0.0222094 -0.065822102 0.50800002 4282728491
-0.0208313 -0.065823197 0.50800002 4283320112
-0.019453101 -0.0658243 0.50800002 4283320112
-0.018110501 -0.065954797 0.509 4283254319
-0.0167295 -0.065955698 0.509 4282794538
-0.0154088 -0.066215701 0.51099998 4283188526
-0.0140223 -0.066216499 0.51099998 4283122733
-0.012611 -0.066087604 0.50999999 4282925356
-0.0111831 -0.065829098 0.50800002 4283188526
-0.0097853197 -0.065700002 0.50700003 4283320112
-0.0083929198 -0.065570898 0.50599998 4283385908
-0.0070198001 -0.065571301 0.50599998 4283385908
-0.0056578098 -0.065701202 0.50700003 4283320114
-0.0042988202 -0.065960698 0.509 4283056942
-0.00291177 -0.065831304 0.50800002 4283385907
-0.00153315 -0.0658314 0.50800002 4283188526
-0.00015453099 -0.0658314 0.50800002 4282859561
0.0012265 -0.065961003 0.509 4282794284
0.0026027099 -0.065831304 0.50800002 4282860077
0.0039891601 -0.065960698 0.509 4283188528
0.0053704702 -0.065960497 0.509 4283451186
0.0067517599 -0.065960199 0.509 4283384877
0.0081010703 -0.065700598 0.50700003 4283253291
0.0094768899 -0.065700099 0.50700003 4283253038
0.0108527 -0.0656996 0.50700003 4283516210
0.0122284 -0.065699004 0.50700003 4283187761
0.0136041 -0.065698303 0.50700003 4283187761
0.0149503 -0.065568 0.50599998 4283188014
0.016323199 -0.065567203 0.50599998 4283056426
0.017696001 -0.065566301 0.50599998 4283319598
0.0191065 -0.065694898 0.50700003 4283385646
0.020481899 -0.0656939 0.50700003 4283122733
0.021771099 -0.065433703 0.505 4283254321
0.023141 -0.065432496 0.505 4283253552
0.0245593 -0.065560803 0.50599998 4283056173
0.025983 -0.065689102 0.50700003 4283385138
0.0273041 -0.065558203 0.50599998 4283385140
0.028619699 -0.065427199 0.505 4282925103
0.0299892 -0.065425701 0.505 4282991150
0.0314827 -0.065683201 0.50700003 4282662699
0.032792602 -0.065552004 0.50599998 4282859563
0.034097001 -0.065420799 0.505 4282859563
0.035395801 -0.065289497 0.50400001 4283121966
0.036835 -0.0654172 0.505 4282859310
0.038203899 -0.0654153 0.505 4282727978
0.039650999 -0.065542899 0.50599998 4282990896
0.041022301 -0.065540902 0.50599998 4283057457
0.042309701 -0.065409303 0.505 4282860078
0.043678001 -0.065407097 0.505 4283057457
0.044957101 -0.065275401 0.50400001 4283189043
0.046322498 -0.065273203 0.50400001 4283254322
0.047687698 -0.065270901 0.50400001 4283254321
0.049052801 -0.065268502 0.50400001 4282991150
0.050317701 -0.065136597 0.50300002 4283188275
0.051577099 -0.065004602 0.50199997 4283254582
0.052936401 -0.065002099 0.50199997 4283123511
0.054403599 -0.065128997 0.50300002 4282991925
0.055765301 -0.065126397 0.50300002 4282662959
0.0568996 -0.064864703 0.50099999 4282925871
0.063677698 -0.064850599 0.50099999 4282596906
0.065162599 -0.064977102 0.50199997 4282794284
0.066387698 -0.064844601 0.50099999 4282860077
0.067742497 -0.064841598 0.50099999 4282662951
0.069234997 -0.064967901 0.50199997 4283123502
0.070592098 -0.064964697 0.50199997 4282728745
0.071948998 -0.064961597 0.50199997 4282991917
0.0826331 -0.064805403 0.50099999 4282925871
0.083985701 -0.064801902 0.50099999 4282597420
0.085338198 -0.0647984 0.50099999 4282662959
0.117978 -0.064838096 0.50199997 4282793771
0.120042 -0.065221801 0.505 4282793771
0.123324 -0.066251203 0.51300001 4282727977
0.130539 -0.069346599 0.537 4282662185
0.141077 -0.074120499 0.574 4282728238
0.150075 -0.077989899 0.60399997 4282859824
0.154211 -0.079276599 0.61400002 4282728238
0.155863 -0.079272099 0.61400002 4282793771
0.15802699 -0.079525799 0.616 4282793771
0.15942401 -0.079392202 0.61500001 4282793770
0.161863 -0.079775102 0.61799997 4282597159
0.16379 -0.079899698 0.61900002 4281611035
0.165721 -0.080024399 0.62 4282861102
0.167118 -0.079891004 0.61900002 4287861372
0.168782 -0.079886697 0.61900002 4288058751
0.17044599 -0.079882398 0.61900002 4287861372
0.172387 -0.080007203 0.62 4288255871
0.174335 -0.080132097 0.62099999 4287992699
0.17572001 -0.079998903 0.62 4288058492
0.1771 -0.079865798 0.61900002 4288058491
0.17847501 -0.079732798 0.61799997 4288124285
0.180427 -0.079857796 0.61900002 4288058492
0.182385 -0.079982899 0.62 4287992699
0.18405101 -0.079979099 0.62 4287860859
0.18601701 -0.080104299 0.62099999 4287992445
0.18708099 -0.079842597 0.61900002 4288058491
0.18874399 -0.079838902 0.61900002 4287927159
0.19040801 -0.079835303 0.61900002 4288058745
0.19238199 -0.079960801 0.62 4288058743
0.194987 -0.0803442 0.62300003 4288058743
0.196661 -0.0803409 0.62300003 4287729780
0.19833501 -0.080337599 0.62300003 4287532401
0.199368 -0.080076501 0.62099999 4287861113
0.201037 -0.080073297 0.62099999 4288320390
0.20270599 -0.080070302 0.62099999 4288123264
0.204375 -0.080067404 0.62099999 4287663481
0.206045 -0.080064498 0.62099999 4287926652
0.207045 -0.079803899 0.61900002 4287729784
0.209047 -0.079930201 0.62 4288058749
0.211054 -0.0800566 0.62099999 4288124542
0.213751 -0.080440797 0.62400001 4287795577
0.215084 -0.0803096 0.62300003 4287861370
0.21675999 -0.080307297 0.62300003 4288058749
0.21773501 -0.080047399 0.62099999 4288058749
0.21940599 -0.080045402 0.62099999 4287729784
0.22072101 -0.0799146 0.62 4287664246
0.222748 -0.080041699 0.62099999 4287795319
0.22442 -0.080040097 0.62099999 4287794805
0.226092 -0.080038503 0.62099999 4287663473
0.22813 -0.080165997 0.62199998 4287794805
0.22980601 -0.080164798 0.62199998 4287531634
0.231481 -0.080163598 0.62199998 4287597427
0.23315699 -0.0801626 0.62199998 4287662966
0.234833 -0.080161802 0.62199998 4287465587
0.23689 -0.0802899 0.62300003 4287399794
0.238187 -0.080160499 0.62199998 4287662966
0.24025001 -0.080288902 0.62300003 4287531380
0.241542 -0.080159798 0.62199998 4287531634
0.24322 -0.080159597 0.62199998 4287334254
0.244505 -0.080030799 0.62099999 4287729264
0.245786 -0.079902098 0.62 4287071334
0.24745999 -0.0799025 0.62 4287597687
0.24993899 -0.0801607 0.62199998 4287334516
0.25121501 -0.080032602 0.62099999 4287400055
0.25289401 -0.080033399 0.62099999 4287202929
0.254163 -0.079905599 0.62 4287268976
0.256253 -0.080035701 0.62099999 4287202668
0.25793299 -0.080037102 0.62099999 4287137129
0.259615 -0.0800386 0.62099999 4287203436
0.26129699 -0.080040403 0.62099999 4287400047
0.263403 -0.080171198 0.62199998 4287597426
0.264236 -0.079915598 0.62 4287925886
0.26591799 -0.0799179 0.62 4287268976
0.268031 -0.080049403 0.62099999 4287532401
0.27015099 -0.080181003 0.62199998 4287335022
0.27184001 -0.080183998 0.62199998 4287400819
0.27397001 -0.080316 0.62300003 4287203442
0.275664 -0.080319397 0.62300003 4287006063
0.277358 -0.080323003 0.62300003 4287137649
0.278606 -0.080197901 0.62199998 4286479719
0.27984899 -0.080072999 0.62099999 4287861372
0.28108701 -0.079948299 0.62 4287795579
0.28277701 -0.079952799 0.62 4288321921
0.285386 -0.080215402 0.62199998 4288125056
0.28800601 -0.080478303 0.62400001 4287598714
0.28924599 -0.080354497 0.62300003 4287730300
0.29001501 -0.080101997 0.62099999 4287466873
0.29218301 -0.080236703 0.62199998 4287730045
0.29388499 -0.080242597 0.62199998 4287861633
0.29558799 -0.080248803 0.62199998 4287993733
0.29681399 -0.080126204 0.62099999 4288256391
0.298998 -0.080261998 0.62199998 4287795840
0.30070499 -0.080268897 0.62199998 4287927426
0.302899 -0.080405302 0.62300003 4287729531
0.30461201 -0.080412798 0.62300003 4287598200
0.30534199 -0.080162399 0.62099999 4288585093
0.30754599 -0.080299601 0.62199998 4287992956
0.308763 -0.080178797 0.62099999 4287335281
0.31097499 -0.080316603 0.62199998 4287532658
0.31218901 -0.080196403 0.62099999 4287730037
0.313905 -0.080205597 0.62099999 4287730039
0.315622 -0.080215096 0.62099999 4287663738
0.317341 -0.080224998 0.62099999 4287861117
0.31906101 -0.080235101 0.62099999 4287927165
0.32026601 -0.080116302 0.62 4287927165
0.32250699 -0.080256298 0.62099999 4287729527
0.32423201 -0.0802674 0.62099999 4287268715
0.325434 -0.080149502 0.62 4286216530
0.32716101 -0.080161199 0.62 4287005280
0.32941899 -0.080302604 0.62099999 4286873179
0.33061901 -0.080185696 0.62 4286873179
0.332351 -0.0801984 0.62 4287003998
0.33354601 -0.080082104 0.61900002 4286872665
0.335821 -0.080224901 0.62 4287135582
0.33647001 -0.0799798 0.61799997 4286872410
0.338204 -0.079993904 0.61799997 4286938458
0.340491 -0.080137797 0.61900002 4286741077
0.34278601 -0.080282196 0.62 4287399007
0.34508801 -0.080426998 0.62099999 4286873179
0.34628099 -0.080313101 0.62 4287201891
0.34803301 -0.080329098 0.62 4286149203
0.34978601 -0.080345497 0.62 4286215006
0.352676 -0.080621503 0.62199998 4287202152
0.35444099 -0.080638804 0.62199998 4285952853
0.35563499 -0.080526799 0.62099999 4286216539
0.35740101 -0.0805448 0.62099999 4287006055
0.358592 -0.080433503 0.62 4286676831
0.36094201 -0.080582097 0.62099999 4286347349
0.3633 -0.080731198 0.62199998 4286939991
0.36508 -0.080751002 0.62199998 4286281810
0.36686301 -0.0807712 0.62199998 4286676568
0.36924201 -0.080921799 0.62300003 4286610269
0.37103301 -0.080942899 0.62300003 4286347613
0.37222901 -0.0808345 0.62199998 4285755736
0.372821 -0.080596603 0.62 4284440395
0.37521699 -0.080748998 0.62099999 4280690459
0.37762299 -0.080902003 0.62199998 4284638290
0.37942699 -0.080925502 0.62199998 4287534193
0.38123399 -0.080949403 0.62199998 4287533172
0.38304499 -0.080973797 0.62199998 4287598198
0.38547799 -0.081129 0.62300003 4287795324
0.38605499 -0.080893897 0.62099999 4287795324
0.38849801 -0.081050098 0.62199998 4288058498
0.38969499 -0.0809462 0.62099999 4287005810
0.39151999 -0.080973201 0.62099999 4287005810
0.39398301 -0.081131101 0.62199998 4287268982
0.39581901 -0.081159197 0.62199998 4287334775
0.398298 -0.081318296 0.62300003 4287664254
0.40014499 -0.081347503 0.62300003 4287664768
0.401995 -0.081377298 0.62300003 4287598975
0.40384999 -0.081407599 0.62300003 4287598973
0.405709 -0.081438601 0.62300003 4287532921
0.40822601 -0.0816008 0.62400001 4287730045
0.409439 -0.081502199 0.62300003 4287532666
0.411311 -0.0815349 0.62300003 4287729531
0.41252401 -0.081437297 0.62199998 4287597947
0.41440201 -0.081471197 0.62199998 4287466361
0.41628399 -0.081505701 0.62199998 4287663991
0.41817099 -0.081540801 0.62199998 4287466614
0.42006299 -0.081576601 0.62199998 4287597947
0.42196 -0.081612997 0.62199998 4287663487
0.42386201 -0.081650101 0.62199998 4287597440
0.42645299 -0.081819199 0.62300003 4287400315
0.42974299 -0.082120501 0.625 4287466612
0.43097901 -0.082028396 0.62400001 4287467381
0.43360099 -0.082199797 0.625 4287203954
-0.199095 -0.081488103 0.61900002 4289899929
-0.196794 -0.081228003 0.61699998 4289899929
-0.195452 -0.081362903 0.61799997 4289768343
-0.193791 -0.081366301 0.61799997 4289439892
-0.192441 -0.081501402 0.61900002 4289045393
-0.190469 -0.0813732 0.61799997 4289374103
-0.188503 -0.081245102 0.61699998 4289176724
-0.18714701 -0.081380501 0.61799997 4289045138
-0.186087 -0.081647597 0.62 4288847759
-0.184421 -0.081651397 0.62 4288781966
-0.18275499 -0.081655301 0.62 4288913552
-0.18138 -0.081790902 0.62099999 4289439896
-0.179712 -0.081794903 0.62099999 4288847759
-0.17832901 -0.081930697 0.62199998 4289505691
-0.176374 -0.081803098 0.62099999 4289900447
-0.174705 -0.0818073 0.62099999 4290295207
-0.17247801 -0.081547998 0.61900002 4290229414
-0.17053799 -0.0814206 0.61799997 4290032035
-0.16887701 -0.081424899 0.61799997 4290229674
-0.167216 -0.081429198 0.61799997 4290361260
-0.165822 -0.081565298 0.61900002 4290690479
-0.164158 -0.081569798 0.61900002 4290361514
-0.16275699 -0.081706002 0.62 4290295719
-0.161089 -0.081710503 0.62 4290558377
-0.15916499 -0.081583299 0.61900002 4290558379
-0.1575 -0.081587799 0.61900002 4290558125
-0.155332 -0.081328802 0.61699998 4290821297
-0.15392201 -0.0814652 0.61799997 4290558125
-0.15250599 -0.081601702 0.61900002 4290558639
-0.15108401 -0.081738196 0.62 4290624686
-0.149175 -0.081611 0.61900002 4290558893
-0.14751001 -0.081615701 0.61900002 4290362028
-0.14608 -0.0817523 0.62 4290230442
-0.14464401 -0.081888899 0.62099999 4290427305
-0.14297201 -0.081893601 0.62099999 4290362282
-0.14130101 -0.081898399 0.62099999 4290033317
-0.13962901 -0.0819031 0.62099999 4289704098
-0.138179 -0.082039803 0.62199998 4290032549
-0.136724 -0.082176402 0.62300003 4290032549
-0.13461301 -0.081917398 0.62099999 4290164135
-0.132726 -0.081790201 0.62 4289966754
-0.130844 -0.081663102 0.61900002 4289967009
-0.12938499 -0.081799701 0.62 4290032547
-0.12771501 -0.081804499 0.62 4290032547
-0.12604401 -0.0818092 0.62 4289835168
-0.124173 -0.081681997 0.61900002 4290164135
-0.122306 -0.081554703 0.61799997 4289966756
-0.120836 -0.081691399 0.61900002 4290032549
-0.119552 -0.08196 0.62099999 4290164135
-0.118257 -0.082228601 0.62300003 4290098856
-0.11639 -0.0821013 0.62199998 4289835170
-0.114712 -0.082105897 0.62199998 4289769377
-0.113034 -0.082110502 0.62199998 4289835170
-0.111356 -0.082115002 0.62199998 4289769375
-0.109502 -0.081987597 0.62099999 4289769375
-0.107479 -0.081727996 0.61900002 4289900702
-0.105979 -0.081864499 0.62 4289900702
-0.104305 -0.081868902 0.62 4289900447
-0.102631 -0.081873298 0.62 4289703323
-0.100795 -0.081745602 0.61900002 4289637530
-0.099123098 -0.081749901 0.61900002 4289834909
-0.097451299 -0.0817542 0.61900002 4289769116
-0.096088797 -0.0820226 0.62099999 4289703068
-0.094411097 -0.082026802 0.62099999 4289506205
-0.092882603 -0.082163103 0.62199998 4289637791
-0.0910552 -0.082035102 0.62099999 4289769377
-0.089376897 -0.082039103 0.62099999 4289769375
-0.0876984 -0.082043096 0.62099999 4289506203
-0.085881203 -0.081914999 0.62 4290032288
-0.084205002 -0.081918903 0.62 4289900702
-0.082528502 -0.081922702 0.62 4289703323
-0.080982298 -0.082058698 0.62099999 4289834909
-0.079302698 -0.082062401 0.62099999 4289834909
-0.077622898 -0.082066096 0.62099999 4289900702
-0.075698301 -0.081805401 0.61900002 4289703323
-0.074262701 -0.082073301 0.62099999 4289571737
-0.072816104 -0.082341202 0.62300003 4289439896
-0.071815103 -0.083137698 0.62900001 4289440151
-0.070781402 -0.083934203 0.63499999 4289374358
-0.070911497 -0.086184703 0.65200001 4289374358
-0.071161397 -0.088699698 0.671 4289505944
-0.069861397 -0.089364201 0.676 4289505944
-0.067829601 -0.089103103 0.67400002 4289703323
-0.061009999 -0.082364 0.62300003 4289506203
-0.0556091 -0.077210799 0.58399999 4289769375
-0.050234199 -0.071792699 0.54299998 4289572251
-0.047416199 -0.069811903 0.528 4289178541
-0.045027699 -0.068359703 0.51700002 4285229949
-0.043542601 -0.068229698 0.51599997 4284375633
-0.0420627 -0.0680997 0.51499999 4284638029
-0.0405881 -0.067969501 0.514 4283979077
-0.039042599 -0.067707099 0.51200002 4284110663
-0.037581299 -0.067576803 0.51099998 4283518526
-0.036196198 -0.067578703 0.51099998 4283715647
-0.034742799 -0.067448303 0.50999999 4283386682
-0.033360198 -0.067450002 0.50999999 4283583547
-0.0319774 -0.067451701 0.50999999 4283320375
-0.0306546 -0.067585602 0.51099998 4283122482
-0.0292689 -0.0675871 0.51099998 4283056943
-0.0278832 -0.067588598 0.51099998 4283188529
-0.026445501 -0.067457803 0.50999999 4283057457
-0.0250131 -0.067326799 0.509 4283189556
-0.023632601 -0.067328103 0.509 4283255089
-0.0222519 -0.067329302 0.509 4283057963
-0.0209122 -0.067462698 0.50999999 4283122986
-0.0195287 -0.0674638 0.50999999 4282992168
-0.018145099 -0.067464799 0.50999999 4283057193
-0.0167615 -0.0674657 0.50999999 4283255342
-0.0154382 -0.067731097 0.51200002 4283188781
-0.0140764 -0.067864202 0.51300001 4283189295
-0.0126598 -0.067732602 0.51200002 4282926123
-0.0112265 -0.067468703 0.50999999 4283583539
-0.0098233996 -0.067336999 0.509 4283188779
-0.0084256502 -0.067205101 0.50800002 4283057195
-0.00706104 -0.067337804 0.509 4283254060
-0.00569099 -0.067470498 0.50999999 4283583025
-0.0043154899 -0.067603 0.51099998 4283451184
-0.00292308 -0.067470998 0.50999999 4282991149
-0.00153609 -0.067338802 0.509 4282991150
-0.00015482699 -0.067338802 0.509 4282925871
0.00122885 -0.067471102 0.50999999 4282991410
0.00260257 -0.067206398 0.50800002 4283254836
0.00398895 -0.067338496 0.509 4283122733
0.0053807301 -0.067470603 0.50999999 4283122733
0.0067911898 -0.0677348 0.51200002 4283188267
0.0081485799 -0.067469798 0.50999999 4282990886
0.0095137702 -0.067337103 0.509 4283385644
0.0108521 -0.067071997 0.50700003 4283450925
0.0122278 -0.067071304 0.50700003 4283253805
0.0136302 -0.067202903 0.50800002 4283385393
0.0150381 -0.067334503 0.509 4283122221
0.0164191 -0.067333601 0.509 4282793254
0.0178 -0.0673327 0.509 4282991147
0.0191432 -0.067199498 0.50800002 4283320367
0.020480899 -0.067066103 0.50700003 4283386160
0.0218131 -0.066932797 0.50599998 4283385646
0.0231856 -0.066931598 0.50599998 4283122219
0.024558 -0.066930301 0.50599998 4283122221
0.0259817 -0.067061298 0.50700003 4283516724
0.027356699 -0.067059897 0.50700003 4282925103
0.028674901 -0.066926204 0.50599998 4282859824
0.030046999 -0.066924602 0.50599998 4282794285
0.031481098 -0.0670553 0.50700003 4282925870
0.032855801 -0.067053601 0.50700003 4282793770
0.034230299 -0.067051902 0.50700003 4282990633
0.035534501 -0.066917904 0.50599998 4283253552
0.036906101 -0.066915996 0.50599998 4283253554
0.038353201 -0.0670463 0.50700003 4283516724
0.039805699 -0.067176603 0.50800002 4283122736
0.041101299 -0.067042299 0.50700003 4282793770
0.0423076 -0.066775702 0.505 4283254321
0.043762401 -0.066905797 0.50599998 4283122733
0.045044001 -0.066771299 0.505 4282727975
0.046503998 -0.066901296 0.50599998 4283254574
0.0478746 -0.066898897 0.50599998 4283188781
0.049147699 -0.066764303 0.505 4282925354
0.0504153 -0.066629604 0.50400001 4283056942
0.051574599 -0.066362701 0.50199997 4283057457
0.053039201 -0.066492297 0.50300002 4282596652
0.0545091 -0.0666219 0.50400001 4282794031
0.055873498 -0.066619202 0.50400001 4283057457
0.057010502 -0.066352099 0.50199997 4283123249
0.0582528 -0.066217199 0.50099999 4282991663
0.0596085 -0.066214398 0.50099999 4282925870
0.0609641 -0.066211499 0.50099999 4282465320
0.062443901 -0.0663407 0.50199997 4282793771
0.063801803 -0.066337802 0.50199997 4282794031
0.0651595 -0.066334702 0.50199997 4282794285
0.0665171 -0.066331699 0.50199997 4282860077
0.067874603 -0.0663286 0.50199997 4282662951
0.069231801 -0.066325396 0.50199997 4282662951
0.070588902 -0.0663222 0.50199997 4282926123
0.071945801 -0.066319004 0.50199997 4282860330
0.0733025 -0.066315703 0.50199997 4282991147
0.074659102 -0.066312402 0.50199997 4282859561
0.075864002 -0.066177003 0.50099999 4283056428
0.077217497 -0.066173598 0.50099999 4282596391
0.078570798 -0.066170201 0.50099999 4282925354
0.079923898 -0.066166699 0.50099999 4283122733
0.082629599 -0.066159703 0.50099999 4282596905
0.083982199 -0.066156201 0.50099999 4282596905
0.085334599 -0.066152602 0.50099999 4282925870
0.090742402 -0.066137999 0.50099999 4283189296
0.092093803 -0.066134296 0.50099999 4282991916
0.117974 -0.066193797 0.50199997 4282859563
0.120989 -0.067112997 0.509 4282793768
0.125484 -0.068823099 0.52200001 4282793768
0.133452 -0.072378799 0.54900002 4282727977
0.143039 -0.076724999 0.58200002 4282728492
0.15081599 -0.080016203 0.60699999 4282662699
0.15420701 -0.080934398 0.61400002 4282728492
0.15636601 -0.081193402 0.616 4282727977
0.158535 -0.081452496 0.61799997 4282662182
0.159679 -0.081184402 0.616 4282267679
0.16185901 -0.081443503 0.61799997 4282334240
0.163785 -0.081570797 0.61900002 4282400293
0.166251 -0.081961602 0.62199998 4285427284
0.16765299 -0.081825502 0.62099999 4287401074
0.16904999 -0.081689298 0.62 4287203440
0.170441 -0.081553303 0.61900002 4287532405
0.172105 -0.081549004 0.61900002 4287861113
0.173769 -0.081544802 0.61900002 4287992699
0.175716 -0.081672303 0.62 4287663219
0.17738201 -0.081668198 0.62 4287860598
0.17876001 -0.081532396 0.61900002 4287926392
0.18042301 -0.081528403 0.61900002 4287992185
0.182087 -0.081524499 0.61900002 4287926138
0.184047 -0.081652299 0.62 4287860345
0.186013 -0.081780098 0.62099999 4288123771
0.187682 -0.081776403 0.62099999 4287992184
0.189046 -0.081641003 0.62 4287926645
0.190712 -0.081637397 0.62 4288058743
0.192378 -0.081633799 0.62 4287598192
0.19498301 -0.082025297 0.62300003 4287795573
0.196658 -0.0820219 0.62300003 4287729526
0.198332 -0.082018599 0.62300003 4287860859
0.19936401 -0.081752099 0.62099999 4287795066
0.20103399 -0.081749 0.62099999 4287597427
0.202703 -0.0817459 0.62099999 4287926138
0.204043 -0.081611298 0.62 4287729527
0.205378 -0.0814768 0.61900002 4287663734
0.20704199 -0.081474103 0.61900002 4287927418
0.20904399 -0.081602998 0.62 4287598198
0.210711 -0.081600502 0.62 4287532405
0.21237899 -0.081597999 0.62 4287663993
0.214046 -0.081595697 0.62 4287598198
0.21571399 -0.081593499 0.62 4287795579
0.217733 -0.081722997 0.62099999 4287729786
0.21905001 -0.081589401 0.62 4287795577
0.22036301 -0.081455901 0.61900002 4287926906
0.222029 -0.081454098 0.61900002 4287861112
0.224057 -0.081584103 0.62 4287795319
0.22609 -0.081714198 0.62099999 4287926391
0.227762 -0.081712797 0.62099999 4287597426
0.229435 -0.081711501 0.62099999 4287663219
0.23148 -0.081841998 0.62199998 4287663219
0.233156 -0.081840999 0.62199998 4287860599
0.234832 -0.081840202 0.62199998 4287663220
0.236889 -0.081971101 0.62300003 4287597427
0.238952 -0.082102098 0.62400001 4287663734
0.24063499 -0.0821018 0.62400001 4287663220
0.24192999 -0.081969999 0.62300003 4287400047
0.24322 -0.081838302 0.62199998 4287795059
0.244899 -0.081838399 0.62199998 4287795057
0.24618199 -0.081707098 0.62099999 4287334506
0.24786 -0.0817075 0.62099999 4287466861
0.24953701 -0.081708103 0.62099999 4286874217
0.25161999 -0.081840403 0.62199998 4286742891
0.25330201 -0.081841297 0.62199998 4286545510
0.254574 -0.081710897 0.62099999 4286611046
0.255842 -0.081580602 0.62 4286808424
0.25751999 -0.081582099 0.62 4287071850
0.25961599 -0.081715301 0.62099999 4287137643
0.26171899 -0.0818488 0.62199998 4287269229
0.263405 -0.081850797 0.62199998 4287203182
0.265091 -0.081853099 0.62199998 4286939504
0.26677799 -0.081855498 0.62199998 4286873711
0.268466 -0.081858203 0.62199998 4286940010
0.270154 -0.081860997 0.62199998 4287269488
0.271844 -0.081864104 0.62199998 4287137649
0.273534 -0.081867397 0.62199998 4286808684
0.274782 -0.081739299 0.62099999 4286413926
0.27691701 -0.081874602 0.62199998 4286873964
0.27860999 -0.081878603 0.62199998 4287203183
0.27985299 -0.081751101 0.62099999 4286940010
0.28063801 -0.0814922 0.61900002 4287269233
0.28232601 -0.081496798 0.61900002 4287598198
0.28493199 -0.081765004 0.62099999 4287467381
0.28755 -0.0820335 0.62300003 4287730559
0.28925201 -0.082038797 0.62300003 4287664766
0.29001999 -0.081781097 0.62099999 4287269496
0.29171899 -0.081786901 0.62099999 4287993219
0.29294601 -0.081661299 0.62 4287401082
0.294644 -0.081667699 0.62 4287927426
0.295865 -0.081542604 0.61900002 4287927424
0.298044 -0.081681199 0.62 4287796093
0.30022901 -0.081820101 0.62099999 4288058749
0.30193499 -0.081827603 0.62099999 4287730039
0.303642 -0.0818353 0.62099999 4287137902
0.304858 -0.081711501 0.62 4287532401
0.306566 -0.081719801 0.62 4287532401
0.30777699 -0.081596598 0.61900002 4287203691
0.309484 -0.081605397 0.61900002 4287137898
0.31169599 -0.081746399 0.62 4287203691
0.313409 -0.081755899 0.62 4287335277
0.31614 -0.082029402 0.62199998 4287335026
0.317862 -0.082039498 0.62199998 4287861625
0.31855801 -0.081786104 0.62 4287729786
0.32079399 -0.081928797 0.62099999 4287598200
0.32251799 -0.081939802 0.62099999 4287598198
0.32476601 -0.082083203 0.62199998 4287861112
0.32597101 -0.081962898 0.62099999 4286873955
0.32717299 -0.081842899 0.62 4286216025
0.32890099 -0.081855297 0.62 4286610008
0.330098 -0.081735998 0.61900002 4286609238
0.33236399 -0.081881098 0.62 4286806872
0.33355901 -0.081762403 0.61900002 4286938456
0.33583501 -0.081908301 0.62 4286741079
0.33702901 -0.081790298 0.61900002 4286741077
0.33876601 -0.081804797 0.61900002 4287003745
0.33995599 -0.081687503 0.61799997 4286938973
0.342801 -0.081967101 0.62 4286675800
0.34454799 -0.081982702 0.62 4286741594
0.34573901 -0.081866503 0.61900002 4287267684
0.34748799 -0.081882901 0.61900002 4285951825
0.34923899 -0.081899703 0.61900002 4284899137
0.35212699 -0.082181603 0.62099999 4285030983
0.35331801 -0.082066901 0.62 4284834886
0.35565299 -0.082217298 0.62099999 4285887574
0.35626799 -0.0819709 0.61900002 4287006055
0.35803199 -0.081989802 0.61900002 4287531887
0.35921699 -0.081876598 0.61799997 4287268451
0.361568 -0.082028799 0.61900002 4286676314
0.36392701 -0.082181498 0.62 4286610775
0.365704 -0.082202204 0.62 4286347603
0.36748499 -0.082223304 0.62 4286347611
0.369268 -0.082244903 0.62 4286544990
0.37105399 -0.082266897 0.62 4286150748
0.372242 -0.082156599 0.61900002 4285624155
0.37463599 -0.082312301 0.62 4283519285
0.37703899 -0.082468599 0.62099999 4281018401
0.37884101 -0.082492597 0.62099999 4286809196
0.38064599 -0.082517102 0.62099999 4287269488
0.38183799 -0.082409099 0.62 4286611556
0.38426599 -0.082567498 0.62099999 4286150494
0.38545901 -0.0824605 0.62 4286413667
0.38727501 -0.082487002 0.62 4286610532
0.389094 -0.082514003 0.62 4286215773
0.390917 -0.0825416 0.62 4286675555
0.392744 -0.082569703 0.62 4286346590
0.393938 -0.082465097 0.61900002 4286807657
0.39704901 -0.082760803 0.62099999 4286742638
0.39824799 -0.0826573 0.62 4286479464
0.40073499 -0.082820997 0.62099999 4286742636
0.40258399 -0.082851999 0.62099999 4287071856
0.40508899 -0.083016999 0.62199998 4286808682
0.40760401 -0.083182797 0.62300003 4287400819
0.40947199 -0.083215602 0.62300003 4286940270
0.41068399 -0.083115503 0.62199998 4286939758
0.41189501 -0.083015896 0.62099999 4287005808
0.41243801 -0.082782999 0.61900002 4286940270
0.41565001 -0.083085798 0.62099999 4287071343
0.41753501 -0.083121702 0.62099999 4287335281
0.41942501 -0.083158299 0.62099999 4287137902
0.42131901 -0.0831955 0.62099999 4287334773
0.422537 -0.083099402 0.62 4287663233
0.42512199 -0.083272003 0.62099999 4287466359
0.42772001 -0.083445497 0.62199998 4287268980
0.42963701 -0.083485499 0.62199998 4287203440
0.43086699 -0.083392002 0.62099999 4287269749
-0.199459 -0.082617797 0.61500001 4289636242
-0.198127 -0.082755201 0.616 4290096793
-0.196153 -0.0826241 0.61500001 4290294172
-0.19481599 -0.082761697 0.616 4290097307
-0.192847 -0.082630701 0.61500001 4289966235
-0.191505 -0.0827685 0.616 4289900443
-0.189541 -0.082637697 0.61500001 4290032288
-0.187888 -0.082641304 0.61500001 4290098081
-0.186538 -0.0827794 0.616 4289834909
-0.185183 -0.082917497 0.61699998 4290032286
-0.183227 -0.082786903 0.616 4289703323
-0.18127701 -0.082656398 0.61500001 4289637017
-0.180208 -0.082929201 0.61699998 4289439638
-0.17855 -0.082933202 0.61699998 4289373845
-0.177178 -0.083071701 0.61799997 4289571225
-0.17523301 -0.082941398 0.61699998 4289768603
-0.173575 -0.0829456 0.61699998 4289571482
-0.171638 -0.082815401 0.616 4289440151
-0.169706 -0.082685202 0.61500001 4289440151
-0.16778 -0.0825551 0.61400002 4289110931
-0.16558801 -0.0822905 0.61199999 4288847759
-0.164211 -0.082429402 0.61299998 4288716428
-0.162828 -0.082568303 0.61400002 4288584587
-0.16170201 -0.082841702 0.616 4288584842
-0.160046 -0.082846299 0.616 4288650635
-0.158132 -0.082716301 0.61500001 4288979345
-0.156478 -0.082720898 0.61500001 4289110931
-0.154572 -0.082590997 0.61400002 4289176724
-0.15292101 -0.082595602 0.61400002 4289045138
-0.15151601 -0.082734801 0.61500001 4289703068
-0.14986099 -0.082739502 0.61500001 4289637530
-0.148206 -0.082744204 0.61500001 4289966754
-0.146552 -0.082748897 0.61500001 4290164133
-0.14513201 -0.082888201 0.616 4290098342
-0.143475 -0.082892999 0.616 4290360998
-0.141817 -0.082897797 0.616 4290032288
-0.140158 -0.082902499 0.616 4290163874
-0.138725 -0.083041899 0.61699998 4290032288
-0.137064 -0.083046697 0.61699998 4289900702
-0.135841 -0.0833207 0.61900002 4289900702
-0.13374101 -0.083056301 0.61699998 4290098081
-0.13186499 -0.082926497 0.616 4290163874
-0.129783 -0.082662001 0.61400002 4290361253
-0.128546 -0.082935996 0.616 4290360998
-0.127092 -0.083075397 0.61699998 4290295460
-0.12543 -0.083080202 0.61699998 4290295719
-0.123566 -0.082950301 0.616 4289966756
-0.121708 -0.082820296 0.61500001 4289638305
-0.12005 -0.082825102 0.61500001 4289901477
-0.118777 -0.083099097 0.61699998 4289638307
-0.117303 -0.083238497 0.61799997 4289901479
-0.115637 -0.083243199 0.61799997 4289835170
-0.11397 -0.083247803 0.61799997 4289966756
-0.112121 -0.083117701 0.61699998 4289966754
-0.110457 -0.083122298 0.61699998 4289835423
-0.108792 -0.083126903 0.61699998 4290163874
-0.107127 -0.083131403 0.61699998 4289967009
-0.105633 -0.083270699 0.61799997 4289966240
-0.103796 -0.083140403 0.61699998 4289900449
-0.10213 -0.083144799 0.61699998 4289966495
-0.100302 -0.083014503 0.616 4289966495
-0.0986384 -0.083018802 0.616 4289768861
-0.097132199 -0.083157897 0.61699998 4289966240
-0.095775098 -0.083431803 0.61900002 4289900447
-0.094102897 -0.083435997 0.61900002 4290097574
-0.092430502 -0.083440199 0.61900002 4289703330
-0.090464599 -0.083174802 0.61699998 4289769377
-0.088653304 -0.083044097 0.616 4289769123
-0.086988397 -0.083048098 0.616 4289703582
-0.085461698 -0.083186902 0.61699998 4289900961
-0.083793603 -0.083190799 0.61699998 4289703582
-0.082258403 -0.083329603 0.61799997 4289505689
-0.080456898 -0.0831986 0.61699998 4289571737
-0.078915797 -0.083337203 0.61799997 4289834909
-0.0772442 -0.083340898 0.61799997 4289834909
-0.075327799 -0.083074898 0.616 4289769116
-0.073661201 -0.083078504 0.616 4289703323
-0.072228201 -0.083351701 0.61799997 4289637275
-0.071126603 -0.0840296 0.62300003 4289769116
-0.070109203 -0.084842302 0.62900001 4289637530
-0.069820501 -0.086599298 0.64200002 4289769116
-0.0706276 -0.089840204 0.66600001 4289769116
-0.070168003 -0.091597401 0.67900002 4289834909
-0.067826301 -0.090926297 0.67400002 4289834909
-0.061692402 -0.084993601 0.63 4289505689
-0.055511098 -0.078655601 0.583 4289769375
-0.050231699 -0.073261604 0.54299998 4289243792
-0.0474138 -0.071240202 0.528 4289113253
-0.045025501 -0.0697584 0.51700002 4285756548
-0.043624699 -0.069760703 0.51700002 4284572252
-0.042060599 -0.069493003 0.51499999 4284637016
-0.040665001 -0.069495097 0.51499999 4284176456
-0.0391168 -0.069227301 0.51300001 4284045125
-0.037726399 -0.069229297 0.51300001 4283715905
-0.036194298 -0.0689613 0.51099998 4283452475
-0.034809101 -0.0689632 0.51099998 4283517754
-0.033358399 -0.068829998 0.50999999 4283254582
-0.031975701 -0.068831697 0.50999999 4283583033
-0.030593 -0.068833299 0.50999999 4283517240
-0.029267401 -0.068969898 0.51099998 4283254068
-0.0279363 -0.0691064 0.51200002 4283188529
-0.026547801 -0.069107801 0.51200002 4283254836
-0.025110099 -0.068974197 0.51099998 4282925871
-0.023677699 -0.068840504 0.50999999 4282663466
-0.0222944 -0.068841703 0.50999999 4282991916
-0.0209521 -0.0689779 0.51099998 4282925607
-0.019566 -0.068979003 0.51099998 4283320619
-0.018215301 -0.069114998 0.51200002 4283320619
-0.016826401 -0.0691159 0.51200002 4283123756
-0.0154675 -0.069251798 0.51300001 4282991916
-0.0140483 -0.069117598 0.51200002 4283123502
-0.0126344 -0.068983302 0.51099998 4283254574
-0.0112259 -0.0688489 0.50999999 4283320367
-0.0098421704 -0.068849497 0.50999999 4283583023
-0.0084583703 -0.068850003 0.50999999 4283319851
-0.0070606698 -0.068715401 0.509 4283122474
-0.0056906799 -0.0688508 0.50999999 4283254060
-0.0043152501 -0.068985999 0.51099998 4283385905
-0.00292292 -0.068851203 0.50999999 4283254321
-0.0015360099 -0.068716303 0.509 4282991664
-0.00015512299 -0.068851396 0.50999999 4283057457
0.00122878 -0.068851396 0.50999999 4283057717
0.00260755 -0.068716303 0.509 4283057456
0.0039809002 -0.068581097 0.50800002 4282794538
0.00536989 -0.068715803 0.509 4282925609
0.0067775701 -0.068985499 0.51099998 4282991400
0.0081641199 -0.068985097 0.51099998 4282991140
0.0095319496 -0.068849601 0.50999999 4283122726
0.0108729 -0.0685791 0.50800002 4283385644
0.0122271 -0.068443403 0.50700003 4283122472
0.0136295 -0.068577804 0.50800002 4283253805
0.0150964 -0.068981998 0.51099998 4283122219
0.0164827 -0.068981104 0.51099998 4283122219
0.017868999 -0.068980202 0.51099998 4283253805
0.019179801 -0.068709202 0.509 4283122474
0.020520199 -0.068573199 0.50800002 4283188779
0.021855 -0.068437099 0.50700003 4283319851
0.0231844 -0.068300903 0.50599998 4283188267
0.0245567 -0.068299599 0.50599998 4283188012
0.025980299 -0.068433203 0.50700003 4283188014
0.0273552 -0.068431802 0.50700003 4282859564
0.0287301 -0.068430297 0.50700003 4283254582
0.030045399 -0.068293802 0.50599998 4283057457
0.0314795 -0.068427198 0.50700003 4282925871
0.032854099 -0.068425499 0.50700003 4282793771
0.0342285 -0.068423703 0.50700003 4283253552
0.035462402 -0.068152003 0.505 4283056175
0.036904201 -0.0682851 0.50599998 4283122482
0.038351301 -0.0684181 0.50700003 4283254068
0.0397253 -0.068416104 0.50700003 4282925357
0.0409371 -0.068144098 0.505 4283056942
0.042137899 -0.0678721 0.50300002 4283253805
0.043673702 -0.068139702 0.505 4283385391
0.045131002 -0.068272397 0.50599998 4283056681
0.046593498 -0.068405002 0.50700003 4283188265
0.047777601 -0.068132803 0.505 4283254058
0.049047999 -0.067995399 0.50400001 4283057195
0.0504128 -0.067992903 0.50400001 4283057195
0.051777501 -0.0679904 0.50400001 4282859563
0.053142101 -0.0679878 0.50400001 4282991663
0.054506499 -0.067985103 0.50400001 4283188529
0.055870701 -0.067982398 0.50400001 4282794285
0.057121299 -0.067844696 0.50300002 4282860078
0.058366202 -0.067707099 0.50199997 4282991663
0.059724599 -0.067704201 0.50199997 4282860078
0.061082799 -0.067701302 0.50199997 4282925871
0.062565297 -0.0678332 0.50300002 4282859564
0.064052902 -0.067965001 0.50400001 4282794031
0.065416098 -0.067961901 0.50400001 4282859824
0.066646501 -0.067823999 0.50300002 4282991664
0.068141803 -0.067955598 0.50400001 4282991663
0.0693665 -0.067817599 0.50300002 4283057710
0.070866898 -0.067949198 0.50400001 4282728744
0.071942501 -0.067676201 0.50199997 4282597158
0.073591202 -0.0679425 0.50400001 4282794538
0.074804403 -0.067804404 0.50300002 4283254319
0.076163501 -0.067800999 0.50300002 4282793770
0.0773682 -0.067662701 0.50199997 4282991150
0.078881003 -0.067794003 0.50300002 4283188529
0.080239497 -0.067790501 0.50300002 4282991663
0.081435598 -0.067652203 0.50199997 4283122736
0.082791001 -0.067648597 0.50199997 4282662698
0.084146202 -0.067644998 0.50199997 4282596905
0.085331 -0.067506701 0.50099999 4283056940
0.090738699 -0.067491896 0.50099999 4282728998
0.0920901 -0.067488201 0.50099999 4282860330
0.093441397 -0.067484401 0.50099999 4282859816
0.118441 -0.0678185 0.50400001 4282727978
0.121698 -0.068890996 0.51200002 4282793771
0.12740301 -0.071308903 0.52999997 4282727978
0.135635 -0.075071901 0.55800003 4282464552
0.144263 -0.078969002 0.58700001 4282925617
0.150315 -0.081386 0.60500002 4282925617
0.153198 -0.082053997 0.61000001 4282464552
0.15534601 -0.082318403 0.61199999 4282793771
0.15724801 -0.082448401 0.61299998 4282530596
0.158637 -0.082309298 0.61199999 4282531365
0.160807 -0.082573801 0.61400002 4282531619
0.16272201 -0.082703799 0.61500001 4281939742
0.16491 -0.082968302 0.61699998 4286874217
0.16656899 -0.082963802 0.61699998 4287071596
0.16850001 -0.083093897 0.61799997 4286939496
0.16988599 -0.0829551 0.61699998 4287663473
0.171267 -0.082816303 0.616 4287334508
0.17264199 -0.0826777 0.61500001 4287663473
0.174578 -0.082807899 0.616 4287400301
0.17623401 -0.082803801 0.616 4287465840
0.177889 -0.082799703 0.616 4287597427
0.179254 -0.082661197 0.61500001 4287531634
0.180906 -0.0826573 0.61500001 4287597427
0.182262 -0.082519002 0.61400002 4287531119
0.184212 -0.082649603 0.61500001 4287465324
0.185865 -0.082645804 0.61500001 4287597164
0.188127 -0.082910903 0.61699998 4287333992
0.189786 -0.082907297 0.61699998 4287531885
0.191754 -0.083038099 0.61799997 4287202922
0.193728 -0.083168902 0.61900002 4287465840
0.195392 -0.083165497 0.61900002 4287465840
0.197055 -0.083162203 0.61900002 4287465841
0.19839799 -0.083024599 0.61799997 4287597173
0.200059 -0.083021499 0.61799997 4288057208
0.20139401 -0.082884103 0.61699998 4287597426
0.203053 -0.082881197 0.61699998 4287663219
0.204712 -0.082878299 0.61699998 4287597940
0.206705 -0.083009899 0.61799997 4287664244
0.20870399 -0.083141498 0.61900002 4287927416
0.21036901 -0.083139002 0.61900002 4287861370
0.211349 -0.082867898 0.61699998 4287795577
0.213008 -0.082865603 0.61699998 4287926652
0.21466801 -0.082863398 0.61699998 4287729273
0.21667901 -0.082995601 0.61799997 4287597688
0.217989 -0.0828593 0.61699998 4287662966
0.21893699 -0.082588904 0.61500001 4287860859
0.22095101 -0.082721397 0.616 4287795066
0.22261 -0.082719803 0.616 4287663480
0.22463199 -0.082852602 0.61699998 4287794806
0.226294 -0.082851298 0.61699998 4287794806
0.22832499 -0.082984403 0.61799997 4287794291
0.22999001 -0.0829833 0.61799997 4287728496
0.232031 -0.083116598 0.61900002 4287860852
0.233321 -0.082981601 0.61799997 4287531887
0.23574799 -0.083249502 0.62 4287203434
0.237803 -0.083383299 0.62099999 4287071850
0.23909201 -0.083248697 0.62 4287400562
0.24037699 -0.083114199 0.61900002 4287400562
0.24165601 -0.082979903 0.61799997 4287400561
0.243325 -0.082980096 0.61799997 4287268715
0.244201 -0.082711801 0.616 4287531885
0.245864 -0.0827123 0.616 4287400813
0.247127 -0.082578696 0.61500001 4287203436
0.248789 -0.082579501 0.61500001 4287203436
0.25045201 -0.082580499 0.61500001 4286940523
0.25252599 -0.082716003 0.616 4286743142
0.25419199 -0.082717299 0.616 4286545765
0.25586 -0.082718901 0.616 4286414177
0.25752801 -0.0827206 0.616 4286282591
0.259197 -0.082722597 0.616 4287137643
0.26086599 -0.082724698 0.616 4287137643
0.26253599 -0.082727 0.616 4287663471
0.26463601 -0.082863897 0.61699998 4287663473
0.26631001 -0.082866602 0.61699998 4287334768
0.26885399 -0.083138198 0.61900002 4287137389
0.27053601 -0.083141401 0.61900002 4286939757
0.27221799 -0.083144702 0.61900002 4287071343
0.27301601 -0.0828797 0.61699998 4286808425
0.275585 -0.083152197 0.61900002 4287136876
0.276822 -0.083021902 0.61799997 4287466094
0.27805501 -0.082891896 0.61699998 4286544990
0.27882901 -0.082627699 0.61500001 4287532399
0.28050601 -0.0826324 0.61500001 4287532660
0.282184 -0.082637399 0.61500001 4287664246
0.28524801 -0.083045803 0.61799997 4287532921
0.28693601 -0.083051302 0.61799997 4286348908
0.289092 -0.083191402 0.61900002 4286809460
0.289846 -0.082928702 0.61699998 4287729288
0.292007 -0.083069302 0.61799997 4287335036
0.29322499 -0.082941502 0.61699998 4287664242
0.294438 -0.082813799 0.616 4287401325
0.295647 -0.082686402 0.61500001 4287532660
0.29781899 -0.082828201 0.616 4287598451
0.299025 -0.082701303 0.61500001 4287861364
0.30120501 -0.082843699 0.616 4287137641
0.30240801 -0.082717299 0.61500001 4287795312
0.30509099 -0.082994796 0.61699998 4287400554
0.30629399 -0.082869098 0.616 4287006310
0.30799299 -0.082878098 0.616 4287335275
0.30919099 -0.082752898 0.61500001 4287203687
0.31190199 -0.083031699 0.61699998 4287401066
0.313609 -0.083041698 0.61699998 4287006312
0.315828 -0.083186597 0.61799997 4287466863
0.317027 -0.083062597 0.61699998 4287795830
0.31925499 -0.083208203 0.61799997 4287598453
0.32097101 -0.083219498 0.61799997 4287203442
