# .PCD v0.7 - Point Cloud Data file format
VERSION 0.7
FIELDS x y z rgb
SIZE 4 4 4 4
TYPE F F F U
COUNT 1 1 1 1
WIDTH 1103
HEIGHT 1
VIEWPOINT 0 0 0 1 0 0 0
POINTS 1103
DATA ascii
0.418603 0.0538547 0.62900001 4288125066
0.41982901 0.053791001 0.62800002 4288059534
0.42239699 0.053899098 0.62900001 4288125582
0.42497599 0.054007601 0.63 4288191373
0.42756599 0.054116599 0.63099998 4287731590
0.42948601 0.0541404 0.63099998 4287862661
0.43072701 0.054078698 0.63 4287993734
0.433341 0.054189201 0.63099998 4287861633
0.435276 0.054214198 0.63099998 4287926912
0.436524 0.0541538 0.63 4287663991
-0.19812299 0.050739199 0.62099999 4288847761
-0.19677199 0.050823402 0.62199998 4288781714
-0.19510201 0.050825998 0.62199998 4288781714
-0.19312 0.050746799 0.62099999 4288386956
-0.191452 0.050749399 0.62099999 4288584335
-0.189785 0.0507521 0.62099999 4288518542
-0.18842 0.0508366 0.62199998 4289176472
-0.186749 0.050839301 0.62199998 4289439898
-0.185376 0.050923798 0.62300003 4289834656
-0.18340801 0.0508449 0.62199998 4289834656
-0.181445 0.050765999 0.62099999 4290295207
-0.179777 0.050768901 0.62099999 4290361000
-0.178396 0.050853599 0.62199998 4290492332
-0.177009 0.050938301 0.62300003 4290558125
-0.17561699 0.0510231 0.62400001 4290427053
-0.17366201 0.050944399 0.62300003 4290427053
-0.171988 0.050947402 0.62300003 4290492846
-0.17004 0.050868701 0.62199998 4290427053
-0.168639 0.050953601 0.62300003 4290361775
-0.166429 0.050793201 0.62099999 4290164396
-0.16475999 0.0507963 0.62099999 4290164398
-0.162828 0.0507177 0.62 4290230189
-0.16168199 0.0508845 0.62199998 4290295468
-0.16001 0.0508877 0.62199998 4290032810
-0.15910099 0.0511363 0.625 4290230189
-0.157168 0.051057801 0.62400001 4290362030
-0.15549 0.051061001 0.62400001 4290164396
-0.153073 0.050818801 0.62099999 4290230189
-0.147989 0.049676299 0.60699999 4290032810
-0.143222 0.0486155 0.59399998 4290229675
-0.138763 0.047636501 0.58200002 4290163882
-0.134368 0.046657301 0.56999999 4290032810
-0.13097 0.046005402 0.56199998 4289967019
-0.12715399 0.045189701 0.55199999 4290032810
-0.120204 0.043227799 0.528 4289901479
0.10187 0.042275801 0.51599997 4284507499
0.109464 0.044812799 0.54699999 4285297016
0.117632 0.047513299 0.57999998 4285428348
0.122688 0.048902798 0.597 4285428348
0.12513 0.049227301 0.60100001 4285297016
0.127382 0.049469799 0.60399997 4284902257
0.129223 0.049548499 0.60500002 4284310373
0.131501 0.049791001 0.60799998 4282467653
0.133577 0.049951602 0.61000001 4281875002
0.135884 0.050193999 0.61299998 4283256139
0.13798399 0.050354499 0.61500001 4284177233
0.13963901 0.050351199 0.61500001 4286018922
0.141295 0.050347999 0.61500001 4286084708
0.14318199 0.050426599 0.616 4286281575
0.14507499 0.050505199 0.61699998 4286347367
0.146735 0.050501902 0.61699998 4286215520
0.148395 0.050498702 0.61699998 4286478692
0.15005501 0.050495401 0.61699998 4286281827
0.151961 0.050574001 0.61799997 4286873450
0.153871 0.050652601 0.61900002 4286742117
0.15578701 0.050731201 0.62 4286676324
0.15719999 0.0506461 0.61900002 4286610783
0.158351 0.0504793 0.61699998 4286610269
0.16001 0.0504761 0.61699998 4286873441
0.16193099 0.050554801 0.61799997 4286610269
0.164915 0.0509606 0.62300003 4286610269
0.166857 0.051039301 0.62400001 4286938980
0.168534 0.051036101 0.62400001 4287202152
0.169393 0.050787698 0.62099999 4286741360
0.17133699 0.050866399 0.62199998 4286412900
0.17328601 0.050945099 0.62300003 4286413666
0.17496 0.050942 0.62300003 4286347874
0.176917 0.051020801 0.62400001 4286150495
0.178307 0.050935999 0.62300003 4286413666
0.17998099 0.0509331 0.62300003 4286742885
0.181363 0.050848398 0.62199998 4286347611
0.183033 0.050845601 0.62199998 4286413404
0.184407 0.050760999 0.62099999 4286544215
0.186075 0.050758202 0.62099999 4286610008
0.188045 0.0508372 0.62199998 4286609755
0.190631 0.051079601 0.625 4286807648
0.19230901 0.0510769 0.625 4286610785
0.193988 0.0510743 0.625 4286544738
0.195666 0.0510717 0.625 4286544738
0.19702899 0.0509874 0.62400001 4286610531
0.19902299 0.0510666 0.625 4286675555
0.19973899 0.050819099 0.62199998 4286346076
0.201085 0.050735001 0.62099999 4286872675
0.20308 0.050814301 0.62199998 4286346331
0.20540901 0.050975401 0.62400001 4286741087
0.207417 0.051054899 0.625 4286478169
0.20876101 0.050971001 0.62400001 4286477915
0.210438 0.0509689 0.62400001 4286675296
0.21211401 0.050966799 0.62400001 4286872420
0.213448 0.0508832 0.62300003 4286740834
0.215122 0.0508813 0.62300003 4286477917
0.217144 0.0509611 0.62400001 4286675808
0.219172 0.051041 0.625 4286609762
0.220852 0.0510392 0.625 4286675555
0.222176 0.050955899 0.62400001 4286216531
0.22385401 0.050954401 0.62400001 4286545243
0.225532 0.0509529 0.62400001 4286544990
0.226482 0.050788101 0.62199998 4286742885
0.228521 0.050868399 0.62300003 4286808678
0.23056699 0.050948799 0.62400001 4286610531
0.23299 0.051111002 0.62599999 4286872934
0.2343 0.051028199 0.625 4286478431
0.235982 0.051027201 0.625 4286807396
0.237665 0.0510263 0.625 4286938982
0.238582 0.050862201 0.62300003 4286544990
0.240646 0.050943099 0.62400001 4286676576
0.24193899 0.0508608 0.62300003 4286808162
0.244399 0.051023498 0.625 4286741855
0.246084 0.0510231 0.625 4287071334
0.247769 0.051022701 0.625 4287137129
0.248257 0.050777599 0.62199998 4287136622
0.249935 0.050777402 0.62199998 4286742371
0.252018 0.050859001 0.62300003 4286742369
0.25451401 0.051022299 0.625 4286808668
0.25620201 0.0510225 0.625 4286611038
0.257478 0.050941199 0.62400001 4286808164
0.25916401 0.050941501 0.62400001 4286544992
0.26085001 0.050942101 0.62400001 4286544992
0.262117 0.050861001 0.62300003 4287005793
0.26337901 0.050780099 0.62199998 4286807394
0.265062 0.050781 0.62199998 4286676578
0.26674601 0.050781999 0.62199998 4287004775
0.26843101 0.050783101 0.62199998 4287070568
0.270116 0.050784301 0.62199998 4287070566
0.27267599 0.050949 0.62400001 4286939750
0.274369 0.050950501 0.62400001 4286742371
0.27606201 0.050952099 0.62400001 4286873957
0.277311 0.050872199 0.62300003 4287137129
0.27900299 0.050874099 0.62300003 4287005289
0.28024599 0.050794501 0.62199998 4286742118
0.28148401 0.050714999 0.62099999 4286742117
0.28408501 0.0508806 0.62300003 4286742118
0.28624001 0.050964799 0.62400001 4286742118
0.28794 0.050967399 0.62400001 4286807394
0.28917599 0.050888501 0.62300003 4286873955
0.29087499 0.050891399 0.62300003 4287005543
0.292106 0.050812799 0.62199998 4287466608
0.29333201 0.0507343 0.62099999 4287795832
0.295504 0.050819401 0.62199998 4287598198
0.29720399 0.050822899 0.62199998 4287927165
0.29986799 0.05099 0.62400001 4287927165
0.30157599 0.050993901 0.62400001 4287729531
0.303772 0.051079702 0.625 4287663738
0.30450901 0.050920501 0.62300003 4287466614
0.30572701 0.050843101 0.62199998 4287532405
0.306941 0.050765902 0.62099999 4287532405
0.309145 0.050852399 0.62199998 4287598453
0.311856 0.051020801 0.62400001 4287795577
0.31357399 0.051025901 0.62400001 4287400819
0.31478801 0.050949398 0.62300003 4287927163
0.31549001 0.050791301 0.62099999 4287467128
0.31669399 0.0507151 0.62 4287861372
0.318921 0.050802801 0.62099999 4288190335
0.321154 0.050890598 0.62199998 4287532660
0.322357 0.050815001 0.62099999 4287335532
0.32355601 0.050739601 0.62 4287532660
0.32580101 0.050828099 0.62099999 4287269233
0.32752499 0.050834902 0.62099999 4287598200
0.33031201 0.051005699 0.62300003 4287861631
0.331512 0.0509311 0.62199998 4287401082
0.333781 0.051020499 0.62300003 4287598459
0.33444101 0.050864398 0.62099999 4287466614
0.336716 0.0509542 0.62199998 4286545253
0.338999 0.0510442 0.62300003 4287333740
0.34128901 0.051134601 0.62400001 4287531117
0.34248799 0.051061202 0.62300003 4286873441
0.343683 0.0509881 0.62199998 4287201892
0.345985 0.051079102 0.62300003 4287070044
0.34773701 0.0510884 0.62300003 4286873683
0.348369 0.050933901 0.62099999 4287201630
0.35012001 0.050943699 0.62099999 4287266664
0.35187301 0.050953701 0.62099999 4287070802
0.35476801 0.051128101 0.62300003 4287400534
0.357104 0.0512207 0.62400001 4287136605
0.35944799 0.051313601 0.625 4286543961
0.360645 0.051242601 0.62400001 4287465578
0.36241901 0.0512539 0.62400001 4287399784
0.363612 0.051183399 0.62300003 4287793522
0.36538899 0.051195201 0.62300003 4287399271
0.366579 0.051125102 0.62199998 4287136099
0.36954299 0.0513019 0.62400001 4287202154
0.37192601 0.051396899 0.625 4287728749
0.37431699 0.051492199 0.62599999 4287070819
0.375516 0.051423199 0.625 4287005541
0.377316 0.051436801 0.625 4287070566
0.37911901 0.0514507 0.625 4287267945
0.380925 0.0514649 0.625 4287333738
0.382734 0.051479399 0.625 4287004773
0.38454601 0.0514942 0.625 4286413153
0.38574401 0.051426899 0.62400001 4284637768
0.38756001 0.051442299 0.62400001 4283782467
0.39000401 0.051540501 0.625 4288191112
0.39308399 0.051721498 0.62699997 4288191112
0.395549 0.051820502 0.62800002 4287927424
0.396759 0.051754799 0.62699997 4288387463
0.397966 0.051689301 0.62599999 4288387461
0.39917099 0.051624201 0.625 4287795324
0.40165699 0.051724602 0.62599999 4287926912
0.40415299 0.0518254 0.62699997 4287926912
0.406012 0.0518439 0.62699997 4287992966
0.407224 0.051780101 0.62599999 4288059527
0.409087 0.051799301 0.62599999 4288059012
0.411612 0.051901702 0.62699997 4288059526
0.41414601 0.052004501 0.62800002 4287598975
0.41470399 0.051859301 0.62599999 4287861894
0.41591901 0.051797099 0.625 4287862408
0.41780201 0.051818199 0.625 4287993996
0.42103201 0.0520056 0.62699997 4287862924
0.42360401 0.052110501 0.62800002 4288126094
0.42483199 0.052049901 0.62699997 4288323473
0.42673999 0.0520727 0.62699997 4288717971
0.42865199 0.052095901 0.62699997 4288388492
0.431943 0.052285802 0.62900001 4288256136
0.43387201 0.052309901 0.62900001 4288124291
0.43580601 0.052334499 0.62900001 4287400313
-0.199472 0.0489811 0.62 4289374103
-0.19685 0.0487464 0.61699998 4289373846
-0.195509 0.048827801 0.61799997 4289176726
-0.193849 0.048830301 0.61799997 4289045140
-0.19219001 0.0488328 0.61799997 4289242262
-0.19053 0.0488353 0.61799997 4289571227
-0.189482 0.048995901 0.62 4289571227
-0.18842199 0.049156599 0.62199998 4289505434
-0.186452 0.049080301 0.62099999 4289505431
-0.184486 0.049003899 0.62 4289373845
-0.18252601 0.048927601 0.61900002 4289110673
-0.180571 0.048851401 0.61799997 4289242260
-0.178911 0.048854198 0.61799997 4288847761
-0.17753799 0.048936099 0.61900002 4288584589
-0.17615899 0.049017999 0.62 4287992452
-0.174494 0.049020901 0.62 4288518796
-0.17254899 0.048944801 0.61900002 4288321417
-0.17061 0.0488686 0.61799997 4288518794
-0.169223 0.048950698 0.61900002 4288650382
-0.168101 0.049111899 0.62099999 4289571484
-0.165896 0.0489567 0.61900002 4289966502
-0.164233 0.048959699 0.61900002 4290361261
-0.162306 0.048883699 0.61799997 4289966502
-0.160905 0.048965901 0.61900002 4289900710
-0.15949801 0.0490481 0.62 4290163882
-0.15834001 0.049209401 0.62199998 4290229674
-0.15692 0.0492917 0.62300003 4290229674
-0.154746 0.049136601 0.62099999 4290164396
-0.152583 0.048981499 0.61900002 4290032810
-0.14848 0.048193298 0.60900003 4290230189
-0.143466 0.0470885 0.59500003 4290427054
-0.13900401 0.0461418 0.583 4290427054
-0.134607 0.045194998 0.57099998 4290032812
-0.13120601 0.044564601 0.56300002 4290361522
-0.128078 0.0440134 0.55599999 4290032812
-0.1218 0.042353801 0.53500003 4289967019
0.097949497 0.0398519 0.50300002 4284441190
0.102859 0.041275401 0.52100003 4284375913
0.110868 0.0438869 0.55400002 4285165177
0.118649 0.046339702 0.58499998 4285428348
0.123103 0.0474457 0.59899998 4285297016
0.125341 0.047680199 0.602 4285165177
0.126963 0.0476772 0.602 4284375913
0.129012 0.0478325 0.60399997 4282796620
0.13128801 0.048066899 0.60699999 4282467393
0.133799 0.048380502 0.611 4281678130
0.135887 0.048535801 0.61299998 4283387978
0.137538 0.048532601 0.61299998 4284967506
0.138961 0.048450299 0.61199999 4285624671
0.140609 0.048447099 0.61199999 4285887327
0.142488 0.048523098 0.61299998 4286018656
0.14460801 0.048678301 0.61500001 4286215520
0.146025 0.048595998 0.61400002 4286083934
0.147917 0.048672002 0.61500001 4286083934
0.14932901 0.048589699 0.61400002 4286149981
0.151472 0.048744801 0.616 4286215774
0.153129 0.048741698 0.616 4286347613
0.15553901 0.0489759 0.61900002 4286281820
0.15669601 0.048814598 0.61699998 4286281820
0.158355 0.048811499 0.61699998 4286610015
0.15975399 0.0487293 0.616 4286873441
0.16141 0.048726201 0.616 4286347097
0.164124 0.049039502 0.62 4286478683
0.166058 0.049115598 0.62099999 4286610269
0.167457 0.0490334 0.62 4286610015
0.168577 0.048872299 0.61799997 4286347359
0.170238 0.048869301 0.61799997 4286281567
0.172177 0.048945401 0.61900002 4286216288
0.173559 0.0488634 0.61799997 4286347873
0.175503 0.048939601 0.61900002 4286216287
0.177165 0.048936699 0.61900002 4286347873
0.17911699 0.049012899 0.62 4286084955
0.180491 0.048930999 0.61900002 4286413413
0.182153 0.048928201 0.61900002 4286807648
0.183816 0.0489255 0.61900002 4286478683
0.185478 0.0489228 0.61900002 4286609754
0.187443 0.048999101 0.62 4286675294
0.18971799 0.049154598 0.62199998 4286609503
0.191081 0.049072899 0.62099999 4286543969
0.19243801 0.048991401 0.62 4286413152
0.194103 0.0489888 0.62 4286413404
0.19608399 0.0490654 0.62099999 4286610783
0.197752 0.049063001 0.62099999 4286281820
0.198778 0.048902601 0.61900002 4286543969
0.20011599 0.0488213 0.61799997 4286741089
0.201776 0.048819002 0.61799997 4286872673
0.20409399 0.048974801 0.62 4287004513
0.206423 0.0491306 0.62199998 4286675548
0.208094 0.049128499 0.62199998 4286807648
0.209765 0.049126402 0.62199998 4286676062
0.211096 0.049045399 0.62099999 4286676062
0.212422 0.0489645 0.62 4286347097
0.213743 0.048883699 0.61900002 4286741341
0.215754 0.048960902 0.62 4286543962
0.21742 0.048959099 0.62 4286543962
0.219087 0.048957501 0.62 4286675548
0.220753 0.048955899 0.62 4286478683
0.223138 0.049112201 0.62199998 4286347611
0.22481 0.0491108 0.62199998 4286479197
0.22575501 0.048951499 0.62 4286478945
0.226689 0.048792299 0.61799997 4286610532
0.22872099 0.048870001 0.61900002 4286675555
0.230758 0.0489478 0.62 4286609762
0.23317599 0.049104601 0.62199998 4286412638
0.234851 0.049103599 0.62199998 4286412890
0.236525 0.049102701 0.62199998 4286412375
0.237434 0.048944 0.62 4286544214
0.239104 0.0489433 0.62 4286675800
0.24038599 0.048863702 0.61900002 4286675801
0.242836 0.049021099 0.62099999 4287004513
0.24411599 0.048941702 0.62 4287333226
0.24578699 0.048941299 0.62 4286806627
0.24706 0.0488621 0.61900002 4286741348
0.24873 0.048861898 0.61900002 4286543969
0.25080499 0.0489408 0.62 4286807141
0.25369999 0.049177699 0.62300003 4286807396
0.255382 0.049177799 0.62300003 4287201899
0.257065 0.049178101 0.62300003 4286938982
0.258333 0.049099501 0.62199998 4286939243
0.260432 0.049178898 0.62300003 4286742117
0.26127499 0.049021602 0.62099999 4286939234
0.26253101 0.0489433 0.62 4287005027
0.26378301 0.048865199 0.61900002 4286741855
0.265459 0.048866101 0.61900002 4286610269
0.26756701 0.048946101 0.62 4286938720
0.26924601 0.048947301 0.62 4286741341
0.27180099 0.049106501 0.62199998 4287004513
0.27392799 0.0491869 0.62300003 4286938980
0.27517599 0.0491095 0.62199998 4286873957
0.27686399 0.049111102 0.62199998 4287005289
0.278106 0.049033999 0.62099999 4286939496
0.27934301 0.048957001 0.62 4286807910
0.281028 0.048958998 0.62 4287070568
0.28271499 0.0489612 0.62 4286938982
0.284861 0.049042601 0.62099999 4286807396
0.286091 0.048966099 0.62 4287202152
0.28870901 0.0491267 0.62199998 4287202922
0.29040501 0.049129501 0.62199998 4286150494
0.29163301 0.049053401 0.62099999 4287532401
0.29285601 0.048977502 0.62 4287598451
0.29455 0.048980702 0.62 4287730039
0.29672301 0.049063101 0.62099999 4287663991
0.29890299 0.049145699 0.62199998 4287598200
0.30060601 0.049149401 0.62199998 4287795324
0.30230999 0.049153298 0.62199998 4287861119
0.303527 0.049078301 0.62099999 4287598200
0.30424801 0.048924401 0.61900002 4287663993
0.30594799 0.048928801 0.61900002 4287598198
0.308146 0.0490124 0.62 4287663991
0.31035101 0.0490961 0.62099999 4287729784
0.31206101 0.049100999 0.62099999 4287401335
0.31427699 0.049185202 0.62199998 4287467128
0.31497699 0.0490322 0.62 4287664252
0.316688 0.049037699 0.62 4287532666
0.31788799 0.048964199 0.61900002 4288058749
0.32063201 0.049128201 0.62099999 4287664246
0.32131299 0.0489759 0.61900002 4287532660
0.323028 0.048982099 0.61900002 4287532660
0.32527 0.049067602 0.62 4287532405
0.32751799 0.049153298 0.62099999 4287795324
0.32924399 0.049160101 0.62099999 4287598461
0.33097199 0.0491671 0.62099999 4287795840
0.33270201 0.049174301 0.62099999 4287927165
0.33443299 0.0491817 0.62099999 4287729784
0.33562601 0.0491101 0.62 4286874217
0.33790201 0.0491971 0.62099999 4286676578
0.33963999 0.049205199 0.62099999 4287267945
0.34138 0.049213398 0.62099999 4287005027
0.34312099 0.049221899 0.62099999 4287136099
0.34486499 0.049230602 0.62099999 4287267684
0.34717 0.049318802 0.62199998 4287004765
0.347238 0.049090099 0.61900002 4287201124
0.34841901 0.049020201 0.61799997 4287266919
0.350164 0.049029801 0.61799997 4287531353
0.35304901 0.0491983 0.62 4287334227
0.35652101 0.049446501 0.62300003 4287136099
0.35886201 0.049536299 0.62400001 4286609755
0.36005601 0.049467601 0.62300003 4287334751
0.36124599 0.0493991 0.62199998 4287005280
0.36301699 0.049410202 0.62199998 4287530864
0.36420399 0.0493422 0.62099999 4287596650
0.36538801 0.0492744 0.62 4286807133
0.36716199 0.049286298 0.62 4288056939
0.37012801 0.049457502 0.62199998 4287925867
0.37310901 0.0496291 0.62400001 4287530340
0.37490201 0.0496419 0.62400001 4287728227
0.376095 0.0495754 0.62300003 4287464549
0.37789199 0.049588799 0.62300003 4287464550
0.37908199 0.049522799 0.62199998 4287201892
0.381495 0.0496163 0.62300003 4286938466
0.38268599 0.049550898 0.62199998 4286806882
0.38449299 0.049565401 0.62199998 4285558105
0.38630301 0.049580202 0.62199998 4283189563
0.389364 0.049754798 0.62400001 4286612080
0.39118701 0.049770299 0.62400001 4287731329
0.393013 0.049786098 0.62400001 4287928455
0.39421099 0.0497224 0.62300003 4288191112
0.39667699 0.049818698 0.62400001 4288322182
0.39851499 0.049835499 0.62400001 4288124805
0.400998 0.049932498 0.625 4287993219
0.40284601 0.04995 0.625 4288387722
0.40469801 0.049967799 0.625 4288256654
0.405904 0.049906 0.62400001 4288256654
0.40841499 0.050004501 0.625 4288387470
0.41027901 0.050023399 0.625 4288518794
0.41280699 0.050122701 0.62599999 4288518794
0.41402099 0.050062299 0.625 4288256138
0.41523299 0.050002102 0.62400001 4288322959
0.416444 0.0499423 0.62300003 4288454547
0.41899601 0.050043199 0.62400001 4288586133
0.42155901 0.050144501 0.625 4288191887
0.423455 0.050166 0.625 4288126096
0.42603701 0.0502683 0.62599999 4288388752
0.427946 0.050290599 0.62599999 4288519824
0.42986 0.050313398 0.62599999 4288585619
0.43246901 0.050416999 0.62699997 4288519308
0.434396 0.050440598 0.62699997 4288387210
-0.19984201 0.046999499 0.616 4289702810
-0.19786599 0.046925399 0.61500001 4289702810
-0.19653299 0.047003999 0.616 4289768857
-0.194879 0.047006398 0.616 4289702810
-0.193538 0.047084998 0.61699998 4289439638
-0.191881 0.047087502 0.61699998 4289110673
-0.190533 0.047166198 0.61799997 4288518536
-0.189178 0.0472451 0.61900002 4288846987
-0.188122 0.047400299 0.62099999 4289504403
-0.18615399 0.047326501 0.62 4289964954
-0.184191 0.0472528 0.61900002 4289964954
-0.182234 0.0471792 0.61799997 4290030747
-0.180282 0.047105499 0.61699998 4289964954
-0.178335 0.047031902 0.616 4289833882
-0.176967 0.047111001 0.61699998 4289833882
-0.175878 0.047266498 0.61900002 4289768089
-0.17449699 0.047345601 0.62 4289900189
-0.17227399 0.0471958 0.61799997 4289571224
-0.17033701 0.047122199 0.61699998 4289176466
-0.168679 0.047125101 0.61699998 4289570710
-0.167292 0.047204401 0.61799997 4289373846
-0.165631 0.0472073 0.61799997 4289242262
-0.16370501 0.0471339 0.61699998 4289176469
-0.16178399 0.047060501 0.616 4289176726
-0.160128 0.047063399 0.616 4288650128
-0.158472 0.047066402 0.616 4288716175
-0.15783399 0.047375102 0.62 4288189831
-0.156671 0.047530901 0.62199998 4288518796
-0.15474901 0.047457598 0.62099999 4288781968
-0.15233999 0.047231399 0.61799997 4289110933
-0.149946 0.047005098 0.61500001 4289374105
-0.144675 0.045861602 0.60000002 4289900195
-0.139961 0.044870902 0.58700001 4290294953
-0.134845 0.0437271 0.57200003 4290492593
-0.131208 0.0430419 0.56300002 4290361007
-0.12785 0.042433102 0.55500001 4290295214
-0.12408 0.041671202 0.54500002 4290623665
0.098731004 0.038796399 0.50700003 4283060053
0.104244 0.040400799 0.528 4283981155
0.112072 0.042846601 0.56 4285165176
0.119666 0.045139 0.58999997 4285230969
0.123517 0.0459776 0.60100001 4285230969
0.12534399 0.0460512 0.602 4284968051
0.127177 0.0461247 0.60299999 4283060053
0.12922899 0.046274699 0.60500002 4282336069
0.13150699 0.0465011 0.60799998 4282598979
0.134021 0.046804 0.61199999 4282203451
0.13566899 0.0468009 0.61199999 4283453763
0.137317 0.046797901 0.61199999 4285163865
0.13851 0.046641901 0.61000001 4285360983
0.14061201 0.046791799 0.61199999 4285492565
0.142491 0.046865199 0.61299998 4285426772
0.14437599 0.046938501 0.61400002 4285623637
0.146028 0.046935499 0.61400002 4285821016
0.14768 0.046932399 0.61400002 4286018395
0.149332 0.0469294 0.61400002 4285755223
0.15122899 0.0470028 0.61500001 4285952601
0.15288299 0.0469997 0.61500001 4285887062
0.15529101 0.047226001 0.61799997 4285689683
0.15695301 0.047222901 0.61799997 4286347613
0.15835799 0.0471435 0.61699998 4285952855
0.160016 0.047140501 0.61699998 4286412636
0.16167501 0.047137499 0.61699998 4286215257
0.163863 0.0472873 0.61900002 4286083925
0.165259 0.047208 0.61799997 4286347097
0.16692001 0.047205102 0.61799997 4286215511
0.16858 0.0472022 0.61799997 4286215511
0.170241 0.047199301 0.61799997 4286084441
0.171901 0.047196399 0.61799997 4286018394
0.173281 0.0471172 0.61699998 4286215773
0.175505 0.047267102 0.61900002 4286282334
0.17774101 0.047417 0.62099999 4286216287
0.179409 0.047414299 0.62099999 4286150494
0.180785 0.0473352 0.62 4286281566
0.182156 0.047256101 0.61900002 4286347613
0.183819 0.0472534 0.61900002 4286216027
0.185481 0.0472508 0.61900002 4286083673
0.187446 0.047324501 0.62 4286281052
0.18941601 0.047398299 0.62099999 4286544224
0.191699 0.047548398 0.62300003 4286215764
0.19275101 0.0473933 0.62099999 4286216278
0.194419 0.0473908 0.62099999 4286217552
0.19577099 0.047312099 0.62 4286282587
0.197754 0.047386099 0.62099999 4286544232
0.19878 0.047231201 0.61900002 4286083934
0.20011801 0.047152601 0.61799997 4286741603
0.201452 0.047074098 0.61699998 4286281052
0.203767 0.047224499 0.61900002 4286412890
0.206094 0.047375001 0.62099999 4286479199
0.207762 0.047373001 0.62099999 4286347613
0.209093 0.047294699 0.62 4286544990
0.210418 0.047216501 0.61900002 4286412890
0.212424 0.047290899 0.62 4286478683
0.21409 0.047288999 0.62 4286347097
0.215756 0.0472873 0.62 4286478168
0.217071 0.0472093 0.61900002 4286675547
0.21873499 0.047207698 0.61900002 4286478683
0.220755 0.047282401 0.62 4286412890
0.223139 0.047433399 0.62199998 4286281566
0.225173 0.047508199 0.62300003 4286544738
0.22612 0.0473544 0.62099999 4286676325
0.22668999 0.0471243 0.61799997 4286609764
0.227983 0.0470469 0.61699998 4286674788
0.230387 0.047198299 0.61900002 4286543457
0.232803 0.047349699 0.62099999 4286675548
0.234474 0.0473487 0.62099999 4286741341
0.235765 0.047271602 0.62 4286346835
0.23705199 0.0471945 0.61900002 4286478421
0.238719 0.047193799 0.61900002 4286806872
0.240775 0.0472694 0.62 4286543961
0.24244501 0.047268901 0.62 4286609755
0.24372201 0.047192201 0.61900002 4286675296
0.244995 0.047115602 0.61799997 4286807141
0.24666101 0.0471153 0.61799997 4286872934
0.248328 0.047115099 0.61799997 4286872934
0.25080499 0.0472675 0.62 4286675557
0.25288501 0.047343802 0.62099999 4286478176
0.25456199 0.047343899 0.62099999 4286281313
0.256652 0.047420401 0.62199998 4286543969
0.25833201 0.047420699 0.62199998 4286807404
0.26043099 0.047497399 0.62300003 4286347360
0.26127401 0.0473454 0.62099999 4286544990
0.26253101 0.047269799 0.62 4286741855
0.26378199 0.047194399 0.61900002 4287005027
0.26545799 0.0471952 0.61900002 4287201891
0.26713401 0.047196198 0.61900002 4286872927
0.269245 0.047273599 0.62 4286675548
0.27180001 0.0474273 0.62199998 4286807134
0.27348599 0.047428701 0.62199998 4286412890
0.27473199 0.047353901 0.62099999 4286873187
0.27597201 0.047279201 0.62 4286807394
0.27765599 0.0472809 0.62 4287004775
0.27844 0.047130302 0.61799997 4286938980
0.28011999 0.047132201 0.61799997 4286873441
0.28180099 0.047134399 0.61799997 4286807648
0.28394201 0.047212899 0.61900002 4286939748
0.285166 0.047139 0.61799997 4286742369
0.28777799 0.047293998 0.62 4287071848
0.289469 0.047296699 0.62 4286676838
0.29115999 0.047299501 0.62 4287268975
0.29238099 0.047226202 0.61900002 4287269486
0.294072 0.047229301 0.61900002 4287664242
0.295764 0.047232501 0.61900002 4287730037
0.29745799 0.047235899 0.61900002 4287664246
0.29866901 0.0471632 0.61799997 4287663738
0.30036199 0.047166899 0.61799997 4287729027
0.30254501 0.047247 0.61900002 4287466361
0.30424401 0.047251102 0.61900002 4287335277
0.30594301 0.047255199 0.61900002 4287269488
0.30764499 0.047259599 0.61900002 4287663993
0.30884701 0.047187701 0.61799997 4287401335
0.31054899 0.047192398 0.61799997 4287532919
0.31275699 0.047273599 0.61900002 4287401335
0.31446299 0.047278699 0.61900002 4287598459
0.316172 0.047283899 0.61900002 4287598459
0.31685501 0.0471365 0.61699998 4287795579
0.319594 0.047294799 0.61900002 4287400819
0.320788 0.047224201 0.61799997 4287335026
0.321978 0.0471537 0.61699998 4287532405
0.32421401 0.0472362 0.61799997 4287466612
0.32645699 0.047318898 0.61900002 4287598200
0.327647 0.047249001 0.61799997 4287795579
0.329366 0.047255699 0.61799997 4287992958
0.33162299 0.047339 0.61900002 4287598198
0.33388701 0.047422599 0.62 4287663991
0.33561799 0.047429901 0.62 4287137389
0.33626199 0.047284398 0.61799997 4286216541
0.33853799 0.047368702 0.61900002 4286544476
0.34027201 0.047376599 0.61900002 4287201892
0.34255999 0.047461301 0.62 4287004513
0.34485701 0.0475462 0.62099999 4286938720
0.34660301 0.047554798 0.62099999 4287399785
0.347229 0.047410499 0.61900002 4286676314
0.34841001 0.0473429 0.61799997 4287465063
0.34958801 0.047275499 0.61699998 4287070306
0.35304001 0.047514901 0.62 4287201892
0.354794 0.047524601 0.62 4287069799
0.35712701 0.0476113 0.62099999 4287266927
0.358311 0.0475448 0.62 4287399785
0.36065501 0.047632001 0.62099999 4287465578
0.36242199 0.0476427 0.62099999 4287399784
0.36419299 0.047653701 0.62099999 4286807647
0.36596599 0.047665 0.62099999 4286347096
0.367742 0.0476765 0.62099999 4287267938
0.36952099 0.047688201 0.62099999 4287860328
0.37130299 0.0477002 0.62099999 4287596650
0.37308699 0.047712501 0.62099999 4287136604
0.37487501 0.0477251 0.62099999 4287661928
0.37666601 0.0477379 0.62099999 4287201892
0.37845901 0.047750998 0.62099999 4287267685
0.37964401 0.047687501 0.62 4287267685
0.381441 0.047701102 0.62 4287399017
0.382624 0.0476381 0.61900002 4285821276
0.38504601 0.047729298 0.62 4283519042
0.38747701 0.0478209 0.62099999 4283452995
0.38929099 0.0478357 0.62099999 4287599743
0.391738 0.047927901 0.62199998 4287796868
0.39292899 0.0478663 0.62099999 4287730045
0.39539 0.047959201 0.62199998 4288256389
0.397221 0.047975399 0.62199998 4287861633
0.39969799 0.048069 0.62300003 4288322184
0.400895 0.048008598 0.62199998 4288453515
0.402738 0.048025701 0.62199998 4288388240
0.404585 0.048043098 0.62199998 4288388238
0.40774301 0.0482154 0.62400001 4288190345
0.41025999 0.048310898 0.625 4288256136
0.41212901 0.048329499 0.625 4288256136
0.414002 0.048348401 0.625 4287993480
0.41454801 0.048212901 0.62300003 4288059787
0.41642401 0.048232399 0.62300003 4287665545
0.418304 0.0482524 0.62300003 4288191375
0.42018899 0.048272699 0.62300003 4287993996
0.422079 0.048293401 0.62300003 4287927948
0.42329299 0.048236899 0.62199998 4287730055
0.42587301 0.048335899 0.62300003 4287796617
0.42914999 0.048512999 0.625 4287664262
0.43175599 0.048613001 0.62599999 4287927689
0.43368 0.048635799 0.62599999 4287795585
-0.19819 0.0453384 0.616 4288847755
-0.19653501 0.045340601 0.616 4289570964
-0.194565 0.045269199 0.61500001 4289637271
-0.192913 0.045271501 0.61500001 4289965982
-0.190951 0.045200299 0.61400002 4289768857
-0.18961 0.045276299 0.61500001 4289175952
-0.188264 0.045352299 0.616 4287860093
-0.187216 0.045502 0.61799997 4288188543
-0.185856 0.0455782 0.61900002 4289438610
-0.18389601 0.045507099 0.61799997 4289899161
-0.181647 0.045362402 0.616 4290162333
-0.1797 0.045291301 0.61500001 4290096540
-0.178048 0.045294002 0.61500001 4289965468
-0.176396 0.045296598 0.61500001 4290031515
-0.17502899 0.045373 0.616 4289965722
-0.173374 0.045375701 0.616 4289899929
-0.171719 0.045378398 0.616 4289899928
-0.169512 0.045233801 0.61400002 4289965721
-0.167862 0.045236599 0.61400002 4288846987
-0.166483 0.045313101 0.61500001 4288189057
-0.165098 0.0453896 0.616 4288649609
-0.163177 0.045318801 0.61500001 4290097055
-0.16126201 0.045247901 0.61400002 4289768604
-0.15935101 0.045177098 0.61299998 4289834397
-0.157961 0.045253702 0.61400002 4289965983
-0.157074 0.045477699 0.61699998 4289768604
-0.155918 0.045628101 0.61900002 4289242260
-0.154503 0.0457047 0.62 4289242262
-0.152343 0.0455603 0.61799997 4288979090
-0.150437 0.045489501 0.61699998 4289308312
-0.147089 0.044976301 0.61000001 4289308058
-0.141156 0.043652002 0.59200001 4288650129
-0.136262 0.042622499 0.57800001 4288781461
-0.13260999 0.041961599 0.56900001 4288452496
-0.129235 0.0413743 0.56099999 4288715922
-0.12590399 0.040787 0.55299997 4289176219
-0.113616 0.037249099 0.505 4289505691
0.0962139 0.036983401 0.50099999 4284507500
0.099122897 0.037571501 0.509 4284375914
0.105036 0.039266799 0.53200001 4284704625
0.112875 0.041625999 0.56400001 4285165176
0.119871 0.0436159 0.59100002 4284968055
0.123314 0.044277299 0.60000002 4285165176
0.125139 0.044348199 0.60100001 4284704625
0.12675799 0.044345301 0.60100001 4283191639
0.128805 0.044489998 0.60299999 4282468170
0.130862 0.044634599 0.60500002 4282138428
0.133586 0.045000602 0.61000001 4283256392
0.13522901 0.044997599 0.61000001 4284045386
0.136871 0.044994701 0.61000001 4284768848
0.13805901 0.044844199 0.60799998 4285032013
0.140155 0.0449888 0.61000001 4285097546
0.142029 0.045059599 0.611 4285163339
0.14390901 0.045130402 0.61199999 4285030985
0.145555 0.045127399 0.61199999 4285228364
0.146961 0.045050699 0.611 4285293904
0.148848 0.045121498 0.61199999 4285557076
0.15049499 0.0451186 0.61199999 4284965707
0.152389 0.045189399 0.61299998 4285492051
0.15428901 0.045260198 0.61400002 4285031499
0.15594 0.0452573 0.61400002 4285623120
0.157847 0.045328099 0.61500001 4285557327
0.159501 0.045325201 0.61500001 4285623122
0.16089199 0.045248602 0.61400002 4286017364
0.162542 0.0452457 0.61400002 4286017618
0.16419201 0.045242898 0.61400002 4286149204
0.16611201 0.045313701 0.61500001 4285622860
0.168038 0.045384601 0.616 4285951824
0.16941699 0.045308098 0.61500001 4286149204
0.170792 0.0452317 0.61400002 4285820499
0.17244101 0.045228999 0.61400002 4286084441
0.174658 0.0453736 0.616 4286216027
0.176312 0.045370899 0.616 4285821269
0.17825601 0.045441899 0.61699998 4286150232
0.179913 0.045439199 0.61699998 4285952853
0.18156999 0.045436598 0.61699998 4286018646
0.183524 0.045507699 0.61799997 4286281818
0.185184 0.045505099 0.61799997 4286281566
0.18684401 0.045502599 0.61799997 4286149980
0.188503 0.0455001 0.61799997 4286347349
0.190163 0.045497701 0.61799997 4286347603
0.191512 0.045421701 0.61699998 4286150477
0.192543 0.045272101 0.61500001 4286216278
0.19451 0.045343399 0.616 4286412899
0.196483 0.045414701 0.61699998 4286215773
0.19814 0.045412499 0.61699998 4286281567
0.199797 0.045410302 0.61699998 4286478946
0.201454 0.0454082 0.61699998 4286478946
0.20311099 0.045406099 0.61699998 4286413153
0.2051 0.045477599 0.61799997 4286149727
0.207095 0.045549199 0.61900002 4285952862
0.208757 0.045547299 0.61900002 4286018909
0.21008 0.045471799 0.61799997 4286347613
0.211741 0.045469999 0.61799997 4286413406
0.213401 0.0454682 0.61799997 4286676062
0.21506201 0.045466501 0.61799997 4286478683
0.216021 0.045317698 0.616 4286478683
0.217677 0.045316201 0.616 4286281050
0.219688 0.045388199 0.61699998 4286347359
0.222423 0.045607399 0.62 4286413666
0.224452 0.045679599 0.62099999 4286347874
0.22502901 0.045457602 0.61799997 4286215520
0.225224 0.0451621 0.61400002 4286412385
0.22687501 0.045161001 0.61400002 4286412383
0.228899 0.045233399 0.61500001 4286675304
0.231304 0.045379501 0.61699998 4286347097
0.23258699 0.045304999 0.616 4286610269
0.234625 0.045377702 0.61699998 4286478936
0.23590399 0.045303401 0.616 4286347096
0.238334 0.0454497 0.61799997 4286281303
0.239999 0.0454491 0.61799997 4286478683
0.241273 0.045375001 0.61699998 4286083671
0.242542 0.045301002 0.616 4286149466
0.243806 0.045227099 0.61500001 4286610015
0.24586301 0.045300402 0.616 4286479199
0.247927 0.045373701 0.61699998 4286807910
0.24959099 0.0453736 0.61699998 4286610531
0.25125599 0.0453736 0.61699998 4286346340
0.25251201 0.045300201 0.616 4286609511
0.25500101 0.045447499 0.61799997 4286609762
0.25708601 0.0455213 0.61900002 4286609764
0.25875899 0.045521699 0.61900002 4286806890
0.25917 0.045301601 0.616 4286938980
0.26126 0.045375701 0.61699998 4286807648
0.26292899 0.045376498 0.61699998 4286807647
0.265028 0.045450799 0.61799997 4286741340
0.265838 0.045304701 0.616 4286938720
0.267941 0.0453793 0.61699998 4286675548
0.270051 0.045453999 0.61799997 4286544222
0.27216601 0.045528799 0.61900002 4286281304
0.27340299 0.045456599 0.61799997 4286478429
0.27463499 0.045384601 0.61699998 4286610015
0.27631101 0.045386199 0.61699998 4286609501
0.277987 0.045387998 0.61699998 4286741341
0.28011799 0.045463402 0.61799997 4286872927
0.28088701 0.045318302 0.616 4286676568
0.282563 0.045320399 0.616 4286610783
0.283779 0.045249101 0.61500001 4286544990
0.286383 0.045398701 0.61699998 4286874471
0.288066 0.045401201 0.61699998 4286611045
0.290218 0.045477498 0.61799997 4287006057
0.29143301 0.045406699 0.61699998 4287269227
0.29311901 0.045409702 0.61699998 4287400813
0.29432699 0.045339201 0.616 4287203693
0.296013 0.045342401 0.616 4287269488
0.29818201 0.045419399 0.61699998 4287729026
0.29938599 0.0453493 0.616 4287662981
0.30156401 0.0454267 0.61699998 4287663487
0.30374801 0.045504101 0.61799997 4287334775
0.30544499 0.045508102 0.61799997 4287663487
0.30664599 0.045438699 0.61699998 4287597945
0.30734399 0.0452957 0.61500001 4287335287
0.30903599 0.0453001 0.61500001 4287795579
0.31174099 0.045452099 0.61699998 4287138163
0.31344199 0.045456901 0.61699998 4287401080
0.31565601 0.045535602 0.61799997 4287730045
0.31633601 0.0453934 0.616 4288058243
0.31907201 0.0455461 0.61799997 4287203187
0.31974399 0.0454042 0.616 4287137389
0.32145101 0.045409899 0.616 4287203183
0.32315901 0.045415699 0.616 4287532405
0.325923 0.0455692 0.61799997 4287137647
0.32710999 0.045501702 0.61699998 4287071854
0.32829401 0.0454344 0.616 4287795577
0.33054501 0.045514699 0.61699998 4287466612
0.33280301 0.045595299 0.61799997 4287664246
0.334528 0.045602299 0.61799997 4287269488
0.33516699 0.045461901 0.616 4286610783
0.337437 0.045543101 0.61699998 4287005026
0.339165 0.0455507 0.61699998 4287070306
0.341447 0.0456324 0.61799997 4286741341
0.343182 0.045640402 0.61799997 4286938720
0.345478 0.045722499 0.61900002 4286807648
0.346659 0.045657098 0.61799997 4286938980
0.347837 0.045591898 0.61699998 4287005027
0.34901199 0.045526899 0.616 4286806880
0.351322 0.045609899 0.61699998 4286872675
0.352496 0.045545299 0.616 4286609501
0.35424101 0.045554802 0.616 4286872673
0.35656801 0.045638502 0.61699998 4287399271
0.359483 0.045796499 0.61900002 4287202406
0.36241201 0.045954801 0.62099999 4287333992
0.36359501 0.0458914 0.62 4287465578
0.36536601 0.0459022 0.62 4286741854
0.367138 0.045913201 0.62 4286609754
0.36891401 0.0459245 0.62 4287465064
0.37009501 0.045862 0.61900002 4287531371
0.37187299 0.045873702 0.61900002 4287990395
0.374259 0.045959901 0.62 4287399533
0.37544 0.045898098 0.61900002 4287071325
0.37722799 0.045910701 0.61900002 4287268452
0.37901899 0.045923501 0.61900002 4287399785
0.380813 0.0459367 0.61900002 4287004773
0.38199201 0.045875799 0.61799997 4286611035
0.38378999 0.045889501 0.61799997 4286085214
0.386215 0.045977701 0.61900002 4283387446
0.38802299 0.045991998 0.61900002 4286151527
0.39046401 0.046080802 0.62 4287730559
0.392281 0.046095699 0.62 4287533435
0.39473799 0.0461853 0.62099999 4287730045
0.397205 0.046275198 0.62199998 4287664254
0.39904001 0.046291001 0.62199998 4287664254
0.399589 0.046158198 0.62 4287664769
0.40142599 0.046174701 0.62 4287796101
0.40391701 0.0462659 0.62099999 4287927941
0.406418 0.046357501 0.62199998 4287730308
0.40827301 0.046374999 0.62199998 4287598976
0.41013199 0.046392702 0.62199998 4287730562
0.41199601 0.0464109 0.62199998 4287862408
0.414529 0.046503998 0.62300003 4287994508
0.41573599 0.046448201 0.62199998 4288060303
0.417613 0.046467301 0.62199998 4288059789
0.41949499 0.046486899 0.62199998 4288191375
0.42205799 0.046581499 0.62300003 4288388499
0.42259201 0.046452198 0.62099999 4288387985
0.425852 0.0466225 0.62300003 4288190606
0.42775601 0.046643499 0.62300003 4287993227
0.429665 0.046665002 0.62300003 4287993482
0.430886 0.046611801 0.62199998 4288124299
-0.199522 0.043602001 0.61500001 4289965722
-0.19787 0.043604098 0.61500001 4289307791
-0.196538 0.043677099 0.616 4288913034
-0.194251 0.043537501 0.61400002 4288057725
-0.19291499 0.043610599 0.61500001 4289307278
-0.190642 0.043471102 0.61299998 4289702036
-0.188996 0.0434734 0.61299998 4289767575
-0.18735 0.043475699 0.61299998 4289964954
-0.18630899 0.043619901 0.61500001 4288385922
-0.185258 0.0437642 0.61699998 4288320129
-0.18360101 0.0437667 0.61699998 4288846473
-0.181354 0.043627299 0.61500001 4289701782
-0.17941099 0.043558899 0.61400002 4289964954
-0.177761 0.043561399 0.61400002 4290162847
-0.176112 0.043563999 0.61400002 4289834136
-0.17474701 0.043637499 0.61500001 4289768343
-0.173095 0.043640099 0.61500001 4289571478
-0.171443 0.0436428 0.61500001 4289768856
-0.169238 0.043503501 0.61299998 4289570963
-0.167318 0.043435201 0.61199999 4289702296
-0.165673 0.043437898 0.61199999 4288583815
-0.164297 0.043511599 0.61299998 4287727992
-0.16264901 0.043514401 0.61299998 4289372817
-0.161264 0.043588098 0.61400002 4289899675
-0.159354 0.043519899 0.61299998 4290097308
-0.15770601 0.043522701 0.61299998 4289833882
-0.15656701 0.043667499 0.61500001 4289899675
-0.155166 0.043741301 0.616 4290031261
-0.154008 0.0438862 0.61799997 4290031261
-0.152345 0.043889102 0.61799997 4290097054
-0.150683 0.043891899 0.61799997 4289702296
-0.14878 0.043823801 0.61699998 4289307024
-0.143543 0.042761199 0.602 4289240978
-0.138151 0.0416274 0.58600003 4289438873
-0.13424399 0.040919699 0.57599998 4289439387
-0.13039 0.040212002 0.56599998 4288979088
-0.127956 0.0399304 0.56199998 4289044881
-0.116093 0.036664501 0.51599997 4289110160
0.095054299 0.035700299 0.50199997 4285033594
0.096408203 0.035698101 0.50199997 4284046953
0.099709503 0.036406901 0.51200002 4283980902
0.106026 0.038182098 0.537 4284704883
0.114679 0.040739201 0.57300001 4284836731
0.120686 0.042300601 0.59500003 4284836731
0.123317 0.0426533 0.60000002 4285033594
0.12514199 0.042721599 0.60100001 4284046953
0.126972 0.042789899 0.602 4283388765
0.12880801 0.042858198 0.60299999 4282599756
0.131081 0.043068599 0.60600001 4282401600
0.13337 0.043278899 0.60900003 4283190599
0.135231 0.043347199 0.61000001 4284308558
0.13687401 0.0433443 0.61000001 4284110918
0.13851599 0.043341499 0.61000001 4285031499
0.140158 0.043338601 0.61000001 4284768064
0.142032 0.043406799 0.611 4284504639
0.14344101 0.043332901 0.61000001 4285294157
0.145558 0.0434721 0.61199999 4285162571
0.147205 0.043469299 0.61199999 4285162318
0.14885101 0.0434664 0.61199999 4285030733
0.150006 0.043321501 0.61000001 4285294419
0.151895 0.0433897 0.611 4284768074
0.153538 0.043386899 0.611 4285293902
0.155689 0.043526102 0.61299998 4285228109
0.157593 0.043594301 0.61400002 4285162571
0.159244 0.043591499 0.61400002 4285228364
0.160895 0.043588798 0.61400002 4285293643
0.16227999 0.043515 0.61299998 4285622860
0.164195 0.043583199 0.61400002 4285293895
0.16584501 0.043580499 0.61400002 4285425481
0.16804001 0.043719701 0.616 4285359687
0.169145 0.043575101 0.61400002 4285556813
0.170516 0.0435015 0.61299998 4285491536
0.17216299 0.043498799 0.61299998 4285492304
0.17437699 0.043638099 0.61500001 4285426257
0.17631499 0.043706398 0.616 4285360718
0.17797001 0.043703899 0.616 4285360716
0.17991599 0.043772299 0.61699998 4285558087
0.181573 0.043769699 0.61699998 4285754960
0.18323 0.043767199 0.61699998 4285623888
0.184587 0.0436938 0.616 4285755474
0.186544 0.0437623 0.61699998 4286018648
0.188201 0.043759901 0.61699998 4285886799
0.189858 0.043757599 0.61699998 4285821006
0.19089399 0.0436134 0.61500001 4285886799
0.192545 0.043611102 0.61500001 4285820753
0.19451199 0.0436798 0.616 4286215257
0.19616701 0.043677598 0.616 4286084187
0.19814201 0.0437463 0.61699998 4285821015
0.199799 0.043744199 0.61699998 4286084188
0.201456 0.043742198 0.61699998 4286215774
0.202784 0.043669201 0.616 4286150495
0.204438 0.043667302 0.616 4285821276
0.20642699 0.043736201 0.61699998 4285952862
0.208085 0.043734301 0.61699998 4285952609
0.20940199 0.043661602 0.616 4286150234
0.21105701 0.043659899 0.616 4286413406
0.213403 0.0437999 0.61799997 4286281818
0.214715 0.043727402 0.61699998 4286412890
0.216373 0.0437258 0.61699998 4286412636
0.218031 0.043724298 0.61699998 4286412636
0.220046 0.0437936 0.61799997 4286281820
0.222066 0.043863099 0.61900002 4286215773
0.22373 0.043861698 0.61900002 4286215774
0.22430199 0.0436479 0.616 4286610532
0.225225 0.043504901 0.61400002 4286478178
0.226877 0.043503799 0.61400002 4286215004
0.2289 0.043573599 0.61500001 4286346853
0.23093 0.0436434 0.616 4286479450
0.23221 0.043571699 0.61500001 4286413910
0.234246 0.043641701 0.616 4286676831
0.236287 0.0437117 0.61699998 4286742369
0.238335 0.043781899 0.61799997 4286347611
0.239999 0.043781299 0.61799997 4286742369
0.24088199 0.043639001 0.616 4286544222
0.242936 0.043709401 0.61699998 4286216027
0.243806 0.0435674 0.61500001 4286676576
0.24586301 0.043637902 0.616 4286281820
0.24752501 0.0436377 0.616 4286347613
0.24959099 0.0437085 0.61699998 4286018898
0.25003499 0.043495901 0.61400002 4286413404
0.251692 0.043496002 0.61400002 4286216280
0.25334999 0.043496199 0.61400002 4286544476
0.256255 0.043708999 0.61699998 4285952339
0.25750399 0.043638501 0.616 4285886545
0.25832799 0.043497302 0.61400002 4286677072
0.26041201 0.043568701 0.61500001 4286610268
0.26250201 0.0436402 0.616 4286741855
0.26416901 0.043641001 0.616 4286544476
0.26540601 0.043570999 0.61500001 4286807134
0.267506 0.0436428 0.616 4286477915
0.27004901 0.043785602 0.61799997 4286806882
0.271725 0.043786801 0.61799997 4286741603
0.27295899 0.043717299 0.61699998 4286675555
0.273743 0.043577 0.61500001 4286609762
0.275861 0.043649498 0.616 4286741087
0.27753499 0.0436511 0.616 4286872927
0.27920899 0.0436529 0.616 4287201892
0.28042901 0.043584 0.61500001 4287004773
0.28164399 0.043515101 0.61400002 4286412890
0.28285399 0.043446399 0.61299998 4286742369
0.28545299 0.043590501 0.61500001 4286676061
0.28759599 0.0436638 0.616 4286938980
0.28974599 0.043737199 0.61699998 4286873955
0.29048601 0.043598101 0.61500001 4287202920
0.29216599 0.043600898 0.61500001 4287203434
0.293369 0.043533001 0.61400002 4287335022
0.29552901 0.043607 0.61500001 4287729784
0.29769501 0.0436811 0.616 4287269235
0.29938301 0.043684501 0.616 4287598461
0.30107099 0.0436881 0.616 4287335034
0.303253 0.043762699 0.61699998 4287269496
0.30445299 0.043695599 0.616 4287335289
0.305648 0.043628599 0.61500001 4287335289
0.30684 0.043561801 0.61400002 4287466875
0.30852899 0.0435661 0.61400002 4287466359
0.31022099 0.0435705 0.61400002 4287466614
0.31242201 0.043646101 0.61500001 4287532407
0.31411901 0.043650798 0.61500001 4287598200
0.315817 0.043655802 0.61500001 4288124031
0.317518 0.043660801 0.61500001 4287203183
0.31921899 0.043666098 0.61500001 4287465840
0.32040101 0.0436005 0.61400002 4287006057
0.32210401 0.043606099 0.61400002 4287795573
0.32433501 0.043682899 0.61500001 4287466608
0.32604399 0.043688901 0.61500001 4287335022
0.32722199 0.043623999 0.61400002 4287466612
0.329467 0.043701399 0.61500001 4287663991
0.33118099 0.0437079 0.61500001 4287729784
0.33343899 0.043785699 0.616 4287269233
0.335159 0.043792602 0.616 4287071848
0.33742899 0.043870799 0.61699998 4286413659
0.33915699 0.043878101 0.61699998 4286939233
0.34033501 0.043814499 0.616 4286610522
0.342619 0.0438933 0.61699998 4286741854
0.343795 0.04383 0.616 4286807900
0.34496799 0.043767001 0.61500001 4286676062
0.346701 0.043775301 0.61500001 4287004269
0.34786999 0.043712601 0.61400002 4286609762
0.35017401 0.043792501 0.61500001 4286741089
0.35077 0.043659002 0.61299998 4287069538
0.353082 0.0437393 0.61400002 4287004513
0.35598001 0.043891199 0.616 4287267685
0.35889199 0.044043299 0.61799997 4287399271
0.36123401 0.044124499 0.61900002 4287465064
0.36241201 0.0440633 0.61799997 4287596650
0.36417601 0.044073701 0.61799997 4287399785
0.36594301 0.044084199 0.61799997 4286412376
0.367118 0.0440237 0.61699998 4287136613
0.36888799 0.044034701 0.61699998 4287662703
0.37066001 0.044046 0.61699998 4287596414
0.37303901 0.044128999 0.61799997 4287268713
0.37421501 0.044069398 0.61699998 4287072356
0.37599599 0.044081401 0.61699998 4286874210
0.377781 0.044093698 0.61699998 4287005541
0.37956899 0.044106301 0.61699998 4287005026
0.38136101 0.044119202 0.61699998 4286808162
0.382534 0.0440608 0.616 4286347873
0.38432899 0.0440741 0.616 4283519032
0.38675499 0.044159301 0.61699998 4282730293
0.389819 0.0443165 0.61900002 4287796352
0.39226699 0.044402301 0.62 4288256644
0.39345199 0.044345301 0.61900002 4288255875
0.39463499 0.044288501 0.61799997 4288453254
0.39709899 0.0443753 0.61900002 4288190598
0.39828399 0.044319101 0.61799997 4288256652
0.40076199 0.0444065 0.61900002 4287993480
0.40259999 0.0444226 0.61900002 4288125320
0.40574801 0.044582602 0.62099999 4288125320
0.40759999 0.044599298 0.62099999 4288256906
0.40879601 0.044544499 0.62 4288256906
0.410653 0.0445619 0.62 4288191627
0.41251501 0.044579599 0.62 4288454799
0.41504899 0.044669598 0.62099999 4288257420
0.41692299 0.044688001 0.62099999 4288125834
0.41880101 0.044706799 0.62099999 4288125580
0.42068401 0.044725899 0.62099999 4288190859
0.421891 0.044673301 0.62 4288256652
0.42378101 0.044693001 0.62 4288256136
0.42636201 0.044785298 0.62099999 4287927171
0.42757499 0.044733699 0.62 4288256136
0.42878601 0.044682398 0.61900002 4288387208
-0.198875 0.041804899 0.61299998 4289637271
-0.19755 0.041875102 0.61400002 4290031515
-0.195902 0.041877199 0.61400002 4289899929
