# .PCD v0.7 - Point Cloud Data file format
VERSION 0.7
FIELDS x y z rgb
SIZE 4 4 4 4
TYPE F F F U
COUNT 1 1 1 1
WIDTH 1080
HEIGHT 1
VIEWPOINT 0 0 0 1 0 0 0
POINTS 1080
DATA ascii
-0.0409167 0.036250699 0.60000002 4288321417
-0.038961001 0.035949599 0.59500003 4288584335
-0.0376601 0.0362527 0.60000002 4288255631
-0.037112501 0.0373413 0.61799997 4288255631
-0.035033699 0.0369193 0.611 4288189325
-0.031954899 0.035349101 0.58499998 4287926153
-0.029069001 0.0338393 0.56 4288124821
-0.0269091 0.0330544 0.54699999 4287665816
-0.0251916 0.032752998 0.542 4286942094
-0.023676099 0.0326932 0.54100001 4285231475
-0.0222071 0.0326938 0.54100001 4284704615
-0.0206996 0.032633901 0.54000002 4283782483
-0.0192331 0.0326345 0.54000002 4283650122
-0.017733701 0.032574501 0.53899997 4283715654
-0.0162999 0.032635398 0.54000002 4283255103
-0.0148058 0.032575399 0.53899997 4283386942
-0.0132923 0.0324549 0.537 4282926391
-0.0118116 0.0323948 0.53600001 4282860598
-0.010375 0.0324555 0.537 4282992182
-0.0089328801 0.0325162 0.53799999 4282663217
-0.0074714199 0.032516502 0.53799999 4282794803
-0.0060099298 0.032516599 0.53799999 4282663472
-0.00453152 0.032395899 0.53600001 4282794546
-0.0030754299 0.032396 0.53600001 4282531374
-0.00161932 0.0323961 0.53600001 4282728752
-0.00016352101 0.032456499 0.537 4282728752
0.0012928901 0.0323961 0.53600001 4282531631
0.00274899 0.032396 0.53600001 4282860596
0.0041894 0.032274999 0.53399998 4282531633
0.0056506 0.0323353 0.53500003 4282794548
0.00710394 0.032335199 0.53500003 4282531376
0.00858925 0.032455798 0.537 4282728755
0.010048 0.032455601 0.537 4282794032
0.0114852 0.032394901 0.53600001 4282794031
0.012917 0.0323341 0.53500003 4282530859
0.0143702 0.032333702 0.53500003 4282728492
0.0157937 0.032272901 0.53399998 4282662698
0.0172763 0.032332901 0.53500003 4282663213
0.0186243 0.032151099 0.53200001 4282794798
0.0200691 0.0321506 0.53200001 4282531112
0.021513799 0.03215 0.53200001 4282399787
0.0229584 0.032149401 0.53200001 4282531373
0.0244029 0.032148801 0.53200001 4282662960
0.025750199 0.0320273 0.52999997 4282531631
0.0272405 0.032086998 0.53100002 4282662960
0.028573999 0.031965401 0.52899998 4282465580
0.029953299 0.031904198 0.528 4282662959
0.031327099 0.031842999 0.52700001 4282465581
0.032757401 0.031842198 0.52700001 4282662959
0.034252599 0.031901699 0.528 4282662959
0.035617899 0.031840399 0.52700001 4282334252
0.0369073 0.031718601 0.52499998 4282597166
0.038331799 0.031717598 0.52499998 4282530859
0.039831899 0.031776998 0.52600002 4282399273
0.041415699 0.0318968 0.528 4282399273
0.042766701 0.031835299 0.52700001 4282530859
0.044112202 0.031773798 0.52600002 4282334248
0.045452099 0.0317122 0.52499998 4282531627
0.047054399 0.031831902 0.52700001 4282466091
0.048483301 0.031830698 0.52700001 4282531627
0.049911998 0.031829402 0.52700001 4282400041
0.051145799 0.031707399 0.52499998 4282465580
0.0522683 0.0315249 0.52200001 4282728752
0.053785902 0.031583901 0.523 4282268459
0.055203099 0.031582601 0.523 4282663219
0.056945 0.031762399 0.52600002 4282531633
0.058258999 0.0317006 0.52499998 4282663219
0.0595675 0.031638701 0.52399999 4282465840
0.0606375 0.031456102 0.52100003 4282399790
0.062048402 0.0314546 0.52100003 4282399788
0.063459203 0.031453099 0.52100003 4282333995
0.064869702 0.031451602 0.52100003 4282268202
0.066407301 0.031510402 0.52200001 4282531373
0.067820102 0.0315088 0.52200001 4282465580
0.069365397 0.031567499 0.523 4282531373
0.070780598 0.031565901 0.523 4282794545
0.071919501 0.031443499 0.52100003 4282465834
0.0733288 0.0314418 0.52100003 4282597420
0.074594498 0.0313797 0.51999998 4282334248
0.076292999 0.0314987 0.52200001 4282531886
0.077555597 0.0314366 0.52100003 4282268714
0.078964099 0.0314348 0.52100003 4282465838
0.080372401 0.031433001 0.52100003 4282531379
0.081780501 0.031431202 0.52100003 4282531122
0.0831884 0.031429298 0.52100003 4282070825
0.084271297 0.0313068 0.51899999 4282333995
0.085673302 0.031305 0.51899999 4282531373
0.087075099 0.0313031 0.51899999 4282399787
0.088647202 0.031361502 0.51999998 4282531373
0.090051301 0.031359602 0.51999998 4282333994
0.091279298 0.0312973 0.51899999 4282136615
0.0925017 0.031235101 0.51800001 4282531627
0.093718402 0.031172801 0.51700002 4282334248
0.095113598 0.031170901 0.51700002 4282333734
0.096508503 0.0311689 0.51700002 4282531112
0.098281898 0.031287499 0.51899999 4282333734
0.099681802 0.031285401 0.51899999 4282530860
0.101081 0.031283401 0.51899999 4282464813
0.102086 0.0311609 0.51700002 4282398767
0.10328 0.0310986 0.51599997 4282465329
0.104468 0.031036301 0.51499999 4282464813
0.106267 0.0311547 0.51700002 4282465066
0.10766 0.031152699 0.51700002 4282465320
0.109264 0.031210899 0.51800001 4282202148
0.11066 0.0312088 0.51800001 4282136355
0.111839 0.0311465 0.51700002 4282268201
0.113231 0.031144399 0.51700002 4282399787
0.114401 0.031082099 0.51599997 4282399787
0.116015 0.0311403 0.51700002 4282399787
0.11718 0.031078 0.51599997 4282333994
0.118339 0.0310157 0.51499999 4282400041
0.119493 0.0309534 0.514 4282465834
0.120876 0.030951301 0.514 4282465580
0.122259 0.0309493 0.514 4282399787
0.123401 0.030887 0.51300001 4282267687
0.124781 0.030884899 0.51300001 4282333995
0.126407 0.030943099 0.514 4282268202
0.12778901 0.030941 0.514 4282531886
0.12942301 0.0309992 0.51499999 4282137128
0.131062 0.031057401 0.51599997 4282400300
0.132192 0.030995101 0.51499999 4282268712
0.133836 0.031053299 0.51599997 4282400553
0.135747 0.031171599 0.51800001 4282334760
0.138993 0.031590801 0.52499998 4282334760
0.143345 0.032250699 0.53600001 4282334760
0.148837 0.033151101 0.551 4282334760
0.155229 0.034231901 0.56900001 4282334760
0.160614 0.035071999 0.583 4282334760
0.165241 0.035731498 0.59399998 4282268712
0.16739801 0.035849601 0.59600002 4282005542
0.16956601 0.0359677 0.59799999 4281939749
0.171745 0.036085799 0.60000002 4282335021
0.173934 0.036203898 0.602 4282598707
0.175551 0.036201701 0.602 4283980360
0.177168 0.0361996 0.602 4285098841
0.178487 0.036137301 0.60100001 4285559392
0.18010101 0.036135301 0.60100001 4285625186
0.182018 0.0361933 0.602 4286480495
0.18424401 0.0363116 0.60399997 4287269496
0.186481 0.0364298 0.60600001 4287532668
0.188419 0.0364879 0.60699999 4287795585
0.19036201 0.0365461 0.60799998 4287664001
0.19136301 0.036423899 0.60600001 4287926657
0.192672 0.036362 0.60500002 4287729792
0.193975 0.0363 0.60399997 4287598206
0.19559699 0.0362982 0.60399997 4287598206
0.197219 0.036296502 0.60399997 4287795585
0.19916999 0.036354799 0.60500002 4287795334
0.20079499 0.0363531 0.60500002 4287663747
0.20242 0.036351498 0.60500002 4287466620
0.204045 0.0363499 0.60500002 4287598206
0.206009 0.036408398 0.60600001 4287532161
0.20798001 0.036467001 0.60699999 4287598208
0.209611 0.0364655 0.60699999 4287663999
0.21089301 0.036403999 0.60600001 4287466875
0.21182001 0.036282498 0.60399997 4287663738
0.21309 0.036221098 0.60299999 4287466873
0.215422 0.036339998 0.60500002 4287335287
0.218125 0.036518998 0.60799998 4287072117
0.219759 0.036517799 0.60799998 4287598461
0.22066499 0.0363965 0.60600001 4287466620
0.221928 0.036335401 0.60500002 4287335034
0.223555 0.036334399 0.60500002 4287334775
0.225555 0.036393501 0.60600001 4287532154
0.22680999 0.0363326 0.60500002 4287466361
0.228815 0.036391798 0.60600001 4287466361
0.231207 0.036511201 0.60799998 4287729533
0.232844 0.036510501 0.60799998 4287597692
0.23486599 0.036569901 0.60900003 4287531899
0.236118 0.036509302 0.60799998 4287268729
0.23736501 0.036448698 0.60699999 4287663485
0.23899999 0.0364483 0.60699999 4287860864
0.241429 0.036568001 0.60900003 4287334775
0.242671 0.0365077 0.60799998 4287861119
0.243909 0.036447499 0.60699999 4287269494
0.245546 0.036447302 0.60699999 4287466873
0.247591 0.036507301 0.60799998 4287795579
0.248822 0.036447302 0.60699999 4287466873
0.25046101 0.036447398 0.60699999 4287729531
0.252516 0.036507599 0.60799998 4287532152
0.254159 0.0365078 0.60799998 4287663740
0.25538099 0.036448099 0.60699999 4287466359
0.25659901 0.036388502 0.60600001 4287597947
0.25823799 0.036389001 0.60600001 4287597947
0.25944901 0.036329601 0.60500002 4287532668
0.261087 0.036330201 0.60500002 4287269496
0.262725 0.036331002 0.60500002 4287664254
0.26480201 0.036391899 0.60600001 4287203703
0.266444 0.036392901 0.60600001 4287532154
0.267645 0.0363339 0.60500002 4287532154
0.26884201 0.036274999 0.60399997 4287466361
0.270482 0.036276199 0.60399997 4287466875
0.27167201 0.0362175 0.60299999 4287532668
0.27376401 0.036279 0.60399997 4287663740
0.275406 0.036280502 0.60399997 4287532154
0.27704901 0.0362822 0.60399997 4287466361
0.27869299 0.036283899 0.60399997 4287663738
0.28080299 0.036345799 0.60500002 4287926912
0.282451 0.036347799 0.60500002 4287795326
0.28363201 0.0362898 0.60399997 4287532154
0.28527999 0.036292002 0.60399997 4287729533
0.28645399 0.0362342 0.60299999 4287401082
0.28858 0.036296699 0.60399997 4287597947
0.290712 0.036359299 0.60500002 4287401082
0.29236701 0.036361899 0.60500002 4287663740
0.29402399 0.036364701 0.60500002 4287730047
0.29568201 0.036367599 0.60500002 4287401082
0.297833 0.036430702 0.60600001 4287730047
0.299496 0.036433801 0.60600001 4287269496
0.30116099 0.036437102 0.60600001 4287533182
0.30282599 0.036440499 0.60600001 4288256905
0.30499601 0.036504101 0.60699999 4288060040
0.30666801 0.0365078 0.60699999 4287862922
0.30935699 0.036631901 0.60900003 4287797129
0.31052601 0.036575701 0.60799998 4287797132
0.31169099 0.036519598 0.60699999 4287994257
0.31336901 0.0365238 0.60699999 4288257683
0.314529 0.036467999 0.60600001 4287994511
0.31516299 0.036352102 0.60399997 4288257683
0.31683701 0.036356699 0.60399997 4288257683
0.31904 0.036421601 0.60500002 4288060304
0.32071999 0.036426499 0.60500002 4288454292
0.32240301 0.036431599 0.60500002 4287665031
0.32408601 0.0364368 0.60500002 4288257166
0.32577199 0.036442202 0.60500002 4287928969
0.32745999 0.0364477 0.60500002 4287863175
0.328605 0.036393099 0.60399997 4288060040
0.330841 0.0364592 0.60500002 4287862662
0.331985 0.036405001 0.60399997 4287928201
0.33367699 0.036411099 0.60399997 4288059275
0.33481699 0.036357101 0.60299999 4287862155
0.33762699 0.036484201 0.60500002 4287862155
0.339329 0.036490899 0.60500002 4287993996
0.34159699 0.036558099 0.60600001 4288125327
0.34217301 0.0364444 0.60399997 4288059534
0.34331 0.036391299 0.60299999 4287730055
0.34501499 0.036398601 0.60299999 4287071611
0.347298 0.036466599 0.60399997 4287662980
0.34958899 0.036534701 0.60500002 4287400055
0.352469 0.036663398 0.60699999 4287005550
0.353028 0.036550701 0.60500002 4287136875
0.354752 0.036559001 0.60500002 4287334769
0.35588899 0.0365071 0.60399997 4287006063
0.35820699 0.036576301 0.60500002 4287268980
0.35934299 0.036524698 0.60399997 4287071603
0.36227101 0.0366548 0.60600001 4287203189
0.36401099 0.036664099 0.60600001 4287203189
0.366357 0.036734201 0.60699999 4287268982
0.36628699 0.036562301 0.60399997 4287137394
0.36864001 0.036632799 0.60500002 4287400821
0.37038901 0.036642998 0.60500002 4287071597
0.372756 0.036713898 0.60600001 4287006061
0.37513301 0.0367851 0.60699999 4286611303
0.37689701 0.036796 0.60699999 4287137647
0.378665 0.036807101 0.60699999 4287532405
0.38106301 0.0368791 0.60799998 4287729786
0.38158199 0.036769301 0.60600001 4287400821
0.38335699 0.036781002 0.60600001 4287401080
0.383865 0.036671601 0.60399997 4287137910
0.38628 0.036744598 0.60500002 4287203703
0.387422 0.0366963 0.60399997 4286874483
0.38856101 0.036648199 0.60299999 4286808692
0.38969901 0.036600299 0.602 4286282864
0.39343601 0.036796 0.60500002 4285624942
0.396541 0.036931101 0.60699999 4282532932
0.39835 0.0369449 0.60699999 4286020981
0.39950299 0.036898099 0.60600001 4287600267
0.401317 0.0369124 0.60600001 4287533706
0.40380099 0.036987901 0.60699999 4287599753
0.406295 0.0370638 0.60799998 4287796362
0.40812799 0.037078999 0.60799998 4287665031
0.40996501 0.037094399 0.60799998 4287796617
0.41113001 0.0370492 0.60699999 4287665029
0.412974 0.037065201 0.60699999 4287730822
0.414823 0.037081499 0.60699999 4287796617
0.41736299 0.037159301 0.60799998 4287533445
0.41853499 0.037115101 0.60699999 4287796617
0.419705 0.037071101 0.60600001 4287927950
-0.198566 0.034837201 0.60699999 4287402128
-0.196936 0.034838799 0.60699999 4287270282
-0.195306 0.034840599 0.60699999 4287599247
-0.193995 0.0348997 0.60799998 4287928212
-0.19172999 0.034786701 0.60600001 4288257176
-0.189789 0.034731202 0.60500002 4287993488
-0.18785299 0.034675598 0.60399997 4287993488
-0.185923 0.034620099 0.60299999 4288124560
-0.183998 0.034564599 0.602 4287861643
-0.182382 0.034566499 0.602 4288189838
-0.180765 0.0345685 0.602 4288255631
-0.17974401 0.034685299 0.60399997 4288387471
-0.177827 0.0346299 0.60299999 4287992713
-0.17649999 0.0346894 0.60399997 4288322194
-0.175457 0.0348063 0.60600001 4288124815
-0.17468999 0.034980699 0.60900003 4288453525
-0.17305399 0.034982901 0.60900003 4288321425
-0.17113701 0.034927599 0.60799998 4288189839
-0.168946 0.034814801 0.60600001 4288058252
-0.167318 0.034816999 0.60600001 4288650128
-0.165416 0.034761701 0.60500002 4288453003
-0.16406099 0.034821399 0.60600001 4288452749
-0.162433 0.0348236 0.60600001 4288650128
-0.160805 0.034825899 0.60600001 4288452750
-0.159438 0.0348856 0.60699999 4288452496
-0.15780701 0.034887899 0.60699999 4288255118
-0.156433 0.0349476 0.60799998 4288518290
-0.154543 0.034892399 0.60699999 4288715668
-0.15291101 0.034894701 0.60699999 4288320910
-0.15103 0.0348395 0.60600001 4288321164
-0.149647 0.034899302 0.60699999 4288584078
-0.14801399 0.034901701 0.60699999 4288452492
-0.14613999 0.0348465 0.60600001 4288452492
-0.144748 0.034906302 0.60699999 4288320906
-0.143351 0.034966201 0.60799998 4288320906
-0.14171501 0.034968499 0.60799998 4288189320
-0.13984799 0.034913301 0.60699999 4288386953
-0.137986 0.0348581 0.60600001 4288452746
-0.13658001 0.034917999 0.60699999 4288650123
-0.134946 0.034920301 0.60699999 4288453001
-0.133531 0.0349802 0.60799998 4288189829
-0.13189299 0.034982499 0.60799998 4288453001
-0.130256 0.034984801 0.60799998 4288387463
-0.128829 0.0350447 0.60900003 4288650382
-0.127397 0.035104599 0.61000001 4288387210
-0.12554701 0.035049401 0.60900003 4288255367
-0.124109 0.0351092 0.61000001 4288189574
-0.122064 0.034996402 0.60799998 4288320644
-0.120425 0.0349987 0.60799998 4288584330
-0.118785 0.035000999 0.60799998 4288518794
-0.117531 0.035118401 0.61000001 4288452746
-0.116076 0.035178199 0.611 4288255367
-0.114053 0.035065301 0.60900003 4288321163
-0.112225 0.035009999 0.60799998 4288584332
-0.110403 0.0349546 0.60699999 4288386953
-0.108764 0.034956802 0.60699999 4288386951
-0.107126 0.034959 0.60699999 4288189572
-0.105487 0.034961201 0.60699999 4288321160
-0.104019 0.035020899 0.60799998 4288452746
-0.102377 0.035023101 0.60799998 4288189577
-0.10057 0.034967601 0.60699999 4288189577
-0.098766796 0.034912098 0.60600001 4288321417
-0.097289801 0.034971699 0.60699999 4288058245
-0.095807202 0.035031401 0.60799998 4288189831
-0.094163999 0.035033502 0.60799998 4288452744
-0.092368402 0.034977801 0.60699999 4288452744
-0.0908769 0.035037499 0.60799998 4288518539
-0.088939399 0.034924202 0.60600001 4288517769
-0.087300599 0.034926102 0.60600001 4288386699
-0.085520297 0.034870401 0.60500002 4288255113
-0.084160998 0.034987599 0.60699999 4288189320
-0.082382903 0.034931801 0.60600001 4288321163
-0.080876403 0.034991302 0.60699999 4288321417
-0.0788422 0.034820098 0.60399997 4288189829
-0.077463001 0.034937199 0.60600001 4288124291
-0.075697497 0.034881301 0.60500002 4287663227
-0.074304402 0.034998398 0.60699999 4288123264
-0.072780497 0.035057701 0.60799998 4288123265
-0.071016997 0.035001699 0.60699999 4288057986
-0.069487303 0.035061002 0.60799998 4287992195
-0.067840397 0.0350626 0.60799998 4288057734
-0.066302098 0.035121899 0.60900003 4288189578
-0.064545803 0.0350658 0.60799998 4288518542
-0.062898301 0.035067301 0.60799998 4288518539
-0.0612505 0.035068799 0.60799998 4288255367
-0.059700601 0.035127901 0.60900003 4288452229
-0.058049701 0.035129301 0.60900003 4288255104
-0.056213502 0.0350153 0.60699999 4288057724
-0.054567698 0.035016701 0.60699999 4287663480
-0.053008899 0.035075702 0.60799998 4287926910
-0.05136 0.035076998 0.60799998 4288058498
-0.0495474 0.034962799 0.60600001 4288386950
-0.047903601 0.034963999 0.60600001 4288518536
-0.046183299 0.034907501 0.60500002 4288518536
-0.044541899 0.0349086 0.60500002 4288584329
-0.042758599 0.034794301 0.60299999 4288519049
-0.040985901 0.034679901 0.60100001 4288584589
-0.038961999 0.034334701 0.59500003 4288386956
-0.037661001 0.0346242 0.60000002 4288189838
-0.037113499 0.035663798 0.61799997 4288189838
-0.035206601 0.0354339 0.61400002 4288255631
-0.0319557 0.033761099 0.58499998 4287860359
-0.0292255 0.032492299 0.56300002 4287993235
-0.026959 0.031627301 0.54799998 4287600024
-0.025285199 0.031397101 0.54400003 4287007633
-0.023676701 0.0312245 0.54100001 4284968303
-0.022207599 0.0312251 0.54100001 4284244064
-0.020700101 0.0311679 0.54000002 4283716945
-0.0192692 0.031226199 0.54100001 4283584843
-0.017766999 0.0311689 0.54000002 4283452482
-0.016300401 0.0311694 0.54000002 4283320895
-0.0148062 0.031112 0.53899997 4282992182
-0.0133174 0.0310547 0.53799999 4283058230
-0.011856 0.031055 0.53799999 4282663472
-0.0103946 0.0310553 0.53799999 4282860851
-0.0089497203 0.0311133 0.53899997 4282860851
-0.0074716099 0.0310557 0.53799999 4282597679
-0.00601009 0.031055899 0.53799999 4282663472
-0.004557 0.0311138 0.53899997 4282597166
-0.0030927199 0.0311139 0.53899997 4282596653
-0.00162239 0.0309985 0.537 4282465581
-0.00016383 0.031056199 0.53799999 4282728752
0.00130016 0.0311139 0.53899997 4282728753
0.0027695801 0.031171599 0.54000002 4282465838
0.0042208899 0.031056101 0.53799999 4282333995
0.00568244 0.031056 0.53799999 4282597167
0.0071306899 0.0309981 0.537 4282399788
0.0085894801 0.0309979 0.537 4282530859
0.0100669 0.0310553 0.53799999 4282596652
0.0115069 0.030997301 0.537 4282596652
0.0129656 0.030997001 0.537 4282399787
0.0143974 0.030939 0.53600001 4282596906
0.015853301 0.030938599 0.53600001 4282794285
0.017276799 0.030880401 0.53500003 4282597166
0.018694799 0.030822201 0.53399998 4282794284
0.0201828 0.030879499 0.53500003 4282991663
0.021635599 0.0308789 0.53500003 4282531627
0.0230885 0.0308784 0.53500003 4282333480
0.024449401 0.0307623 0.53299999 4282662446
0.0257995 0.0306463 0.53100002 4282596653
0.027292499 0.030703301 0.53200001 4282596653
0.0286828 0.030644899 0.53100002 4282596652
0.030124299 0.030644201 0.53100002 4282531373
0.031506199 0.030585701 0.52999997 4282531374
0.032944798 0.0305849 0.52999997 4282531633
0.034448098 0.030641699 0.53100002 4282597424
0.035821501 0.0305831 0.52999997 4282465840
0.037189499 0.0305245 0.52899998 4282531374
0.038624801 0.0305236 0.52899998 4282596652
0.040060099 0.0305226 0.52899998 4282596906
0.041730501 0.030694701 0.53200001 4282662445
0.0430113 0.0305783 0.52999997 4282333480
0.0444488 0.0305772 0.52999997 4282465066
0.045539901 0.0303453 0.52600002 4282465066
0.0471448 0.0304596 0.528 4282267687
0.0486685 0.030516099 0.52899998 4282531113
0.0501974 0.030572601 0.52999997 4282728238
0.051341899 0.0303983 0.52700001 4282531374
0.05257 0.0302817 0.52499998 4282400045
0.053992901 0.0302804 0.52499998 4282465838
0.055415601 0.0302791 0.52499998 4282663219
0.056838099 0.0302778 0.52499998 4282597424
0.0582604 0.030276399 0.52499998 4282597424
0.059568901 0.0302174 0.52399999 4282531631
0.060755402 0.0301007 0.52200001 4282531633
0.061930802 0.0299839 0.51999998 4282531633
0.063338898 0.029982399 0.51999998 4282597172
0.064622201 0.029923299 0.51899999 4282005287
0.066154398 0.029979501 0.51999998 4282334252
0.067691803 0.0300356 0.52100003 4282531631
0.069366999 0.0301493 0.523 4282400300
0.0707822 0.0301478 0.523 4282400300
0.072059102 0.030088499 0.52200001 4282400298
0.073330499 0.0300292 0.52100003 4282202919
0.074739598 0.0300276 0.52100003 4282268454
0.076294698 0.0300836 0.52200001 4282597677
0.077557303 0.030024299 0.52100003 4282334507
0.078965902 0.030022601 0.52100003 4282400045
0.080528401 0.030078501 0.52200001 4282268207
0.081939198 0.030076699 0.52200001 4282465586
0.083349802 0.0300749 0.52200001 4282399790
0.0844355 0.0299579 0.51999998 4282531374
0.085675098 0.0298985 0.51899999 4282268201
0.086909197 0.0298391 0.51800001 4282662959
0.088649102 0.0299525 0.51999998 4282794545
0.089879997 0.0298931 0.51899999 4282202408
0.091105297 0.0298336 0.51800001 4282399787
0.0925036 0.029831801 0.51800001 4282333994
0.094082899 0.029887499 0.51899999 4282333994
0.095115498 0.0297704 0.51700002 4282400041
0.096510403 0.0297685 0.51700002 4282268454
0.097905099 0.029766601 0.51700002 4282136615
0.099491701 0.029822299 0.51800001 4282267688
0.100694 0.029762801 0.51700002 4282399022
0.102088 0.0297608 0.51700002 4282596146
0.103482 0.0297589 0.51700002 4282398767
0.105078 0.0298145 0.51800001 4282333481
0.10668 0.0298701 0.51899999 4282333480
0.108079 0.0298681 0.51899999 4282202148
0.109266 0.0298086 0.51800001 4282465320
0.110448 0.029749099 0.51700002 4282333480
0.111624 0.029689601 0.51599997 4282267687
0.113233 0.0297451 0.51700002 4282399787
0.114403 0.0296856 0.51599997 4282597169
0.116242 0.0297987 0.51800001 4282202408
0.117409 0.0297391 0.51700002 4282268455
0.118571 0.0296796 0.51599997 4282136869
0.119262 0.0295051 0.51300001 4282465834
0.120643 0.0295031 0.51300001 4282333480
0.122023 0.0295012 0.51300001 4282070822
0.123403 0.029499199 0.51300001 4282530859
0.124783 0.029497201 0.51300001 4282333995
0.12640899 0.029552801 0.514 4282202409
0.127791 0.0295508 0.514 4282465580
0.129425 0.029606299 0.51499999 4282531886
0.131064 0.029661899 0.51599997 4282202919
0.132194 0.029602399 0.51499999 4282137381
0.133838 0.029658001 0.51599997 4282203174
0.136011 0.0298285 0.51899999 4282137381
0.139259 0.030228799 0.52600002 4282334760
0.14415 0.0309739 0.53899997 4282334760
0.14964999 0.031833898 0.55400002 4282334760
0.156049 0.032866102 0.57200003 4282334760
0.16089199 0.0335535 0.58399999 4282466346
0.165243 0.034125902 0.59399998 4282334505
0.167119 0.0341812 0.59500003 4282466093
0.169285 0.034294002 0.597 4282268714
0.17088801 0.034291901 0.597 4282203435
0.173069 0.034404699 0.59899998 4283454016
0.17497 0.034460101 0.60000002 4284309325
0.176581 0.034458101 0.60000002 4285033563
0.17789499 0.0343986 0.59899998 4285625699
0.17950401 0.0343966 0.59899998 4286875253
0.18111201 0.0343947 0.59899998 4287401597
0.183026 0.034450199 0.60000002 4287663999
0.184945 0.034505699 0.60100001 4287795585
0.186869 0.034561198 0.602 4287466622
0.188485 0.034559298 0.602 4287664001
0.190102 0.034557499 0.602 4287664001
0.191081 0.034440901 0.60000002 4287598976
0.193013 0.034496602 0.60100001 4287729792
0.194627 0.034494899 0.60100001 4287795587
0.196894 0.034607999 0.60299999 4287532415
0.198184 0.034548901 0.602 4287401597
0.199801 0.034547299 0.602 4287598208
0.201417 0.034545701 0.602 4287795840
0.203372 0.034601599 0.60299999 4287598206
0.205671 0.034714799 0.60500002 4287597954
0.20763899 0.034770802 0.60600001 4287729540
0.20857599 0.034654599 0.60399997 4287729792
0.209851 0.034595899 0.60299999 4287401082
0.210769 0.034479801 0.60100001 4287401082
0.21273801 0.0345359 0.602 4287664254
0.214711 0.034592099 0.60299999 4287466368
0.21705 0.034705602 0.60500002 4287532413
0.21831401 0.0346471 0.60399997 4287730047
0.219574 0.034588698 0.60299999 4287532413
0.220829 0.034530301 0.602 4287598208
0.22244801 0.034529399 0.602 4287531899
0.224067 0.034528501 0.602 4287729278
0.226436 0.034642301 0.60399997 4287663485
0.22768401 0.034584198 0.60299999 4287729280
0.230067 0.034698199 0.60500002 4287663485
0.23131201 0.0346401 0.60399997 4287663487
0.23371001 0.034754202 0.60600001 4287729280
0.234953 0.0346963 0.60500002 4287729280
0.23658299 0.0346958 0.60500002 4287466620
0.237819 0.034638099 0.60399997 4287663740
0.239843 0.0346951 0.60500002 4287203189
0.24107499 0.0346375 0.60399997 4287729531
0.242704 0.034637202 0.60399997 4287400821
0.243928 0.034579799 0.60299999 4287663993
0.24596301 0.034637 0.60399997 4287598200
0.247593 0.034637 0.60399997 4287466359
0.24922299 0.034637101 0.60399997 4287532154
0.25085399 0.034637298 0.60399997 4287597440
0.25248599 0.0346375 0.60399997 4287662981
0.25369799 0.034580499 0.60299999 4287663740
0.25490499 0.034523498 0.602 4287729533
0.256533 0.034524001 0.602 4287729533
0.25816199 0.0345245 0.602 4287597947
0.259792 0.034525201 0.602 4287532668
0.26229 0.034640599 0.60399997 4287532668
0.26392701 0.0346414 0.60399997 4287335289
0.26556399 0.034642301 0.60399997 4287532154
0.26631701 0.034528598 0.602 4287335289
0.26750499 0.034472302 0.60100001 4287466361
0.26868901 0.034416098 0.60000002 4287203703
0.26986799 0.034359999 0.59899998 4287269496
0.271496 0.034361299 0.59899998 4287401080
0.27358001 0.034420099 0.60000002 4287663738
0.275213 0.034421701 0.60000002 4287400568
0.277307 0.034480698 0.60100001 4287597945
0.27940801 0.0345398 0.602 4287466359
0.28104901 0.0345417 0.602 4287400566
0.28222099 0.034486301 0.60100001 4287597947
0.28386101 0.034488302 0.60100001 4287729533
0.28550199 0.0344905 0.60100001 4287597945
0.2881 0.0346075 0.60299999 4287597945
0.28974801 0.034609899 0.60299999 4287401080
0.29188201 0.034669802 0.60399997 4287730300
0.29353499 0.034672499 0.60399997 4287598459
0.29519099 0.0346752 0.60399997 4287466873
0.29782999 0.0347929 0.60600001 4287598461
0.29899901 0.0347385 0.60500002 4287137910
0.300163 0.034684099 0.60399997 4287467389
0.30132401 0.0346299 0.60299999 4287993733
0.30348501 0.0346907 0.60399997 4287928203
0.30565399 0.034751602 0.60500002 4287731338
0.30732101 0.0347552 0.60500002 4287928718
0.30847901 0.0347015 0.60399997 4287665292
0.30963299 0.0346478 0.60299999 4288060304
0.31181601 0.034709301 0.60399997 4288125327
0.31348601 0.034713399 0.60399997 4288059534
0.31463701 0.034660202 0.60299999 4288191375
0.31525901 0.034549601 0.60100001 4287993996
0.317981 0.034669101 0.60299999 4287993741
0.319655 0.034673698 0.60299999 4288322961
0.32186499 0.034736101 0.60399997 4287862408
0.32301 0.034683499 0.60299999 4287665029
0.32469001 0.034688599 0.60299999 4287731590
0.325831 0.0346363 0.602 4287863175
0.326967 0.034584101 0.60100001 4288125833
0.328648 0.0345897 0.60100001 4287862662
0.330879 0.0346529 0.602 4288125320
0.333119 0.034716301 0.60299999 4288256652
0.33425501 0.034664799 0.602 4288191373
0.336505 0.034728501 0.60299999 4287928201
0.33820099 0.034734901 0.60299999 4287863176
0.33933499 0.034683801 0.602 4288060555
0.34046701 0.034632798 0.60100001 4287665029
0.34159499 0.034582 0.60000002 4287730310
0.34386301 0.0346466 0.60100001 4286940024
0.34729001 0.0348267 0.60399997 4287334015
0.349581 0.034891799 0.60500002 4287136884
0.35129899 0.034899302 0.60500002 4286808676
0.35185301 0.034791701 0.60299999 4287399794
0.353571 0.034799598 0.60299999 4287005810
0.354702 0.03475 0.602 4287071601
0.35760599 0.034873702 0.60399997 4287334773
0.35874 0.034824401 0.60299999 4287400566
0.360468 0.0348331 0.60299999 4286874222
0.36219999 0.034841899 0.60299999 4287071343
0.364537 0.034908801 0.60399997 4287466101
0.36506501 0.0348024 0.602 4286940270
0.36680201 0.034811798 0.602 4287334769
0.36854199 0.034821499 0.602 4287400048
0.37151599 0.034947 0.60399997 4287137390
0.37326801 0.0349571 0.60399997 4286874218
0.37564501 0.035025299 0.60500002 4286742636
0.37740701 0.035035901 0.60500002 4287334775
0.379172 0.0350466 0.60500002 4287663740
0.380941 0.035057601 0.60500002 4287597945
0.38271299 0.035068799 0.60500002 4287401080
0.38321701 0.034964301 0.60299999 4287269496
0.38626799 0.035091899 0.60500002 4287401082
0.388051 0.035103802 0.60500002 4287269241
0.388549 0.034999799 0.60299999 4287203189
0.38903901 0.034896102 0.60100001 4286808176
0.39147201 0.0349667 0.602 4285493850
0.39522099 0.035153799 0.60500002 4283980875
0.39768001 0.035225 0.60600001 4285690996
0.39948899 0.0352384 0.60600001 4287863439
0.40064099 0.035193902 0.60500002 4287533959
0.40312099 0.035266001 0.60600001 4287665029
0.404944 0.035280101 0.60600001 4287796615
0.40676999 0.0352946 0.60600001 4287467650
0.40792701 0.035250999 0.60500002 4287533443
0.41043699 0.035324302 0.60600001 4287336318
0.411598 0.0352812 0.60500002 4287599490
0.414123 0.035355099 0.60600001 4287204478
0.41528699 0.0353126 0.60500002 4287336064
0.41782799 0.035387099 0.60600001 4287730822
0.41899601 0.0353451 0.60500002 4287336581
-0.19824 0.0331432 0.60600001 4287533714
-0.196288 0.0330901 0.60500002 4287796372
-0.194986 0.033146501 0.60600001 4287993237
-0.19367801 0.033202901 0.60699999 4288387993
-0.19236401 0.033259299 0.60799998 4288387993
-0.190732 0.033261102 0.60799998 4288256662
-0.189099 0.0332628 0.60799998 4288125591
-0.187158 0.033209901 0.60699999 4288256662
-0.18461201 0.033047602 0.60399997 4288059281
-0.182687 0.032994799 0.60299999 4288058767
-0.181068 0.032996699 0.60299999 4287795850
-0.179746 0.033053301 0.60399997 4288256399
-0.177239 0.032891002 0.60100001 4288124815
-0.17533299 0.0328383 0.60000002 4287993488
-0.17401101 0.032894999 0.60100001 4288125074
-0.172971 0.0330064 0.60299999 4288059281
-0.171635 0.033063199 0.60399997 4287927181
-0.16973101 0.033010501 0.60299999 4287861388
-0.167833 0.0329578 0.602 4288058252
-0.165939 0.032905102 0.60100001 4287861127
-0.164051 0.0328524 0.60000002 4287861127
-0.163251 0.033018801 0.60299999 4288124045
-0.161631 0.033020899 0.60299999 4288058767
-0.160276 0.033077799 0.60399997 4288321425
-0.15865301 0.0330799 0.60399997 4288518804
-0.157029 0.033082101 0.60399997 4288387218
-0.15592 0.033193801 0.60600001 4288584596
-0.154036 0.033141199 0.60500002 4288387217
-0.15215801 0.033088598 0.60399997 4288321424
-0.15003499 0.032981299 0.602 4288518543
-0.148909 0.033093002 0.60399997 4288123785
-0.147285 0.0330952 0.60399997 4288255371
-0.145419 0.033042599 0.60299999 4288123785
-0.144035 0.0330997 0.60399997 4288255371
-0.142882 0.033211499 0.60600001 4288123784
-0.141251 0.033213701 0.60600001 4288189577
-0.13938899 0.0331611 0.60500002 4288386956
-0.13753299 0.033108499 0.60399997 4288584335
-0.13635699 0.033220399 0.60600001 4288650125
-0.134726 0.033222601 0.60600001 4288189831
-0.133094 0.033224899 0.60600001 4288387210
-0.13146199 0.033227101 0.60600001 4288453001
-0.12961499 0.0331745 0.60500002 4288387210
-0.128197 0.033231501 0.60600001 4288386956
-0.126773 0.033288602 0.60699999 4288255370
-0.12534299 0.033345599 0.60799998 4288189574
-0.123705 0.0333478 0.60799998 4288057734
-0.121664 0.0332403 0.60600001 4288321160
-0.120031 0.033242501 0.60600001 4288518539
-0.118397 0.033244699 0.60600001 4288518796
-0.116955 0.0333017 0.60699999 4288386956
-0.115508 0.033358701 0.60799998 4288584079
-0.113493 0.033251099 0.60600001 4288584079
-0.111858 0.0332532 0.60600001 4288584078
-0.110041 0.033200499 0.60500002 4288386185
-0.108408 0.0332026 0.60500002 4288255367
-0.106775 0.0332046 0.60500002 4288254597
-0.105142 0.033206701 0.60500002 4288386183
-0.103679 0.033263601 0.60600001 4288452492
-0.102043 0.033265699 0.60600001 4288321163
-0.100406 0.033267699 0.60600001 4288386956
-0.098605901 0.0332148 0.60500002 4288124036
-0.096971303 0.033216801 0.60500002 4288058243
-0.095494002 0.0332736 0.60600001 4288124291
-0.094011098 0.0333305 0.60699999 4288255364
-0.092370301 0.0333324 0.60699999 4288321158
-0.090579897 0.0332794 0.60600001 4288452746
-0.0887945 0.0332263 0.60500002 4288517771
-0.086870298 0.033118401 0.60299999 4288583564
-0.085239403 0.0331202 0.60299999 4288650125
-0.083885603 0.033231799 0.60500002 4288584332
-0.082520701 0.033343501 0.60699999 4288189574
-0.0810114 0.0334002 0.60799998 4288255622
-0.078974403 0.0332371 0.60500002 4288387463
-0.0772091 0.033183899 0.60399997 4287926912
-0.075448997 0.033130601 0.60299999 4287794813
-0.0740612 0.033242099 0.60500002 4288057471
-0.072423004 0.033243701 0.60500002 4288189058
-0.070901603 0.033300299 0.60600001 4288123265
-0.069374599 0.033356801 0.60699999 4287991679
-0.0677303 0.033358298 0.60699999 4288254597
-0.066194698 0.0334148 0.60799998 4288320906
-0.064335003 0.033306301 0.60600001 4288386699
-0.062692799 0.033307798 0.60600001 4288518539
-0.060949702 0.033254199 0.60500002 4288386951
-0.059407901 0.0333106 0.60600001 4288189057
-0.0577651 0.0333119 0.60600001 4288255104
-0.056029599 0.0332583 0.60500002 4287860345
-0.054389201 0.0332596 0.60500002 4287926392
-0.0526614 0.0332058 0.60399997 4287466102
-0.051023301 0.033206999 0.60399997 4287860860
-0.049303301 0.033153199 0.60299999 4288452743
-0.0476676 0.033154398 0.60299999 4288321157
-0.046031799 0.033155501 0.60299999 4288452743
-0.0443221 0.0331016 0.602 4288321157
-0.042617802 0.033047602 0.60100001 4288453256
-0.0407141 0.032828599 0.597 4288387208
-0.038832001 0.032609601 0.59299999 4288781968
-0.0374736 0.032830499 0.597 4288452749
-0.0371744 0.0340412 0.61900002 4288452749
-0.035207499 0.0337671 0.61400002 4287992713
-0.032011099 0.032228101 0.58600003 4287794566
-0.029381899 0.0311288 0.56599998 4287795597
-0.0271073 0.030304501 0.551 4287863196
-0.0253323 0.0299752 0.54500002 4286876047
-0.023677301 0.029755799 0.54100001 4284836717
-0.022208201 0.0297563 0.54100001 4284046685
-0.020739 0.0297569 0.54100001 4283848529
-0.019269699 0.0297573 0.54100001 4283519050
-0.0178004 0.0297578 0.54100001 4283387203
-0.016331 0.0297582 0.54100001 4283386688
-0.0148615 0.029758601 0.54100001 4283189561
-0.0133425 0.0296489 0.53899997 4283057971
-0.0118783 0.0296492 0.53899997 4282597420
-0.0104142 0.0296495 0.53899997 4282531627
-0.0089499401 0.029649699 0.53899997 4282991663
-0.0074717999 0.0295949 0.53799999 4282860338
-0.0060102399 0.029595099 0.53799999 4282662959
-0.00454866 0.0295952 0.53799999 4282794031
-0.0030928 0.029650301 0.53899997 4282596653
-0.00162545 0.029595399 0.53799999 4282662962
-0.00016353 0.029540399 0.537 4282794546
0.00129778 0.029595399 0.53799999 4282662960
0.00276965 0.0297054 0.54000002 4282399788
0.0042366898 0.029705301 0.54000002 4282333995
0.0056825802 0.029595099 0.53799999 4282202409
0.0071175899 0.029485 0.53600001 4282268201
0.0085736997 0.029484799 0.53600001 4282399787
0.0100485 0.029539499 0.537 4282662959
0.0115072 0.0295393 0.537 4282465580
0.012966 0.029539 0.537 4282662959
0.0143709 0.029428599 0.53500003 4282530859
0.015853699 0.0294833 0.53600001 4282860078
0.0173418 0.029537899 0.537 4282530859
0.018835301 0.0295924 0.53799999 4282531627
0.020334199 0.029647 0.53899997 4282597419
0.0217575 0.0295914 0.53799999 4282597420
0.023175299 0.029535901 0.537 4282531373
0.0245877 0.029480301 0.53600001 4282662959
0.0259459 0.029369701 0.53399998 4282596652
0.027447101 0.029424099 0.53500003 4282662445
0.028953601 0.029478399 0.53600001 4282662445
0.030408701 0.029477701 0.53600001 4282925617
0.0318042 0.029421899 0.53500003 4282662962
0.033069901 0.0292562 0.53200001 4282531376
0.0345787 0.029310299 0.53299999 4282531376
0.035957601 0.0292545 0.53200001 4282268202
0.0374716 0.0293086 0.53299999 4282465066
0.038844801 0.029252701 0.53200001 4282267687
0.040288199 0.029251801 0.53200001 4282333734
0.041731499 0.029250801 0.53200001 4282662699
0.043174598 0.0292498 0.53200001 4282596652
0.044701502 0.0293038 0.53299999 4282530859
0.045800701 0.029082799 0.52899998 4282596652
0.047324501 0.029136701 0.52999997 4282136101
0.048761599 0.0291356 0.52999997 4282596652
0.0501986 0.029134501 0.52999997 4282859824
0.051343098 0.028968399 0.52700001 4282399788
0.052671399 0.0289122 0.52600002 4282465838
0.0541998 0.028966 0.52700001 4282465838
0.055733498 0.0290197 0.528 4282531631
0.0571642 0.0290184 0.528 4282400045
0.0585947 0.0290171 0.528 4282465838
0.060024999 0.0290158 0.528 4282465838
0.0612223 0.028904499 0.52600002 4282334768
0.0624086 0.028793201 0.52399999 4282334514
0.063583903 0.0286819 0.52200001 4282334514
0.064997204 0.0286805 0.52200001 4282334252
0.066410303 0.028679101 0.52200001 4282663217
0.0680831 0.028787499 0.52399999 4282531631
0.069633797 0.028840899 0.52499998 4282400300
0.071189798 0.0288944 0.52600002 4282400300
0.072474897 0.028837901 0.52499998 4282268714
0.073754303 0.028781399 0.52399999 4282531886
0.075171597 0.028779799 0.52399999 4282597420
0.076442502 0.0287233 0.523 4282466093
0.077559002 0.0286119 0.52100003 4282400300
0.078967497 0.0286102 0.52100003 4282465838
0.080375902 0.0286086 0.52100003 4282465840
0.081784002 0.028606899 0.52100003 4282400047
0.083191901 0.0286052 0.52100003 4282400047
0.084437199 0.0285486 0.51999998 4282531631
0.085676901 0.028492 0.51899999 4282465838
0.087078802 0.028490299 0.51899999 4282268459
0.088650897 0.0285435 0.51999998 4282597424
0.0898818 0.028486799 0.51899999 4282334252
0.091283001 0.028485 0.51899999 4282333995
0.092862599 0.0285381 0.51999998 4282399787
0.094265997 0.028536299 0.51999998 4282202921
0.0954853 0.028479701 0.51899999 4282268714
0.096512303 0.028368101 0.51700002 4282268712
0.097906999 0.028366299 0.51700002 4282334507
0.0994936 0.028419301 0.51800001 4282136875
0.100891 0.0284175 0.51800001 4282596915
0.10209 0.028360801 0.51700002 4282399284
0.103684 0.028413801 0.51800001 4282333744
0.105283 0.0284667 0.51899999 4282333481
0.107093 0.0285745 0.52100003 4282399273
0.108289 0.028517799 0.51999998 4282202148
0.109901 0.028570799 0.52100003 4282464805
0.110664 0.028404299 0.51800001 4282728492
0.112059 0.028402399 0.51800001 4282465066
0.113454 0.028400499 0.51800001 4282267687
0.115071 0.028453499 0.51899999 4282399527
0.116692 0.0285064 0.51999998 4282399526
0.117638 0.0283948 0.51800001 4282465319
0.118573 0.0282833 0.51599997 4282531627
0.119497 0.0281718 0.514 4282399527
0.12088 0.0281699 0.514 4282465580
0.122263 0.028168 0.514 4282268201
0.123886 0.028220899 0.51499999 4281939236
0.12527201 0.028219 0.51499999 4282202409
0.12665699 0.0282172 0.51499999 4282334254
0.128042 0.0282153 0.51499999 4282333994
0.129678 0.028268199 0.51599997 4282399787
0.13157301 0.028375899 0.51800001 4282202662
0.132966 0.028374 0.51800001 4281939489
0.134618 0.028426901 0.51899999 4282334501
0.13679899 0.0285894 0.52200001 4282268454
0.14032 0.029025599 0.52999997 4282071076
0.14548901 0.0297904 0.54400003 4282071076
0.151273 0.030664699 0.56 4282071076
0.157415 0.031593502 0.57700002 4282071076
0.16144501 0.032084301 0.58600003 4282071335
0.16468801 0.0324108 0.59200001 4282268714
0.16712099 0.032573 0.59500003 4282202921
0.169287 0.0326804 0.597 4282268714
0.17060401 0.032623701 0.59600002 4282861365
0.17249399 0.032676499 0.597 4283519295
0.174972 0.032838698 0.60000002 4285032534
0.17658301 0.032836799 0.60000002 4285690978
0.17789701 0.0327801 0.59899998 4286151790
0.179206 0.032723501 0.59799999 4286678136
0.180812 0.032721601 0.59799999 4287467138
0.182723 0.032774501 0.59899998 4287664517
0.184947 0.032882102 0.60100001 4287401090
0.18687101 0.032935001 0.602 4287335297
0.18817399 0.032878499 0.60100001 4287729540
0.189788 0.032876801 0.60100001 4287401343
0.191401 0.032875001 0.60100001 4287664515
0.193657 0.0329828 0.60299999 4287532929
0.19495299 0.032926399 0.602 4287796101
0.196569 0.032924801 0.602 4287664769
0.198186 0.032923199 0.602 4287664768
0.199802 0.032921702 0.602 4287467390
0.201419 0.0329202 0.602 4287729794
0.203373 0.032973401 0.60299999 4287861380
0.205672 0.033081301 0.60500002 4287730055
0.20764001 0.033134598 0.60600001 4287795334
0.20857701 0.033023901 0.60399997 4287729540
0.209852 0.032967899 0.60299999 4287532415
0.21112099 0.032912001 0.602 4287467138
0.21273901 0.032910801 0.602 4287730057
0.21471301 0.0329643 0.60299999 4287532931
0.216692 0.033017799 0.60399997 4287401857
0.21795399 0.032962099 0.60299999 4287335804
0.219575 0.032961 0.60299999 4287270011
0.22082999 0.0329054 0.602 4287532929
0.22244801 0.032904498 0.602 4287532413
0.224068 0.0329036 0.602 4287795585
0.226437 0.0330121 0.60399997 4287729794
0.22768401 0.032956701 0.60299999 4287465854
0.22968701 0.033010598 0.60399997 4287466108
0.23131301 0.033009999 0.60399997 4287400315
0.233325 0.033064 0.60500002 4287532161
0.234566 0.0330089 0.60399997 4287466368
0.235801 0.032953698 0.60299999 4287204218
0.237426 0.0329533 0.60299999 4287664254
0.239447 0.033007599 0.60399997 4287466875
0.24107499 0.033007398 0.60399997 4287466361
0.242704 0.033007201 0.60399997 4287334773
0.243928 0.032952402 0.60299999 4287334773
0.24596301 0.033006899 0.60399997 4287401080
0.247183 0.032952301 0.60299999 4287664254
0.24839801 0.0328977 0.602 4287597947
0.25043899 0.032952499 0.60299999 4287597692
0.25165001 0.032898001 0.602 4287466108
0.25369799 0.032953002 0.60299999 4287729280
0.254904 0.032898702 0.602 4287335034
0.25610599 0.032844499 0.60100001 4287335034
0.25816101 0.0328996 0.602 4287598206
0.260223 0.032954901 0.60299999 4287729792
0.26229 0.0330102 0.60399997 4287072632
0.263926 0.033011001 0.60399997 4287270011
0.26468399 0.032902502 0.602 4287269241
0.265874 0.032848801 0.60100001 4287270011
0.267059 0.032795101 0.60000002 4287400827
0.26868799 0.0327962 0.60000002 4287269496
0.269867 0.032742798 0.59899998 4287269496
0.27149501 0.032744002 0.59899998 4287268982
0.273579 0.032800101 0.60000002 4287466361
0.27566999 0.0328562 0.60100001 4287532407
0.277767 0.0329124 0.602 4287466101
0.27940699 0.032914098 0.602 4287137390
0.28104699 0.032915901 0.602 4287466101
0.28268901 0.032917701 0.602 4287597688
0.28385901 0.032864999 0.60100001 4287466359
0.285025 0.032812301 0.60000002 4287663993
0.28714201 0.032869201 0.60100001 4287335026
0.28926599 0.032926101 0.602 4287664246
0.290429 0.032873798 0.60100001 4287861623
0.29207501 0.032876302 0.60100001 4287335540
0.29420999 0.0329336 0.602 4287401333
0.297335 0.0331004 0.60500002 4287664252
0.298502 0.033048499 0.60399997 4287335289
0.30015999 0.033051498 0.60399997 4287270011
0.301321 0.032999799 0.60299999 4287927173
0.303482 0.033057701 0.60399997 4287927689
0.305145 0.033061001 0.60399997 4288124813
0.30680901 0.033064399 0.60399997 4288322706
0.30745399 0.0329584 0.602 4288059534
0.30911601 0.032962099 0.602 4288059534
0.31077901 0.032965802 0.602 4288454547
0.312444 0.032969698 0.602 4287928203
0.31411099 0.0329738 0.602 4288191373
0.31472999 0.0328684 0.60000002 4288257168
0.317449 0.0329822 0.602 4288257168
0.318591 0.032931801 0.60100001 4288191375
0.32079399 0.032991201 0.602 4288257168
0.32193401 0.032941099 0.60100001 4287599236
0.324146 0.0330007 0.602 4288191627
0.32582501 0.0330057 0.602 4288191626
0.32641801 0.032901201 0.60000002 4287928454
0.32864201 0.032961201 0.60100001 4287994247
0.33032399 0.032966599 0.60100001 4287993734
0.33256099 0.033027101 0.602 4288191113
0.33369401 0.032977901 0.60100001 4287993996
0.33538201 0.032983799 0.60100001 4287796617
0.337073 0.0329898 0.60100001 4287731590
0.338765 0.032995898 0.60100001 4287731590
0.339894 0.032947298 0.60000002 4288191627
0.34215701 0.033008698 0.60100001 4287927689
0.34442899 0.0330703 0.602 4287400575
0.346708 0.033132099 0.60299999 4287070844
0.34784001 0.033084098 0.602 4287268472
0.35013101 0.033146299 0.60299999 4287334515
0.35067901 0.033043601 0.60100001 4287268976
0.35297701 0.0331061 0.602 4287400566
0.35528299 0.0331688 0.60299999 4287268980
0.35759801 0.033231702 0.60399997 4287268980
0.358731 0.0331847 0.60299999 4287005808
0.359862 0.033137899 0.602 4286940015
0.36098999 0.033091299 0.60100001 4287203183
0.36271799 0.0330998 0.60100001 4287400562
0.36323601 0.032998402 0.59899998 4286808682
0.36618301 0.0331176 0.60100001 4287400561
0.36730799 0.0330716 0.60000002 4287137390
0.370891 0.033246402 0.60299999 4287597687
0.37264001 0.033255901 0.60299999 4287136883
0.37501401 0.0333209 0.60399997 4286808429
0.37677199 0.033330899 0.60399997 4287400568
0.379161 0.0333963 0.60500002 4287664254
0.37967101 0.033296298 0.60299999 4287730047
0.381437 0.033307001 0.60299999 4286809459
0.381935 0.033207301 0.60100001 4287861633
0.38497901 0.033328898 0.60299999 4287466873
0.386756 0.0333401 0.60299999 4287072117
0.38853699 0.0333516 0.60299999 4287071601
0.38837901 0.033197399 0.60000002 4286808945
0.39015901 0.033209302 0.60000002 4286085483
0.39324901 0.033332199 0.602 4283783242
0.39701101 0.0335108 0.60500002 4282402105
0.39815801 0.033468101 0.60399997 4287797382
0.39996499 0.033481002 0.60399997 4287600004
0.401777 0.033494201 0.60399997 4287467389
0.403593 0.033507701 0.60399997 4287532668
0.40675601 0.033632401 0.60600001 4287401597
0.407913 0.033590801 0.60500002 4287335803
0.40974501 0.033605099 0.60500002 4287467389
0.41090199 0.033564001 0.60399997 4287862147
0.41274101 0.033578798 0.60399997 4287270010
0.413899 0.0335382 0.60299999 4287533182
0.41643399 0.0336091 0.60399997 4287138424
0.41828701 0.033624701 0.60399997 4287138687
-0.199223 0.031662598 0.60900003 4287599507
-0.197263 0.031612199 0.60799998 4287731093
-0.195631 0.0316137 0.60799998 4288059798
-0.193679 0.031563401 0.60699999 4288651935
-0.192366 0.031617001 0.60799998 4288585627
-0.19042 0.031566702 0.60699999 4288257176
-0.18878999 0.031568401 0.60699999 4288454555
-0.18685199 0.031518102 0.60600001 4288191383
-0.185225 0.031519901 0.60600001 4288322453
-0.182992 0.031417601 0.60399997 4288125074
-0.181069 0.031367399 0.60299999 4288124560
-0.179748 0.031421199 0.60399997 4288124815
-0.17812601 0.031423099 0.60399997 4288125074
-0.176504 0.031424899 0.60399997 4288190867
-0.17488199 0.031426799 0.60399997 4288059281
-0.173546 0.0314808 0.60500002 4288322453
-0.171921 0.0314827 0.60500002 4288124560
-0.17001501 0.031432599 0.60399997 4288058767
-0.167835 0.0313305 0.602 4288124560
-0.165942 0.031280398 0.60100001 4287861388
-0.163507 0.031126199 0.59799999 4287795595
-0.1619 0.0311282 0.59799999 4287927181
-0.160561 0.0311823 0.59899998 4287992974
-0.159482 0.0312884 0.60100001 4287861388
-0.15812901 0.031342499 0.602 4287927181
-0.156251 0.031292502 0.60100001 4287992459
-0.154893 0.031346601 0.602 4288321424
-0.15301999 0.0312966 0.60100001 4288124045
-0.15140399 0.031298701 0.60100001 4288124045
-0.14929 0.0311966 0.59899998 4288518289
-0.14841799 0.031355001 0.602 4288320910
-0.147043 0.0314091 0.60299999 4288452496
-0.14566199 0.031463299 0.60399997 4288320910
-0.14427599 0.031517498 0.60500002 4288386957
-0.142648 0.0315197 0.60500002 4288386956
-0.14102 0.031521801 0.60500002 4288650128
-0.13916101 0.0314718 0.60399997 4288584336
-0.13776299 0.031525999 0.60500002 4288255371
-0.136584 0.031632401 0.60699999 4288386703
-0.134728 0.0315824 0.60600001 4288320910
-0.13287599 0.031532399 0.60500002 4288320910
-0.130813 0.0314303 0.60299999 4288386957
-0.129189 0.031432401 0.60299999 4288321164
-0.127564 0.031434499 0.60299999 4288057992
-0.126357 0.0315408 0.60500002 4288320906
-0.125139 0.031647202 0.60699999 4288057734
-0.1233 0.0315971 0.60600001 4288255113
-0.121466 0.031547099 0.60500002 4288255624
-0.119637 0.031497002 0.60399997 4288387210
-0.118008 0.031499099 0.60399997 4288715921
-0.116379 0.031501099 0.60399997 4288452750
-0.11475 0.031503201 0.60399997 4288452496
-0.112933 0.031452999 0.60299999 4288386957
-0.111306 0.0314551 0.60299999 4288518286
