# .PCD v0.7 - Point Cloud Data file format
VERSION 0.7
FIELDS x y z rgb
SIZE 4 4 4 4
TYPE F F F U
COUNT 1 1 1 1
WIDTH 1201
HEIGHT 1
VIEWPOINT 0 0 0 1 0 0 0
POINTS 1201
DATA ascii
0.198002 0.29251701 1.049 4280624158
0.200638 0.29223001 1.048 4281150757
0.203852 0.29278001 1.05 4283519050
0.20628899 0.29221499 1.048 4283321671
0.209113 0.29220799 1.048 4280821537
0.21153399 0.29164299 1.046 4280952609
0.21455801 0.29191399 1.0470001 4283255363
0.21758699 0.29218599 1.048 4282202675
0.220412 0.292178 1.048 4280492057
0.223023 0.29189199 1.0470001 4281084195
0.225629 0.29160601 1.046 4282861122
0.22866599 0.29187801 1.0470001 4283782224
0.23193 0.292429 1.049 4283255878
0.23475701 0.292422 1.049 4281808432
0.237131 0.29185799 1.0470001 4280492572
0.239494 0.29129401 1.045 4281808687
0.24231 0.29128799 1.045 4282335284
0.244656 0.29072401 1.043 4281874478
0.24722999 0.29043901 1.0420001 4280822045
0.25051799 0.29099101 1.044 4281808170
0.25381601 0.29154199 1.046 4283584328
0.25687999 0.29181501 1.0470001 4283058754
0.25945401 0.291531 1.046 4280821792
0.26202199 0.29124701 1.045 4282005297
0.26433101 0.290685 1.043 4282137397
0.266886 0.29040101 1.0420001 4281413674
0.269694 0.290396 1.0420001 4281084711
0.272764 0.29067001 1.043 4281676848
0.27557501 0.29066601 1.043 4283387466
0.27758601 0.28982601 1.04 4284176982
0.28011999 0.28954399 1.039 4282071604
0.282648 0.28926101 1.038 4280755744
0.28544599 0.289258 1.038 4281676846
0.287967 0.28897601 1.0369999 4283453257
0.291044 0.28925201 1.038 4283914322
0.29355901 0.28897101 1.0369999 4282137397
0.29635599 0.28896901 1.0369999 4281018402
0.298576 0.28840899 1.035 4283189571
0.30078501 0.28784999 1.033 4283782222
0.302984 0.287292 1.031 4282466362
0.30546901 0.28701201 1.03 4281874225
0.30824801 0.287011 1.03 4282005811
0.310725 0.28673199 1.029 4284571738
0.31350201 0.28673199 1.029 4285558633
0.31566501 0.28617501 1.027 4282729534
0.317817 0.28561801 1.025 4281742639
0.32027099 0.28534001 1.024 4283255880
0.322721 0.285063 1.023 4283847503
0.325802 0.285344 1.024 4285229417
0.32824701 0.28506699 1.023 4284637280
0.330688 0.28479099 1.022 4281479728
0.33344901 0.284794 1.022 4282927174
0.33588201 0.284518 1.021 4285427563
0.33831099 0.28424299 1.02 4284572254
0.34040001 0.28369001 1.018 4282072120
0.342816 0.283416 1.017 4282861636
0.345227 0.283142 1.016 4282928197
0.347976 0.28314701 1.016 4283915092
0.35072601 0.283153 1.016 4284243287
0.35347599 0.28316 1.016 4283124806
0.355526 0.28260899 1.0140001 4282664255
0.356859 0.28150201 1.01 4283584843
0.35888401 0.28095201 1.008 4283256143
0.36125699 0.28068101 1.007 4282992969
0.36434799 0.28096899 1.008 4284638047
0.36708099 0.28097799 1.008 4284572254
0.36981601 0.28098801 1.008 4282598464
0.372181 0.28072 1.007 4283453773
0.374542 0.28045201 1.006 4283322187
0.376899 0.280184 1.005 4283059015
0.37887299 0.27963901 1.003 4283651152
0.38159901 0.27965099 1.003 4283585873
0.38432601 0.27966499 1.003 4283651666
0.38782501 0.28023601 1.005 4283914324
0.38978201 0.27969301 1.003 4284769631
0.39212099 0.27942899 1.002 4284045908
0.394061 0.278887 1 4282532924
0.39599201 0.27834499 0.99800003 4283914577
0.39791301 0.27780399 0.99599999 4283651150
0.400226 0.27754301 0.995 4283651150
0.40294099 0.27756101 0.995 4285097568
0.40565699 0.27757901 0.995 4284900188
0.40837401 0.27759901 0.995 4283781447
0.41067901 0.27733999 0.99400002 4283189310
0.41297999 0.277082 0.99299997 4283715907
0.41527799 0.27682501 0.99199998 4283452735
0.41799301 0.276847 0.99199998 4282860858
0.42070901 0.27687001 0.99199998 4284308304
0.42300001 0.27661499 0.991 4283190075
0.42528799 0.27636001 0.99000001 4282268973
0.42800301 0.27638501 0.99000001 4282861365
0.43072101 0.276411 0.99000001 4283453247
0.433878 0.27671799 0.991 4281545250
0.436602 0.27674499 0.991 4281545250
0.439771 0.277053 0.99199998 4281676322
0.44250101 0.27708301 0.99199998 4281676577
0.44568199 0.277392 0.99299997 4282071080
0.44796801 0.27714401 0.99199998 4281939496
0.45161301 0.27773499 0.99400002 4281478691
0.454357 0.27776799 0.99400002 4281676585
0.45756301 0.278081 0.995 4281216034
0.46031401 0.27811599 0.995 4281807657
0.46399799 0.27871099 0.99699998 4282531379
0.46816301 0.27958599 1 4281215519
0.47046399 0.27934501 0.99900001 4281215773
0.47323501 0.27938399 0.99900001 4280952601
0.47600901 0.279423 0.99900001 4281281564
0.47974399 0.28002399 1.001 4281807910
0.48300999 0.28034499 1.002 4280952599
0.485315 0.280108 1.001 4280952601
0.488105 0.28015199 1.001 4280887068
0.49138701 0.28047699 1.002 4281347873
0.49369201 0.28024399 1.001 4281215771
0.497482 0.28085101 1.003 4280887061
-0.199405 0.30380201 1.1 4287136369
-0.19661701 0.30408701 1.101 4287333748
-0.193473 0.303819 1.1 4287202163
-0.19050699 0.30382699 1.1 4287729020
-0.187029 0.30300701 1.097 4287334775
-0.184238 0.30329099 1.098 4287861119
-0.18111201 0.30302301 1.097 4287202676
-0.17863999 0.30386001 1.1 4287663227
-0.17567299 0.303868 1.1 4288254850
-0.17286301 0.304153 1.101 4286938990
-0.16958401 0.303608 1.099 4286873197
-0.16677099 0.303893 1.1 4288056957
-0.163654 0.303624 1.099 4287267441
-0.16054299 0.30335599 1.098 4287071091
-0.157436 0.30308801 1.097 4287071096
-0.154476 0.303096 1.097 4286413427
-0.15151601 0.303103 1.097 4286544510
-0.148691 0.30338699 1.098 4287596944
-0.14572699 0.303395 1.098 4286807924
-0.142763 0.30340299 1.098 4286610793
-0.1398 0.30340999 1.098 4286346853
-0.136711 0.303141 1.097 4287399541
-0.133871 0.30342501 1.098 4286873197
-0.130788 0.30315599 1.097 4286544232
-0.127709 0.30288601 1.096 4286873197
-0.124408 0.302064 1.0930001 4286083681
-0.121568 0.30234799 1.094 4286149728
-0.118722 0.30263099 1.095 4286083681
-0.115976 0.30318999 1.097 4286018656
-0.113014 0.303197 1.097 4286347367
-0.10995 0.30292699 1.096 4285953122
-0.106697 0.302104 1.0930001 4286413673
-0.10365 0.301833 1.092 4286281834
-0.100792 0.30211601 1.0930001 4284768595
-0.097838998 0.302122 1.0930001 4285689695
-0.094799198 0.301851 1.092 4285031510
-0.091848798 0.30185699 1.092 4285426271
-0.088898197 0.301862 1.092 4285031513
-0.085868798 0.30159101 1.091 4284768341
-0.0828446 0.30131999 1.09 4284505169
-0.079752401 0.30077201 1.0880001 4284176204
-0.076811999 0.300776 1.0880001 4283650114
-0.073803604 0.30050501 1.087 4283386942
-0.070996098 0.30106199 1.089 4283255102
-0.068052597 0.30106601 1.089 4282926391
-0.065109096 0.30107099 1.089 4283452482
-0.061994102 0.30024499 1.086 4283452482
-0.059058499 0.30024901 1.086 4282004779
-0.056070998 0.29997599 1.085 4282202157
-0.0531868 0.30025601 1.086 4282662962
-0.050204501 0.29998299 1.085 4282662960
-0.047184002 0.29943299 1.0829999 4281939749
-0.044174202 0.29888299 1.081 4282268461
-0.041251499 0.298886 1.081 4281873703
-0.038364202 0.29916501 1.082 4282136621
-0.035373099 0.298614 1.08 4282268208
-0.0324228 0.29833999 1.079 4282334001
-0.0294505 0.29778901 1.077 4281873197
-0.026489001 0.29723799 1.075 4281807404
-0.023582101 0.29723901 1.075 4282070576
-0.020675199 0.297241 1.075 4282399540
-0.0177847 0.29751799 1.076 4281610538
-0.0148474 0.29696599 1.074 4281742378
-0.0119208 0.29641399 1.072 4281610792
-0.0090134405 0.29613799 1.071 4282202929
-0.0061171898 0.296139 1.071 4281545515
-0.00322393 0.29641601 1.072 4281611822
-0.00032434301 0.295863 1.0700001 4282006064
0.0025716301 0.296139 1.071 4281546027
0.0054678898 0.296139 1.071 4281216548
0.0083719604 0.296415 1.072 4281743147
0.0112499 0.29586101 1.0700001 4282137135
0.0141566 0.29613701 1.071 4281479205
0.0170369 0.29585999 1.0700001 4281544484
0.0198931 0.29530501 1.068 4281478692
0.0227811 0.295304 1.068 4281610277
0.0256931 0.29557899 1.069 4281807657
0.0286105 0.295854 1.0700001 4281675817
0.0314743 0.29557499 1.069 4281215266
0.034364801 0.295573 1.069 4281610024
0.0372901 0.295847 1.0700001 4281610278
0.040145598 0.29556799 1.069 4281018654
0.043035898 0.29556599 1.069 4281347873
0.045883201 0.295286 1.068 4281150240
0.048770599 0.29528299 1.068 4281216033
0.051658001 0.29528001 1.068 4281610791
0.054494102 0.29499999 1.067 4281216034
0.057486098 0.29554999 1.069 4281150241
0.060432401 0.29582199 1.0700001 4281544999
0.063324697 0.29581901 1.0700001 4281347366
0.066155098 0.29553801 1.069 4281544232
0.068979897 0.295257 1.068 4281807404
0.071866497 0.29525301 1.068 4281018402
0.074682899 0.294972 1.067 4281346852
0.077493899 0.294691 1.066 4282465587
0.080374703 0.29468599 1.066 4281544998
0.083333403 0.294958 1.067 4281150240
0.086135797 0.29467601 1.066 4281413666
0.0889327 0.29439399 1.0650001 4282137389
0.0918964 0.29466501 1.066 4281676838
0.094865397 0.294936 1.067 4281150494
0.097747996 0.29493099 1.067 4282136875
0.100442 0.29437199 1.0650001 4281215773
0.103319 0.294366 1.0650001 4281149727
0.106196 0.29436001 1.0650001 4282005036
0.109072 0.29435399 1.0650001 4282202929
0.111948 0.29434699 1.0650001 4281478952
0.114609 0.29378799 1.063 4280755230
0.11748 0.293782 1.063 4281676332
0.120237 0.29349899 1.062 4282071090
0.123336 0.294045 1.064 4282136882
0.126091 0.29376099 1.063 4281215780
0.128961 0.29375401 1.063 4281084194
0.131706 0.29347101 1.062 4281676331
0.13444699 0.29318801 1.061 4281742124
0.13744 0.293457 1.062 4281084195
0.14004201 0.29289699 1.0599999 4281873711
0.143038 0.29316601 1.061 4281742125
0.14576399 0.292882 1.0599999 4280755744
0.148344 0.29232201 1.058 4281478953
0.15105601 0.29203799 1.057 4282596919
0.154054 0.29230699 1.058 4281544232
0.156909 0.292299 1.058 4280952095
0.15976299 0.29229099 1.058 4281610025
0.16246399 0.292007 1.057 4283057985
0.165315 0.29199901 1.057 4281413160
0.16784801 0.291439 1.0549999 4280886815
0.170371 0.29087901 1.053 4281742124
0.173375 0.29114699 1.054 4282926399
0.176385 0.29141501 1.0549999 4281281573
0.17923 0.29140699 1.0549999 4281215780
0.18173 0.290847 1.053 4281347366
0.18457 0.29083899 1.053 4280427032
0.187409 0.290831 1.053 4281019171
0.19006699 0.29054701 1.052 4282532410
0.192904 0.290539 1.052 4282400824
0.195554 0.29025501 1.051 4280953123
0.198387 0.29024699 1.051 4280492572
0.200838 0.28968701 1.049 4282071089
0.20386 0.289956 1.05 4283715915
0.206296 0.28939599 1.048 4281742639
0.209121 0.289388 1.048 4280558365
0.211743 0.28910401 1.0470001 4281347367
0.214975 0.28964901 1.049 4282794813
0.217802 0.28964099 1.049 4281347367
0.22062901 0.28963399 1.049 4280689951
0.223456 0.28962699 1.049 4282071353
0.22606701 0.289343 1.048 4283255880
0.22911 0.289612 1.049 4282795329
0.23171601 0.28932899 1.048 4281742639
0.23454 0.28932199 1.048 4280953123
0.237137 0.28903899 1.0470001 4280427034
0.240188 0.289309 1.048 4281479720
0.243012 0.28930199 1.048 4282006319
0.24536601 0.28874299 1.046 4280690204
0.24794801 0.288461 1.045 4280822045
0.250763 0.28845501 1.045 4282466615
0.253822 0.28872499 1.046 4283124547
0.256641 0.288719 1.046 4282006066
0.25945899 0.28871301 1.046 4280755999
0.262027 0.288432 1.045 4281873710
0.26484299 0.288427 1.045 4282137397
0.26765901 0.28842199 1.045 4281216295
0.270475 0.28841701 1.045 4280953125
0.27329201 0.288412 1.045 4282071606
0.27584401 0.288131 1.044 4283847762
0.27785701 0.28729901 1.041 4283124294
0.280393 0.28701901 1.04 4281413674
0.282924 0.28673899 1.039 4280755744
0.28545001 0.28646001 1.038 4281676846
0.288248 0.28645599 1.038 4283124292
0.291327 0.28672901 1.039 4283124808
0.293845 0.28645101 1.038 4281150502
0.29692999 0.286724 1.039 4281281576
0.298866 0.28589401 1.036 4283189573
0.30136901 0.28561601 1.035 4283321671
0.30357301 0.28506199 1.033 4281611053
0.306063 0.284785 1.0319999 4281216295
0.308548 0.28450799 1.031 4283124292
0.31102699 0.28423101 1.03 4285163875
0.31350201 0.28395501 1.029 4284308566
0.31566399 0.28340301 1.027 4281939504
0.31812599 0.28312701 1.026 4281282088
0.32058299 0.28285199 1.025 4283255880
0.323351 0.28285301 1.025 4284308054
0.3258 0.28257799 1.024 4284769380
0.32824501 0.28230399 1.023 4281348144
0.33068499 0.28202999 1.022 4281479983
0.333446 0.282033 1.022 4284637792
0.33555001 0.28148401 1.02 4284638047
0.337975 0.28121099 1.0190001 4283124808
0.34039599 0.28093901 1.018 4281611569
0.34314901 0.28094301 1.018 4282137913
0.34556201 0.28067201 1.017 4283322701
0.34797099 0.28040099 1.016 4283388494
0.35106501 0.280682 1.017 4283519564
0.35347 0.28041199 1.016 4281940532
0.35587001 0.28014299 1.015 4282006325
0.357559 0.27932101 1.012 4282335290
0.35994399 0.279053 1.011 4282598464
0.36196601 0.27850899 1.0089999 4283059530
0.36433899 0.27824101 1.008 4283914324
0.366344 0.27769801 1.006 4282927429
0.36907199 0.27770701 1.006 4282006327
0.37106201 0.277165 1.0039999 4282795337
0.37378699 0.27717501 1.0039999 4282598464
0.37613699 0.27691001 1.003 4282532671
0.378106 0.27636901 1.001 4282664771
0.38158599 0.276934 1.003 4282204220
0.38392901 0.27667001 1.002 4282270267
0.38781101 0.27751201 1.005 4283914322
0.38937899 0.27669701 1.002 4283980115
0.39171401 0.276436 1.001 4282072118
0.39365101 0.27589801 0.99900001 4281809201
0.39557901 0.27536201 0.99699998 4282927682
0.39749601 0.27482599 0.995 4283257162
0.40020901 0.27484199 0.995 4283716943
0.403328 0.27513599 0.99599999 4284637786
0.40604499 0.27515501 0.99599999 4284242258
0.40794399 0.27462101 0.99400002 4282070829
0.41024601 0.27436399 0.99299997 4281873450
0.41254401 0.27410799 0.99199998 4282465586
0.41525599 0.274129 0.99199998 4281808170
0.41797 0.274151 0.99199998 4282071089
0.42068601 0.27417299 0.99199998 4283781707
0.42340299 0.274196 0.99199998 4282400057
0.42612201 0.27421999 0.99199998 4281676584
0.42884299 0.27424499 0.99199998 4283387960
0.43112999 0.273994 0.991 4282203947
0.433851 0.27401999 0.991 4280822296
0.43613401 0.27377099 0.99000001 4280888090
0.43929899 0.274075 0.991 4281216285
0.44158 0.27382699 0.99000001 4281544736
0.44610101 0.27496299 0.99400002 4281939494
0.44883999 0.27499399 0.99400002 4281084185
0.45248899 0.27557901 0.99599999 4281413150
0.454781 0.275334 0.995 4281281564
0.45798901 0.275644 0.99599999 4280821529
0.461667 0.276232 0.99800003 4281939756
0.46489301 0.276544 0.99900001 4281676070
0.46906301 0.27741 1.002 4281149726
0.47136801 0.27717099 1.001 4281281566
0.47414401 0.27720901 1.001 4280886808
0.47692201 0.277248 1.001 4281610529
0.480661 0.27784199 1.003 4281873703
0.48441401 0.27843699 1.005 4281084185
0.48672599 0.278202 1.0039999 4281215771
0.48952299 0.278245 1.0039999 4280953115
0.49281299 0.27856699 1.005 4282136873
0.495125 0.27833501 1.0039999 4282005542
0.49842599 0.27865899 1.005 4281413405
-0.199413 0.30084401 1.1 4287663228
-0.196447 0.300852 1.1 4287399542
-0.193481 0.30085999 1.1 4287400058
-0.19016799 0.300322 1.098 4287860864
-0.18703701 0.30005601 1.097 4287663740
-0.18407901 0.30006501 1.097 4288453256
-0.18095499 0.29980001 1.096 4287663740
-0.178324 0.30035499 1.098 4288386950
-0.17536201 0.300363 1.098 4288189571
-0.17271399 0.300919 1.1 4286149988
-0.16974699 0.30092701 1.1 4287400055
-0.166779 0.300935 1.1 4288451715
-0.163662 0.30067 1.099 4287662713
-0.160404 0.30013099 1.097 4287137143
-0.15730099 0.29986501 1.096 4287399290
-0.154484 0.300147 1.097 4286610806
-0.15124699 0.29960701 1.095 4288058263
-0.14842799 0.299889 1.096 4287597702
-0.145602 0.30017 1.097 4287334520
-0.14264099 0.30017799 1.097 4287334263
-0.13968 0.30018499 1.097 4287136623
-0.13646901 0.29964501 1.095 4287399795
-0.133513 0.29965299 1.095 4287531381
-0.130437 0.29938599 1.094 4287728760
-0.127367 0.29912001 1.0930001 4287070576
-0.124188 0.29857999 1.091 4287136623
-0.121353 0.29886001 1.092 4287860092
-0.11862 0.29941401 1.094 4287202162
-0.115772 0.29969499 1.095 4287202416
-0.112814 0.29970101 1.095 4287663227
-0.109756 0.29943401 1.094 4287531641
-0.106606 0.298893 1.092 4287663227
-0.103656 0.29889899 1.092 4287466108
-0.100706 0.29890499 1.092 4286216041
-0.097755298 0.29891101 1.092 4286544747
-0.094718099 0.29864299 1.091 4287531644
-0.0916861 0.29837501 1.09 4287400058
-0.088822201 0.29865399 1.091 4287136886
-0.085873999 0.29866001 1.091 4287268472
-0.083001703 0.29893801 1.092 4287136886
-0.079903901 0.29839599 1.09 4285755741
-0.076957896 0.298401 1.09 4286479213
-0.073944002 0.298132 1.089 4286676592
-0.071130902 0.298684 1.091 4287071096
-0.068056896 0.298141 1.089 4287005303
-0.065173 0.298419 1.09 4287070840
-0.062169299 0.29814899 1.089 4286280809
-0.059279699 0.298426 1.09 4285951842
-0.056281298 0.29815599 1.089 4285820510
-0.0532391 0.29761201 1.087 4285096786
-0.050207701 0.297068 1.085 4284570442
-0.047230601 0.29679701 1.084 4284965714
-0.044258799 0.29652601 1.0829999 4284571214
-0.041330501 0.296529 1.0829999 4284308042
-0.038366601 0.296258 1.082 4283979079
-0.035408098 0.295986 1.081 4283452481
-0.032485001 0.29598901 1.081 4282465587
-0.0295345 0.295717 1.08 4282531126
-0.0265646 0.29517099 1.0779999 4281741610
-0.0236494 0.29517299 1.0779999 4282267954
-0.020695699 0.29462701 1.076 4282070829
-0.017802401 0.294902 1.077 4282005035
-0.014876 0.29462901 1.076 4282005035
-0.0119438 0.29408199 1.074 4281939242
-0.00903928 0.294083 1.074 4282137135
-0.0061347201 0.294083 1.074 4281808170
-0.0032331599 0.294357 1.075 4281939756
-0.00032527401 0.29381001 1.073 4282005549
0.0025766001 0.29381001 1.073 4282006319
0.0054784599 0.29381001 1.073 4281743147
0.0083725099 0.29353499 1.072 4282072112
0.0112506 0.29298699 1.0700001 4281676585
0.0141575 0.29326001 1.071 4281347620
0.0170539 0.29325899 1.071 4281610278
0.019931599 0.29298401 1.0700001 4281412899
0.0228252 0.292983 1.0700001 4281281312
0.0256707 0.29243299 1.068 4281610278
0.0285588 0.29243201 1.068 4281281313
0.0314469 0.29243001 1.068 4281281059
0.0343027 0.29215401 1.067 4281741610
0.037222799 0.29242501 1.068 4281676071
0.0400731 0.29214901 1.067 4281281312
0.0429984 0.29242 1.068 4281413666
0.045886099 0.29241699 1.068 4281413666
0.0488194 0.29268801 1.069 4281413666
0.051661301 0.292411 1.068 4281808424
0.054548699 0.29240701 1.068 4281150240
0.057436001 0.292404 1.068 4281807656
0.060379699 0.29267401 1.069 4281544998
0.063328698 0.29294401 1.0700001 4281479205
0.066159204 0.29266599 1.069 4281676585
0.068984203 0.29238799 1.068 4281676584
0.071870901 0.292384 1.068 4281216034
0.074687503 0.29210499 1.067 4281610791
0.0774986 0.29182699 1.066 4281808424
0.080454998 0.29209599 1.067 4281084701
0.083338499 0.29209101 1.067 4281281826
0.086221904 0.29208499 1.067 4281742631
0.088938102 0.29153299 1.0650001 4281544998
0.091815703 0.291527 1.0650001 4281018654
0.094782203 0.29179499 1.066 4281610277
0.097662203 0.29179001 1.066 4281741863
0.100448 0.29150999 1.0650001 4281018140
0.103325 0.291504 1.0650001 4281149726
0.106202 0.29149801 1.0650001 4282136621
0.109283 0.29203901 1.067 4281939756
0.112165 0.29203299 1.067 4280887068
0.114723 0.29120499 1.064 4281281827
0.117486 0.290925 1.063 4281939757
0.120357 0.29091799 1.063 4281347620
0.123459 0.29145899 1.0650001 4281281827
0.12621599 0.29117799 1.064 4281084194
0.128968 0.29089701 1.063 4281215780
0.131714 0.29061699 1.062 4281742378
0.134707 0.290883 1.063 4281215780
0.137706 0.29114899 1.064 4281150241
0.14044601 0.29086801 1.063 4282005550
0.14318 0.29058701 1.062 4281413159
0.145909 0.290306 1.061 4281018401
0.148632 0.290025 1.0599999 4282136368
0.151493 0.29001701 1.0599999 4282136622
0.15420701 0.289736 1.059 4280820508
0.15691701 0.28945401 1.058 4281478438
0.159922 0.28972 1.059 4282662712
0.162625 0.28943899 1.058 4281807917
0.165636 0.28970399 1.059 4280886815
0.168175 0.28914899 1.057 4281084448
0.170702 0.28859401 1.0549999 4282400308
0.173548 0.28858599 1.0549999 4281610278
0.176727 0.289125 1.057 4280754968
0.17957801 0.28911701 1.057 4281611045
0.182083 0.288562 1.0549999 4280887322
0.184753 0.28828099 1.054 4280361492
0.18759499 0.28827301 1.054 4280953631
0.190437 0.28826499 1.054 4282335284
0.193278 0.288257 1.054 4281479975
0.195748 0.28770199 1.052 4280623643
0.198395 0.28742 1.051 4280821022
0.201037 0.287139 1.05 4282531640
0.204061 0.287404 1.051 4282268468
0.206698 0.28712299 1.05 4280755744
0.209528 0.28711501 1.05 4280558620
0.212155 0.286834 1.049 4281478952
0.215597 0.28764701 1.052 4282334261
0.21843299 0.28763899 1.052 4280690206
0.221057 0.28735799 1.051 4280755999
0.22367699 0.28707701 1.05 4282465847
0.22629 0.286796 1.049 4282203190
0.229554 0.28733599 1.051 4281347881
0.23194399 0.286782 1.049 4281676331
0.234771 0.28677499 1.049 4280952609
0.237597 0.28676799 1.049 4280624413
0.24042401 0.28676099 1.049 4281808171
0.24325 0.28675401 1.049 4281808940
0.245607 0.28619999 1.0470001 4280492825
0.248191 0.28592101 1.046 4281150755
0.25101 0.285914 1.046 4282729789
0.25382799 0.28590801 1.046 4282071859
0.256401 0.285629 1.045 4281019171
0.25896901 0.28534901 1.044 4281018401
0.26203299 0.28561699 1.045 4281347366
0.26484799 0.28561199 1.045 4281873711
0.26791999 0.28588 1.046 4280886816
0.27073899 0.28587401 1.046 4280886818
0.27355799 0.285869 1.046 4282729022
0.275848 0.28531799 1.044 4283452743
0.278395 0.28503999 1.043 4281676846
0.28066701 0.28448901 1.041 4281084709
0.2832 0.28421199 1.04 4280558620
0.28572801 0.28393501 1.039 4281677101
0.28852901 0.28393099 1.039 4282663741
0.29133001 0.28392801 1.039 4281874225
0.29413101 0.283925 1.039 4280558365
0.29693201 0.28392199 1.039 4281940020
0.29915699 0.283373 1.0369999 4283190087
0.30195299 0.283371 1.0369999 4282071606
0.304162 0.28282201 1.035 4281018918
0.30665699 0.28254801 1.034 4281742641
0.30884799 0.28200001 1.0319999 4284111189
0.31132999 0.28172499 1.031 4284374359
0.31411201 0.28172499 1.031 4282071604
0.31627899 0.281178 1.029 4280887330
0.318436 0.28063101 1.027 4281545260
0.32058299 0.280085 1.025 4282992706
0.32366499 0.280359 1.026 4284111189
0.326435 0.28036001 1.026 4282269499
0.32888499 0.28008801 1.025 4280953637
0.33100599 0.27954301 1.023 4282401085
0.333444 0.27927199 1.022 4284243289
0.33587599 0.27900201 1.021 4283322185
0.338635 0.27900499 1.021 4281216809
0.341061 0.27873501 1.02 4280887332
0.34381899 0.27873901 1.02 4282597950
0.34589699 0.27819601 1.018 4282993222
0.348308 0.27792799 1.017 4282993220
0.35036901 0.27738601 1.015 4282861634
0.35311601 0.277392 1.015 4281808946
0.35551301 0.27712399 1.0140001 4281808946
0.357905 0.276858 1.013 4282401083
0.36029199 0.276591 1.012 4282598978
0.36267501 0.27632499 1.011 4283256909
0.36433101 0.27551299 1.008 4283256139
0.366335 0.274975 1.006 4281940534
0.36906299 0.274984 1.006 4281677107
0.37142199 0.27472001 1.005 4282466623
0.37377599 0.27445701 1.0039999 4282203706
0.37612599 0.274194 1.003 4282466876
0.37809399 0.27365801 1.001 4282532671
0.381574 0.274216 1.003 4282467392
0.38429999 0.27422899 1.003 4282927429
0.38818401 0.27506199 1.006 4283980117
0.389754 0.27425501 1.003 4283190085
0.392483 0.27426901 1.003 4281743153
0.39403 0.27346301 1 4281678129
0.39596 0.27293101 0.99800003 4282862404
0.39787999 0.27239999 0.99599999 4283322955
0.400594 0.272416 0.99599999 4283849299
0.40371501 0.27270699 0.99699998 4284045649
0.40602699 0.27245101 0.99599999 4282597173
0.408335 0.27219599 0.995 4281215520
0.41063899 0.27194101 0.99400002 4281478692
0.412523 0.27141401 0.99199998 4281478692
0.41481701 0.27116099 0.991 4281807657
0.417106 0.270908 0.99000001 4282794813
0.419815 0.27092999 0.99000001 4282794813
0.422526 0.27095199 0.99000001 4282070837
0.42566901 0.271249 0.991 4281939757
0.427953 0.271 0.99000001 4282137895
0.43066901 0.271025 0.99000001 4281084952
0.43382499 0.27132401 0.991 4280559124
0.43610701 0.27107701 0.99000001 4281085469
0.43882799 0.27110401 0.99000001 4281084699
0.441551 0.27113199 0.99000001 4281215771
0.446071 0.27225599 0.99400002 4281149978
0.44971201 0.272834 0.99599999 4280689682
0.45245799 0.27286401 0.99599999 4280492303
0.45520601 0.27289599 0.99599999 4280623889
0.458415 0.27320299 0.99699998 4280689427
0.462558 0.27405801 1 4281742631
0.46578801 0.274367 1.001 4280953115
0.46949399 0.27495 1.003 4280624150
0.471802 0.274712 1.002 4280558357
0.47457901 0.27474999 1.002 4280558355
0.47688299 0.27451399 1.001 4281939749
0.480142 0.274827 1.002 4281281819
0.48389101 0.27541599 1.0039999 4280689427
0.487169 0.27573201 1.005 4280821013
0.489968 0.275774 1.005 4281084440
0.49325901 0.27609199 1.006 4281808163
0.496066 0.27613699 1.006 4281216026
0.49937201 0.27645701 1.007 4280952854
-0.19905899 0.29734299 1.098 4287991945
-0.19627699 0.29762301 1.099 4287531648
-0.193138 0.29736 1.098 4287860873
-0.19000401 0.29709801 1.097 4287861127
-0.18704499 0.297106 1.097 4288124298
-0.183919 0.29684401 1.096 4288387470
-0.18079799 0.29658201 1.095 4288321931
-0.17800701 0.29686099 1.096 4288387208
-0.17521 0.29714 1.097 4288255877
-0.172565 0.29769 1.099 4286939762
-0.169755 0.29796901 1.1 4288321415
-0.16663601 0.29770699 1.099 4287992705
-0.16337299 0.29717299 1.097 4287268982
-0.160266 0.29690999 1.096 4287532668
-0.15716501 0.296648 1.095 4287137918
-0.154351 0.29692701 1.096 4287336598
-0.151255 0.296664 1.095 4287401868
-0.148435 0.296942 1.096 4287006838
-0.14561 0.297221 1.097 4287334522
-0.142519 0.296958 1.096 4287268472
-0.13956 0.296965 1.096 4287399541
-0.136601 0.29697299 1.096 4287399541
-0.13352001 0.296709 1.095 4287399541
-0.130325 0.296175 1.0930001 4287596920
-0.127141 0.29563999 1.091 4287334262
-0.124309 0.29591799 1.092 4287465849
-0.121471 0.29619601 1.0930001 4287728506
-0.118736 0.296745 1.095 4287267955
-0.115673 0.29648101 1.094 4287465334
-0.112718 0.296487 1.094 4287333748
-0.109662 0.29622301 1.0930001 4287136883
-0.10671 0.296229 1.0930001 4287334262
-0.103757 0.29623601 1.0930001 4287137143
-0.100619 0.29570001 1.091 4286807924
-0.097582102 0.295434 1.09 4287005300
-0.094636999 0.29543999 1.09 4287136886
-0.091691598 0.29544601 1.09 4287333749
-0.088746198 0.29545099 1.09 4287070576
-0.085879199 0.295728 1.091 4287135855
-0.083006799 0.296004 1.092 4286938990
-0.079982102 0.29573801 1.091 4286610025
-0.076962702 0.295472 1.09 4287005298
-0.073948599 0.29520601 1.089 4287663230
-0.071005002 0.29521 1.089 4287663230
-0.068061203 0.29521501 1.089 4287400056
-0.0651173 0.295219 1.089 4287596921
-0.062173299 0.295223 1.089 4287201648
-0.059283499 0.29549801 1.09 4287070316
-0.056284901 0.29523 1.089 4287267695
-0.0532915 0.294963 1.0880001 4287334002
-0.0503035 0.29469499 1.087 4287334001
-0.047277201 0.29415599 1.085 4287465334
-0.044302501 0.293888 1.084 4287531127
-0.041333199 0.29361901 1.0829999 4287071090
-0.038404599 0.29362199 1.0829999 4287202677
-0.0355087 0.29389599 1.084 4287070323
-0.032577299 0.29389799 1.084 4286872944
-0.029618399 0.29362899 1.0829999 4286412647
-0.0266403 0.29308799 1.081 4285819995
-0.023694901 0.29281899 1.08 4284833614
-0.020735599 0.29227799 1.0779999 4285030993
-0.017820099 0.29227901 1.0779999 4284899661
-0.0149046 0.29227999 1.0779999 4284702796
-0.0119891 0.292281 1.0779999 4284637003
-0.0090651195 0.29201099 1.077 4284571210
-0.0061408398 0.29146901 1.075 4283124023
-0.0032303601 0.29119799 1.074 4282268459
-0.000325295 0.29092699 1.073 4282136873
0.00257677 0.29092699 1.073 4281808424
0.0054788198 0.29092699 1.073 4282137389
0.0083652502 0.29038399 1.071 4281808424
0.0112514 0.29011199 1.0700001 4281610278
0.0141585 0.29038301 1.071 4281741864
0.017054999 0.290382 1.071 4281741864
0.019970199 0.29065099 1.072 4281610278
0.022869401 0.29065001 1.072 4281544484
0.0257445 0.29037699 1.071 4281478691
0.028614201 0.290104 1.0700001 4281215519
0.031448901 0.28955999 1.068 4281610278
0.0343371 0.28955799 1.068 4281478692
0.0371904 0.289285 1.067 4281478691
0.0401132 0.28955299 1.068 4281149980
0.043041501 0.28982201 1.069 4281347871
0.045975 0.29008999 1.0700001 4281479457
0.048868202 0.29008701 1.0700001 4281413664
0.051761299 0.290084 1.0700001 4281413664
0.0546543 0.29008001 1.0700001 4281413666
0.0575472 0.290077 1.0700001 4281610531
0.06044 0.29007301 1.0700001 4281544738
0.063273497 0.28979799 1.069 4281347873
0.066039599 0.289251 1.067 4281610791
0.068923898 0.28924701 1.067 4281150240
0.071875401 0.28951401 1.068 4281544998
0.074762203 0.289509 1.068 4281413412
0.077576101 0.28923401 1.067 4281479459
0.080535397 0.2895 1.068 4281413666
0.083343603 0.289224 1.067 4281545252
0.086227097 0.28921801 1.067 4281741863
0.088943496 0.28867099 1.0650001 4281347106
0.091907501 0.28893599 1.066 4281412899
0.094787799 0.28893101 1.066 4281741864
0.097668 0.28892499 1.066 4281544485
0.100548 0.288919 1.066 4281149726
0.103234 0.288371 1.064 4281478691
0.106208 0.288636 1.0650001 4281741863
0.109187 0.288901 1.066 4281216033
0.112066 0.288894 1.066 4281150240
0.114622 0.288075 1.063 4281742377
0.117493 0.288068 1.063 4281544998
0.120364 0.28806099 1.063 4281150241
0.12335 0.28832501 1.064 4281478692
0.126105 0.28804699 1.063 4281281827
0.12885299 0.28776899 1.062 4281216034
0.131597 0.28749099 1.061 4281742378
0.134588 0.28775501 1.062 4280887069
0.137455 0.287747 1.062 4281281827
0.140321 0.28773999 1.062 4281413413
0.14291801 0.28718999 1.0599999 4280952862
0.145504 0.286641 1.058 4281215780
0.14836 0.28663301 1.058 4281938989
0.15135799 0.28689599 1.059 4281478438
0.15407 0.28661799 1.058 4281017887
0.15692399 0.28661001 1.058 4282333748
0.159779 0.28660199 1.058 4282004782
0.162633 0.286594 1.058 4280952609
0.165644 0.28685701 1.059 4280821022
0.16802301 0.28603601 1.056 4281742378
0.170872 0.286028 1.056 4282071343
0.17372 0.28602001 1.056 4280952347
0.176735 0.28628299 1.057 4280754968
0.17958599 0.286275 1.057 4281807910
0.182091 0.285725 1.0549999 4280689943
0.184936 0.28571701 1.0549999 4280624664
0.18778101 0.28570899 1.0549999 4281545766
0.190806 0.28597099 1.056 4281611559
0.19347 0.28569201 1.0549999 4280953631
0.195942 0.28514299 1.053 4280492311
0.19859201 0.28486401 1.052 4281215780
0.20123599 0.284585 1.051 4282071089
0.204264 0.284848 1.052 4281347366
0.207296 0.28511 1.053 4280557850
0.210334 0.285373 1.054 4280690206
0.212972 0.28509399 1.053 4281676585
0.21560501 0.284816 1.052 4281544745
0.218648 0.285079 1.053 4280492827
0.221275 0.28479999 1.052 4280426518
0.223897 0.284522 1.051 4281742377
0.22672901 0.28451401 1.051 4281347620
0.229561 0.28450701 1.051 4280755229
0.232393 0.28449899 1.051 4281281827
0.235002 0.28422201 1.05 4280755229
0.238057 0.28448501 1.051 4280427034
0.240889 0.28447801 1.051 4281479206
0.243489 0.28420001 1.05 4281150755
0.24608301 0.283923 1.049 4280558620
0.24843501 0.28337499 1.0470001 4281216548
0.25125599 0.28336799 1.0470001 4282071857
0.25383401 0.28309101 1.046 4281150755
0.25616199 0.28254399 1.044 4280821275
0.25922301 0.28280801 1.045 4280558103
0.26203799 0.28280199 1.045 4281084447
0.26536101 0.28333801 1.0470001 4281478952
0.26767001 0.28279099 1.045 4280623644
0.27048501 0.28278601 1.045 4280689437
0.27304 0.28251001 1.044 4282729020
0.276117 0.282776 1.045 4281742125
0.27866599 0.2825 1.044 4281347367
0.28148001 0.28249601 1.044 4280952609
0.28320399 0.281409 1.04 4280886816
0.285732 0.28113401 1.039 4281544745
0.288533 0.281131 1.039 4282071089
0.291614 0.281398 1.04 4281018916
0.29385099 0.280853 1.038 4280689951
0.29636401 0.280579 1.0369999 4282466364
0.29915899 0.280577 1.0369999 4282466364
0.301956 0.28057399 1.0369999 4280953125
0.30475199 0.280572 1.0369999 4280492319
0.30695501 0.280029 1.035 4282531902
0.30914801 0.279486 1.033 4283979603
0.31193501 0.27948499 1.033 4282795329
0.314722 0.279484 1.033 4281545262
0.317202 0.27921301 1.0319999 4280623644
0.319056 0.27840099 1.029 4281940018
0.321208 0.27785999 1.027 4283058499
0.32398 0.27785999 1.027 4282926913
0.32707101 0.27813101 1.028 4281808434
0.32952499 0.27786201 1.027 4280690465
0.33165199 0.27732199 1.025 4283124806
0.33376801 0.27678299 1.023 4283387978
0.336532 0.27678499 1.023 4281611567
0.33929601 0.276788 1.023 4280887844
0.34172601 0.27652001 1.022 4281479467
0.344152 0.27625301 1.021 4282268983
0.34623301 0.27571601 1.0190001 4282532157
0.348304 0.275179 1.017 4282071604
0.350364 0.27464199 1.015 4282269238
0.352763 0.27437699 1.0140001 4281479467
0.35585701 0.27465299 1.015 4281480236
0.35825199 0.274389 1.0140001 4282467131
0.36135399 0.27466601 1.015 4282993990
0.36338499 0.27413201 1.013 4282927943
0.36540699 0.27359799 1.011 4282335292
0.367419 0.273065 1.0089999 4281677360
0.37015399 0.27307299 1.0089999 4281479983
0.37252101 0.27281201 1.008 4282269499
0.374511 0.27228001 1.006 4282006325
0.37649101 0.27174899 1.0039999 4282335290
0.37883899 0.27148899 1.003 4282137911
0.38194299 0.27177101 1.0039999 4282270013
0.384671 0.27178201 1.0039999 4282927427
0.38778499 0.27206501 1.005 4283124806
0.390129 0.27180699 1.0039999 4281874739
0.39286 0.27182099 1.0039999 4281151016
0.394804 0.271294 1.002 4282270267
0.39673799 0.270767 1 4283191369
0.39866301 0.27024001 0.99800003 4283388748
0.401382 0.27025601 0.99800003 4283454026
0.403698 0.27000201 0.99699998 4282729273
0.40600899 0.269748 0.99599999 4281412898
0.408317 0.26949501 0.995 4281149727
0.411033 0.26951399 0.995 4281346852
0.413335 0.26926199 0.99400002 4281478438
0.41563299 0.26901099 0.99299997 4282136369
0.41750601 0.26848999 0.991 4283189571
0.42021799 0.268511 0.991 4282268468
0.42250401 0.268262 0.99000001 4281610792
0.42521599 0.26828501 0.99000001 4282071082
0.427497 0.26803699 0.98900002 4281478943
0.43064401 0.268332 0.99000001 4280755475
0.43336099 0.26835701 0.99000001 4280690196
0.43608001 0.268383 0.99000001 4280887320
0.439244 0.26868099 0.991 4281150492
0.442415 0.26897901 0.99199998 4280887320
0.446042 0.26955 0.99400002 4281149978
0.45013401 0.270392 0.99699998 4280492303
0.45288101 0.27042201 0.99699998 4280492303
0.45608801 0.270724 0.99800003 4280821268
0.45884201 0.27075601 0.99800003 4281150233
0.462524 0.271332 1 4281610529
0.46528801 0.27136499 1 4280361231
0.468523 0.271671 1.001 4280427024
0.470824 0.27143499 1 4280493332
0.47359499 0.27147201 1 4280690710
0.476845 0.271781 1.001 4281545505
0.48010299 0.272091 1.002 4280689941
0.48385099 0.27267301 1.0039999 4280360462
0.48615801 0.27244201 1.003 4280689427
0.489438 0.272755 1.0039999 4281084185
0.49272501 0.27306899 1.005 4281149978
0.49552801 0.27311301 1.005 4280689682
0.49833399 0.27315801 1.005 4280623634
-0.199067 0.29438999 1.098 4288255885
-0.196107 0.29439801 1.098 4288453264
-0.19296999 0.294139 1.097 4288519571
-0.189666 0.29361099 1.095 4288190606
-0.186883 0.293888 1.096 4288651157
-0.183928 0.29389599 1.096 4288453778
-0.181137 0.294173 1.097 4288782229
-0.17801499 0.29391301 1.096 4288650128
-0.175219 0.29418999 1.097 4288189831
-0.172417 0.294467 1.098 4287860866
-0.16945501 0.29447499 1.098 4288255622
-0.16634101 0.29421499 1.097 4288321415
-0.163083 0.29368699 1.095 4287861380
-0.159982 0.29342699 1.094 4287467399
-0.156886 0.293167 1.0930001 4285888882
-0.154218 0.29371199 1.095 4288322212
-0.151263 0.29372001 1.095 4287204235
-0.14830799 0.29372799 1.095 4287335558
-0.14535201 0.29373601 1.095 4288123531
-0.14226601 0.293475 1.094 4287794820
-0.139313 0.29348299 1.094 4287663230
-0.136235 0.29322201 1.0930001 4287531644
-0.133284 0.29322901 1.0930001 4287400056
-0.13021301 0.29296899 1.092 4287400056
-0.127148 0.29270801 1.091 4287597694
-0.124316 0.292983 1.092 4287531901
-0.121367 0.29299 1.092 4287400056
-0.118526 0.29326501 1.0930001 4287400056
-0.115362 0.29273501 1.091 4287268469
-0.112312 0.292474 1.09 4287597434
-0.109368 0.29247999 1.09 4287729020
-0.106521 0.29275501 1.091 4287400313
-0.103573 0.292761 1.091 4287531901
-0.100533 0.29249901 1.09 4287400061
-0.097409002 0.29196799 1.0880001 4287334522
-0.0945559 0.292243 1.089 4287202679
-0.091613099 0.29224801 1.089 4287663227
-0.088670202 0.292254 1.089 4287596920
-0.085727103 0.29225901 1.089 4287399541
-0.0827839 0.29226401 1.089 4287202162
-0.079913802 0.29253799 1.09 4287136369
-0.0769675 0.29254299 1.09 4287268470
-0.073953196 0.29227901 1.089 4287071093
-0.071009398 0.29228401 1.089 4287136886
-0.068002999 0.29201999 1.0880001 4287268470
-0.065001801 0.291756 1.087 4287136369
-0.062063001 0.29176 1.087 4287070062
-0.059069701 0.291495 1.086 4287465073
-0.0561851 0.291767 1.087 4287465073
-0.053245999 0.29177099 1.087 4287399795
-0.050306801 0.291774 1.087 4287202415
-0.047323901 0.291509 1.086 4287202162
-0.044305399 0.290975 1.084 4287465334
-0.041335899 0.29070899 1.0829999 4287333748
-0.038407099 0.290712 1.0829999 4287136369
-0.035478301 0.290714 1.0829999 4287531127
-0.032549299 0.29071701 1.0829999 4287464820
-0.029565699 0.29018199 1.081 4287465074
-0.0266174 0.289915 1.08 4286938215
-0.0236525 0.28938001 1.0779999 4286675557
-0.020717699 0.28911299 1.077 4287267685
-0.0178048 0.289114 1.077 4287004520
-0.0148918 0.28911501 1.077 4286807911
-0.0119899 0.28938499 1.0779999 4286281820
-0.0090741403 0.28938499 1.0779999 4286215774
-0.0061583798 0.289386 1.0779999 4285558104
-0.00323659 0.288849 1.076 4284702796
-0.000326226 0.28885001 1.076 4283979332
0.00258174 0.28858101 1.075 4285229399
0.00548429 0.28831199 1.074 4285295192
0.0083814198 0.28804299 1.073 4284308297
0.0112731 0.287774 1.072 4283978820
0.0141726 0.28777301 1.072 4283913027
0.017088 0.288041 1.073 4283584062
0.020008801 0.28830799 1.074 4283057717
0.0228709 0.28777 1.072 4282662445
0.0257462 0.28749999 1.071 4282596652
0.028616101 0.287229 1.0700001 4282596906
0.031480402 0.28695899 1.069 4282004515
0.034339398 0.286688 1.068 4282399274
0.037227601 0.286686 1.068 4281741858
0.040153399 0.28695199 1.069 4282333994
0.043124799 0.28748599 1.071 4281610784
0.046021 0.28748301 1.071 4281676577
0.048962701 0.28774899 1.072 4282071849
0.051812999 0.28747699 1.071 4282006056
0.054657798 0.28720501 1.0700001 4282203182
0.057497099 0.286933 1.069 4282268975
0.060387399 0.28692901 1.069 4282597686
0.0633367 0.28719401 1.0700001 4281808424
0.0661676 0.28692099 1.069 4282202928
0.068992898 0.28664801 1.068 4282268721
0.071879901 0.28664401 1.068 4281874731
0.074766897 0.286639 1.068 4281873963
0.077653699 0.28663501 1.068 4281479459
0.080615804 0.28689799 1.069 4282466352
0.083504997 0.28689301 1.069 4281610529
0.086313203 0.28661901 1.068 4282071082
0.089115903 0.28634599 1.067 4281281566
0.0919993 0.28634 1.067 4281412895
0.094882503 0.28633401 1.067 4281872930
0.097765498 0.28632799 1.067 4281609504
0.10046 0.285786 1.0650001 4281741090
0.10324 0.28551099 1.064 4281610020
0.106214 0.28577301 1.0650001 4281544738
0.109091 0.28576699 1.0650001 4281347357
0.111968 0.285761 1.0650001 4281544736
0.114737 0.28548601 1.064 4282005289
0.117721 0.28574699 1.0650001 4281807656
0.120597 0.28573999 1.0650001 4281149726
0.123357 0.285465 1.064 4281610278
0.126112 0.28518999 1.063 4281346852
0.12898199 0.28518301 1.063 4281215266
0.131852 0.285175 1.063 4281741610
0.134849 0.285436 1.064 4281149987
0.137721 0.285429 1.064 4280952861
0.140461 0.285153 1.063 4281413666
0.143061 0.28460899 1.061 4280887068
0.145787 0.28433299 1.0599999 4281215519
0.14864799 0.284325 1.0599999 4281676070
0.151508 0.284318 1.0599999 4280754968
0.154369 0.28431001 1.0599999 4281347106
0.15708099 0.28403401 1.059 4281939243
0.15993799 0.28402501 1.059 4281281313
0.16279501 0.284017 1.059 4280886815
0.16549601 0.283741 1.058 4280952862
0.16835 0.28373301 1.058 4281807656
0.171042 0.28345701 1.057 4281018394
0.173893 0.28344899 1.057 4281018392
0.176576 0.28317201 1.056 4280952599
0.179594 0.28343201 1.057 4281939496
0.1821 0.282888 1.0549999 4280821013
0.185295 0.283416 1.057 4280886808
0.188145 0.283407 1.057 4282005289
0.19099499 0.28339899 1.057 4281084701
0.193478 0.28285399 1.0549999 4280558103
0.19595 0.28231001 1.053 4280821276
0.19859999 0.28203401 1.052 4281610792
0.201436 0.28202599 1.052 4280886815
0.204272 0.28201699 1.052 4280886301
0.207304 0.28227699 1.053 4280623643
0.210142 0.282269 1.053 4281281827
0.21298 0.28226101 1.053 4281478691
0.21561299 0.28198501 1.052 4280689689
0.218656 0.28224501 1.053 4280360978
0.221283 0.28196901 1.052 4281281566
0.22411799 0.28196099 1.052 4281807910
0.226953 0.28195399 1.052 4280492310
0.22978701 0.281946 1.052 4280952862
0.232843 0.28220701 1.053 4281150241
0.23568 0.282199 1.053 4280623643
0.238517 0.28219199 1.053 4280492057
0.241355 0.282184 1.053 4281413413
0.243728 0.28164101 1.051 4280952608
0.246325 0.28136599 1.05 4280557850
0.248679 0.28082401 1.048 4281742378
0.25174299 0.28108501 1.049 4280755482
0.25408301 0.28054199 1.0470001 4281149980
0.25690401 0.280536 1.0470001 4281018392
0.259725 0.28053001 1.0470001 4280821015
0.262546 0.28052399 1.0470001 4281149726
0.265113 0.28025001 1.046 4281676071
0.26767501 0.27997601 1.045 4280689690
0.27074999 0.280238 1.046 4281413159
0.273568 0.280233 1.046 4282005296
0.276651 0.280496 1.0470001 4281018401
0.27920499 0.28022301 1.046 4281544999
0.28175399 0.27994999 1.045 4281084194
0.28402501 0.27941 1.043 4280689437
0.286286 0.27886999 1.041 4281939504
0.289092 0.27886599 1.041 4281807918
0.29189801 0.278862 1.041 4280492572
0.29442099 0.27858999 1.04 4281150502
0.29665199 0.27805099 1.038 4282137397
0.29945099 0.27804801 1.038 4282005811
0.30224901 0.27804601 1.038 4280689951
0.30504799 0.278043 1.038 4280755746
0.30725399 0.27750501 1.036 4282597695
0.31004801 0.27750301 1.036 4282926660
0.313144 0.27777001 1.0369999 4282005558
0.31563699 0.2775 1.036 4281018916
0.318124 0.27723199 1.035 4280558365
0.319677 0.27616 1.031 4281611053
0.322146 0.27589101 1.03 4282269238
0.32460999 0.27562401 1.029 4282005811
0.32770601 0.27589199 1.03 4281018916
0.32984501 0.27535701 1.028 4281018916
0.332297 0.27509001 1.027 4283255878
0.33441901 0.27455601 1.025 4282597948
0.33751601 0.27482599 1.026 4281085223
0.33995599 0.27456 1.025 4280822051
0.34205699 0.27402699 1.023 4281348395
0.34448501 0.27376199 1.022 4282335290
0.346569 0.27322999 1.02 4281874739
0.348984 0.272966 1.0190001 4282137397
0.35104999 0.27243501 1.017 4281742894
0.35345301 0.272172 1.016 4281282343
0.35585201 0.271909 1.015 4281611820
0.358246 0.27164701 1.0140001 4282665278
0.360991 0.271653 1.0140001 4283059782
0.36337799 0.27139199 1.013 4282730818
0.36576101 0.27113101 1.012 4281546544
0.36777499 0.270603 1.01 4281282602
0.37014601 0.27034301 1.0089999 4281479469
0.372881 0.27035201 1.0089999 4282203451
0.374874 0.26982501 1.007 4282137658
0.377231 0.26956701 1.006 4282137658
0.379206 0.269041 1.0039999 4282335292
0.38193199 0.269052 1.0039999 4282730818
0.38465899 0.269063 1.0039999 4282795841
0.38777301 0.26934299 1.005 4282072373
0.39050499 0.269355 1.005 4280888099
0.39284599 0.26910001 1.0039999 4281940532
0.39439601 0.26831001 1.001 4282336060
0.39712 0.26832399 1.001 4283322955
0.39944601 0.268071 1 4283257162
0.40217 0.26808599 1 4282796096
0.40408599 0.267566 0.99800003 4281545768
0.405992 0.267046 0.99599999 4281018654
0.408299 0.26679501 0.995 4281018141
0.411015 0.26681301 0.995 4281412899
0.41373199 0.26683199 0.995 4281938989
0.415613 0.26631501 0.99299997 4283123263
0.417907 0.266067 0.99199998 4283057984
0.419772 0.265551 0.99000001 4282005550
0.42248201 0.26557201 0.99000001 4281544998
0.42519301 0.26559401 0.99000001 4281413152
0.42790601 0.26561701 0.99000001 4280755220
0.43105501 0.26590899 0.991 4280426510
0.43333599 0.26566499 0.99000001 4281084954
0.43649501 0.26595801 0.991 4281150747
0.439217 0.265984 0.991 4280887320
0.443279 0.26681599 0.99400002 4280953113
0.44691101 0.26738101 0.99599999 4281084185
0.45055601 0.267946 0.99800003 4280557841
0.45330599 0.26797599 0.99800003 4280623889
0.456514 0.26827401 0.99900001 4280689682
0.45973 0.268574 1 4281544991
0.46249101 0.26860601 1 4281084185
0.46572 0.26890701 1.001 4280361231
0.46848801 0.26894099 1.001 4280427024
0.471259 0.268976 1.001 4280427024
0.47403201 0.269012 1.001 4281019161
0.47728401 0.269317 1.002 4280953368
0.48054299 0.26962399 1.003 4280229390
0.48381099 0.26993099 1.0039999 4280426771
0.48611799 0.26970199 1.003 4280689943
0.48939601 0.27001101 1.0039999 4280689943
0.49268299 0.270322 1.005 4280492310
0.49647099 0.27090299 1.007 4280821529
0.49928099 0.27094701 1.007 4280360978
-0.19889501 0.29117101 1.097 4287992713
-0.19593699 0.29118001 1.097 4287926920
-0.192803 0.290923 1.096 4287926920
-0.18984801 0.29093099 1.096 4288124815
-0.186892 0.29093999 1.096 4288322194
-0.184104 0.29121399 1.097 4287795850
-0.181145 0.29122299 1.097 4287532678
-0.177862 0.290701 1.095 4287992713
-0.174908 0.29070899 1.095 4287794819
-0.17195401 0.29071799 1.095 4287992452
-0.169154 0.29099199 1.096 4288189829
-0.16604599 0.29073399 1.095 4288255884
-0.162644 0.28994599 1.092 4287861641
-0.15940499 0.28942299 1.09 4287073416
-0.156607 0.28969699 1.091 4287007623
-0.15408599 0.29050201 1.094 4288191898
-0.151271 0.29077601 1.095 4287994004
-0.14817999 0.29051799 1.094 4288585111
-0.145227 0.290526 1.094 4288387218
-0.142014 0.290003 1.092 4288321425
-0.139066 0.29001001 1.092 4288518804
-0.13611799 0.29001799 1.092 4288518289
-0.13329101 0.29029101 1.0930001 4288584335
-0.13022099 0.29003301 1.092 4288452749
-0.127039 0.289509 1.09 4288387210
-0.124209 0.28978199 1.091 4288584589
-0.121151 0.28952301 1.09 4288453001
-0.118316 0.28979599 1.091 4287992705
-0.115052 0.28900599 1.0880001 4288190084
-0.112216 0.289278 1.089 4288190084
-0.109274 0.289285 1.089 4288190084
-0.106527 0.289823 1.091 4287926912
-0.103484 0.289563 1.09 4287794819
-0.100355 0.289038 1.0880001 4287926405
-0.0973254 0.28877899 1.087 4288123784
-0.0944748 0.28905001 1.0880001 4288057991
-0.0915346 0.289056 1.0880001 4287860866
-0.088594198 0.28906101 1.0880001 4287860864
-0.0856537 0.289067 1.0880001 4287597692
-0.082713 0.28907201 1.0880001 4287860864
-0.079845503 0.289343 1.089 4287795073
-0.076760501 0.288816 1.087 4287663487
-0.073822103 0.28882101 1.087 4287597440
-0.070753098 0.28829399 1.085 4287531901
-0.067819797 0.28829899 1.085 4287729278
-0.0648266 0.288037 1.084 4287400056
-0.061895698 0.288041 1.084 4287202676
-0.0589104 0.28777999 1.0829999 4287531641
-0.056033701 0.28804901 1.084 4287531641
-0.053151499 0.28831801 1.085 4287532154
-0.050217502 0.288322 1.085 4287597947
-0.047239799 0.288059 1.084 4287400055
-0.044185702 0.287265 1.081 4287334262
-0.041262198 0.28726801 1.081 4287531127
-0.0383032 0.28700501 1.08 4287333748
-0.035415102 0.28727299 1.081 4287596920
-0.0324613 0.287009 1.08 4287530613
-0.0294856 0.28648001 1.0779999 4287596660
-0.026569899 0.28648201 1.0779999 4287136108
-0.023610201 0.285952 1.076 4287398764
-0.020699801 0.28595299 1.076 4287464812
-0.0177729 0.285689 1.075 4287267947
-0.0148928 0.286221 1.077 4287465326
-0.0119796 0.28622201 1.077 4287662450
-0.0090663303 0.28622299 1.077 4287202669
-0.0061359401 0.28542599 1.074 4287070315
-0.0032277899 0.28516099 1.073 4287070829
-0.00032503501 0.284895 1.072 4287202416
0.0025747099 0.284895 1.072 4287465588
0.0054744398 0.284895 1.072 4287136369
0.0083663603 0.28462899 1.071 4287136369
0.0112634 0.284628 1.071 4287333234
0.0141736 0.28489301 1.072 4287070315
0.017089199 0.28515801 1.073 4287070566
0.0199915 0.28515601 1.073 4286872937
0.0228724 0.28488901 1.072 4286675810
0.025796 0.285153 1.073 4286346590
0.0286447 0.28461999 1.071 4285951832
0.031512 0.284352 1.0700001 4285820249
0.0343416 0.28381899 1.068 4285754716
0.037264999 0.284082 1.069 4285886566
0.040231202 0.28461099 1.071 4286413161
0.0431679 0.28487399 1.072 4286545259
