# .PCD v0.7 - Point Cloud Data file format
VERSION 0.7
FIELDS x y z rgb
SIZE 4 4 4 4
TYPE F F F U
COUNT 1 1 1 1
WIDTH 1124
HEIGHT 1
VIEWPOINT 0 0 0 1 0 0 0
POINTS 1124
DATA ascii
-0.18924201 0.439675 1.029 4287532415
-0.186278 0.439239 1.028 4287532161
-0.183678 0.43965799 1.029 4287663748
-0.180721 0.43922299 1.028 4287795081
-0.17794199 0.43921599 1.028 4288058252
-0.175164 0.439208 1.028 4288387217
-0.17238501 0.439201 1.028 4288387471
-0.169442 0.43876699 1.027 4288649876
-0.166343 0.437906 1.025 4288452749
-0.16325399 0.43704501 1.023 4288913807
-0.16033299 0.43661201 1.022 4288848014
-0.157726 0.43703401 1.023 4288650635
-0.154962 0.43702799 1.023 4288322184
-0.15205 0.43659601 1.022 4288255624
-0.14899699 0.435736 1.02 4288387210
-0.14624199 0.43573099 1.02 4287795333
-0.143347 0.43529901 1.0190001 4288452750
-0.14087 0.436149 1.021 4288189831
-0.13811301 0.43614501 1.021 4287664001
-0.135355 0.43614101 1.021 4287204732
-0.13194899 0.434001 1.016 4285889386
-0.12869699 0.432289 1.012 4285496449
-0.12559 0.43100399 1.0089999 4286745219
-0.123109 0.43185401 1.011 4286940015
-0.120379 0.431851 1.011 4287203189
-0.117301 0.430567 1.008 4287268723
-0.113783 0.42757401 1.001 4286873712
-0.109638 0.42201799 0.98799998 4287005297
-0.104913 0.41389999 0.96899998 4287202162
-0.099658102 0.40321901 0.94400001 4286938729
-0.092994697 0.38613099 0.90399998 4287070313
-0.087248497 0.37203401 0.87099999 4287070829
-0.080218598 0.351529 0.82300001 4287071090
-0.073353 0.330598 0.77399999 4287136883
-0.067672797 0.31393901 0.73500001 4286610797
-0.061935 0.29599801 0.69300002 4286807925
-0.0565974 0.27891201 0.653 4287070337
-0.054414801 0.276775 0.648 4289973484
-0.052665599 0.27677399 0.648 4288397031
-0.051309299 0.278909 0.653 4281485169
-0.048939701 0.275491 0.64499998 4281358980
-0.0463937 0.27079201 0.634 4291819519
-0.044330001 0.268655 0.62900001 4291425277
-0.0425644 0.26822799 0.62800002 4291096828
-0.0408043 0.2678 0.62699997 4291097085
-0.0389871 0.266945 0.625 4291097085
-0.037240501 0.26651701 0.62400001 4291031037
-0.035556301 0.26651701 0.62400001 4290965244
-0.033872001 0.266516 0.62400001 4291162623
-0.0322394 0.26694301 0.625 4291031037
-0.030601401 0.267369 0.62599999 4291031037
-0.028911799 0.267369 0.62599999 4291031037
-0.027135201 0.266514 0.62400001 4291031037
-0.0254102 0.266087 0.62300003 4290965244
-0.023690701 0.265659 0.62199998 4291031037
-0.021976501 0.265232 0.62099999 4291031037
-0.0203331 0.265659 0.62199998 4290834172
-0.0186843 0.26608601 0.62300003 4290965758
-0.017002899 0.266085 0.62300003 4290899965
-0.0153214 0.266085 0.62300003 4290768379
-0.0136181 0.26565799 0.62199998 4290768379
-0.0119969 0.26693901 0.625 4290768379
-0.0103266 0.26736599 0.62599999 4290702586
-0.0086370399 0.26736599 0.62599999 4290834172
-0.00693641 0.26693901 0.625 4290834172
-0.0052327798 0.26608399 0.62300003 4290637563
-0.00355134 0.26608399 0.62300003 4290769149
-0.00187291 0.26651099 0.62400001 4290703356
-0.000188776 0.26651099 0.62400001 4290703356
0.00149296 0.26608399 0.62300003 4290834172
0.0031794901 0.26651099 0.62400001 4290571770
0.0048636198 0.26651099 0.62400001 4290703356
0.0065582502 0.26693901 0.625 4290571770
0.0082187001 0.26608399 0.62300003 4290505977
0.0099001396 0.266085 0.62300003 4290637563
0.0115816 0.266085 0.62300003 4290571000
0.013263 0.266085 0.62300003 4290636793
0.0149685 0.26651201 0.62400001 4290571770
0.016652601 0.26651201 0.62400001 4290571770
0.018307401 0.266085 0.62300003 4290374905
0.019956799 0.265659 0.62199998 4290440184
0.021635501 0.265659 0.62199998 4290571516
0.0233893 0.26651299 0.62400001 4290637563
0.025113599 0.26694101 0.625 4290440184
0.026843401 0.26736799 0.62599999 4290637563
0.028487399 0.26694199 0.625 4290505977
0.030126 0.26651499 0.62400001 4290440698
0.031759299 0.26608801 0.62300003 4290374905
0.033494499 0.266516 0.62400001 4290374651
0.035178699 0.266516 0.62400001 4290308858
0.036922 0.26694399 0.625 4290439930
0.038609002 0.266945 0.625 4290505723
0.040360399 0.26737201 0.62599999 4290505723
0.0419829 0.26694599 0.625 4290374651
0.043669902 0.266947 0.625 4290374651
0.045429502 0.26737499 0.62599999 4290309628
0.0471192 0.26737499 0.62599999 4290178042
0.048808999 0.26737601 0.62599999 4290243835
0.0502568 0.266096 0.62300003 4290440444
0.052021801 0.26652399 0.62400001 4290374905
0.053620201 0.26609799 0.62300003 4290308858
0.055390701 0.26652601 0.62400001 4290637309
0.057166599 0.266954 0.625 4290374651
0.058947999 0.26738301 0.62599999 4290374651
0.060541101 0.26695701 0.625 4290308858
0.0622283 0.266958 0.625 4290374651
0.063915603 0.26696 0.625 4290374651
0.065603003 0.26696101 0.625 4290440444
0.067290299 0.26696301 0.625 4290112249
0.0688674 0.26653701 0.62400001 4290243835
0.070552103 0.26653901 0.62400001 4290046201
0.0723527 0.26696801 0.625 4290112249
0.074158698 0.26739699 0.62599999 4290177787
0.075970203 0.26782599 0.62699997 4290308859
0.0772916 0.26654699 0.62400001 4290243066
0.078850098 0.26612201 0.62300003 4290308859
0.080790997 0.266978 0.625 4290243066
0.082478799 0.26698101 0.625 4290308859
0.084166698 0.266983 0.625 4290374652
0.085854597 0.26698601 0.625 4290111994
0.087682702 0.267416 0.62599999 4290046201
0.089230798 0.266992 0.625 4290046201
0.090918899 0.266994 0.625 4290111994
0.092459001 0.26657 0.62400001 4290308859
0.094295502 0.267001 0.625 4290374652
0.095983997 0.26700401 0.625 4290243066
0.097828798 0.26743501 0.62599999 4290243066
0.099520102 0.26743901 0.62599999 4290177273
0.101212 0.26744199 0.62599999 4290111994
0.103067 0.267874 0.62699997 4290111994
0.104762 0.267878 0.62699997 4290046201
0.106626 0.268309 0.62800002 4290111994
0.108323 0.268314 0.62800002 4290111994
0.109846 0.26789099 0.62699997 4290046201
0.11154 0.267896 0.62699997 4289980408
0.113416 0.26832801 0.62800002 4290177787
0.11548 0.26918799 0.63 4290177787
0.11737 0.26962 0.63099998 4290111996
0.118887 0.26919901 0.63 4289980410
0.120208 0.26835001 0.62800002 4290046203
0.121907 0.268356 0.62800002 4289980410
0.123802 0.26878899 0.62900001 4289980410
0.12570301 0.269223 0.63 4289980410
0.127408 0.26923001 0.63 4290046203
0.129522 0.270091 0.63200003 4290046203
0.13123199 0.270098 0.63200003 4290111996
0.13315301 0.270533 0.63300002 4290046203
0.134866 0.27054 0.63300002 4289848824
0.13701101 0.27140301 0.63499999 4289848824
0.139167 0.272266 0.63700002 4289717497
0.141335 0.27312899 0.639 4289914362
0.143289 0.27356499 0.63999999 4289914362
0.145476 0.27442899 0.64200002 4289848571
0.148361 0.27657601 0.64700001 4289716731
0.151738 0.279578 0.65399998 4289519099
0.156562 0.285146 0.667 4289255674
0.167392 0.301402 0.70499998 4289519099
0.233872 0.41173401 0.963 4289783031
0.238694 0.41559899 0.972 4289849083
0.24133 0.41561601 0.972 4289783290
0.24472 0.416917 0.97500002 4289914362
0.247365 0.416935 0.97500002 4289848317
0.25052401 0.41780901 0.977 4289519352
0.25343499 0.41825601 0.97799999 4289255674
0.256614 0.41913199 0.98000002 4289387261
0.259011 0.41872501 0.97899997 4285045185
0.26193801 0.41917399 0.98000002 4287676905
0.26433 0.41876799 0.97899997 4290369535
0.26699099 0.41879001 0.97899997 4280495948
0.26937699 0.418385 0.97799999 4281809990
0.27259201 0.419265 0.98000002 4282467655
0.27525699 0.41928899 0.98000002 4281941058
0.27792299 0.419314 0.98000002 4281151542
0.28059 0.419339 0.98000002 4280756268
0.282969 0.41893801 0.97899997 4281217072
0.28563499 0.41896501 0.97899997 4281677107
0.28830099 0.41899201 0.97899997 4281085223
0.29067099 0.41859201 0.97799999 4280362270
0.29333699 0.418621 0.97799999 4281875508
0.29600301 0.41865101 0.97799999 4282730817
0.298365 0.418253 0.977 4282533438
0.300722 0.41785601 0.97600001 4281151271
0.303386 0.41788799 0.97600001 4280690718
0.30605 0.41792101 0.97600001 4280690718
0.308716 0.417954 0.97600001 4282006580
0.311382 0.417988 0.97600001 4282401083
0.31404999 0.41802299 0.97600001 4281611567
0.31606999 0.417202 0.97399998 4280493088
0.31808001 0.41638201 0.972 4281545262
0.320739 0.41642001 0.972 4282861120
0.323733 0.416886 0.97299999 4282400569
0.32639799 0.41692501 0.97299999 4280624672
0.32872599 0.41653699 0.972 4281019685
0.33139101 0.41657799 0.972 4282730817
0.33337 0.41576201 0.97000003 4284177494
0.33568501 0.41537601 0.96899998 4282466876
0.33799601 0.41499099 0.96799999 4280756258
0.340303 0.41460699 0.96700001 4281413929
0.34296101 0.41465199 0.96700001 4282401338
0.34526199 0.41427001 0.96600002 4283387978
0.34792 0.41431701 0.96600002 4283914063
0.34985301 0.413508 0.96399999 4282203190
0.35214201 0.41312799 0.963 4280887330
0.35442799 0.41274899 0.96200001 4282137650
0.356709 0.41237101 0.96100003 4284177235
0.35936001 0.412424 0.96100003 4283585098
0.362014 0.41247699 0.96100003 4282203445
0.36428899 0.41210201 0.95999998 4281282343
0.36656001 0.41172799 0.95899999 4282203190
0.36844301 0.41092601 0.95700002 4282730048
0.370704 0.41055501 0.95599997 4282927427
0.37296101 0.410184 0.95499998 4282467646
0.375608 0.41024399 0.95499998 4282072888
0.37746501 0.409446 0.95300001 4282532669
0.379711 0.409078 0.95200002 4282270267
0.38155201 0.40828201 0.94999999 4282270267
0.385001 0.409206 0.95200002 4282664255
0.38765001 0.40927199 0.95200002 4283782736
0.39030001 0.40933901 0.95200002 4283650636
0.39212701 0.40854701 0.94999999 4282071604
0.39436001 0.408187 0.949 4282466362
0.39617199 0.407397 0.94700003 4282730048
0.39839599 0.40703899 0.94599998 4282335290
0.40103999 0.40711299 0.94599998 4282861120
0.403687 0.40718701 0.94599998 4282926913
0.40590599 0.40683299 0.94499999 4282992959
0.407258 0.405619 0.94199997 4283256386
0.409031 0.404836 0.94 4284374349
0.41079399 0.404055 0.93800002 4283453247
0.41387099 0.404567 0.93900001 4281413666
0.416513 0.40465 0.93900001 4282730042
0.41915801 0.40473399 0.93900001 4283650891
0.42180499 0.40482 0.93900001 4283190854
0.42445499 0.404908 0.93900001 4283651405
0.42710701 0.40499699 0.93900001 4284835163
0.42930499 0.40465599 0.93800002 4284177233
0.431961 0.40474799 0.93800002 4282269750
0.434156 0.40441099 0.93699998 4282532408
0.435882 0.40364301 0.935 4282795835
0.43853801 0.40373999 0.935 4282269743
0.44119701 0.40383801 0.935 4283255870
0.44385901 0.403938 0.935 4284637007
0.44509199 0.402744 0.93199998 4282531373
0.447752 0.40284801 0.93199998 4282597166
0.450899 0.40338501 0.93300003 4283452728
0.454054 0.403925 0.93400002 4283057970
0.45575199 0.40316901 0.93199998 4282071328
0.458426 0.40327999 0.93199998 4281742363
0.46159801 0.403826 0.93300003 4281347605
0.46478 0.40437299 0.93400002 4281479704
0.46746999 0.40448999 0.93400002 4281677083
0.470164 0.40460899 0.93400002 4281413658
0.47336799 0.40516299 0.935 4281084438
0.47658199 0.40572 0.93599999 4281610784
0.479294 0.40584499 0.93599999 4280952854
0.48252499 0.40640599 0.93699998 4280952854
0.48576501 0.40696901 0.93800002 4281281819
0.489016 0.40753499 0.93900001 4280689680
0.491229 0.407235 0.93800002 4280821266
0.49344099 0.406937 0.93699998 4280623887
0.49618101 0.40707499 0.93699998 4280689682
0.49945799 0.40765101 0.93800002 4280558096
-0.19757999 0.436903 1.029 4287663734
-0.194608 0.43647 1.028 4287794813
-0.19145501 0.43561199 1.026 4287860606
-0.18886501 0.436028 1.027 4287729278
-0.185908 0.43559599 1.026 4287729026
-0.183313 0.436012 1.027 4287992198
-0.180186 0.43515599 1.025 4287795080
-0.177416 0.43514901 1.025 4287597955
-0.17464501 0.43514201 1.025 4287597440
-0.172043 0.43555999 1.026 4287400575
-0.16894101 0.43470401 1.024 4287597694
-0.16585 0.43384901 1.022 4287663485
-0.162769 0.43299401 1.02 4287466612
-0.160014 0.432989 1.02 4287532154
-0.157258 0.43298399 1.02 4287597947
-0.154503 0.432978 1.02 4287729278
-0.15144999 0.43212399 1.018 4287335036
-0.148408 0.43127099 1.016 4287466622
-0.145377 0.430417 1.0140001 4287400575
-0.142639 0.43041301 1.0140001 4287729540
-0.140038 0.43083301 1.015 4287729794
-0.13743199 0.431254 1.016 4287467642
-0.134424 0.430401 1.0140001 4287598732
-0.131166 0.4287 1.01 4285361780
-0.12793 0.42699799 1.006 4287731093
-0.125214 0.42699501 1.006 4287731086
-0.122863 0.42826501 1.0089999 4288124299
-0.120019 0.427838 1.008 4288255631
-0.117065 0.42698601 1.006 4288320911
-0.113212 0.422739 0.99599999 4288321417
-0.10897 0.41679499 0.98199999 4288189831
-0.103612 0.40618199 0.95700002 4288453001
-0.098600201 0.39641699 0.93400002 4288387463
-0.092992701 0.383683 0.90399998 4288255877
-0.085944504 0.36415699 0.85799998 4288189831
-0.079827003 0.34760299 0.81900001 4287926657
-0.072688103 0.32553199 0.76700002 4287597947
-0.068223901 0.314495 0.741 4287531899
-0.060682599 0.28817999 0.67900002 4287597187
-0.056076299 0.274598 0.64700001 4287270028
-0.053994 0.272899 0.64300001 4290695662
-0.052420899 0.273747 0.64499998 4284185512
-0.051151302 0.27629301 0.65100002 4281419374
-0.048635401 0.272048 0.64099997 4282078592
-0.0461003 0.26737899 0.63 4291687933
-0.043976899 0.26483101 0.62400001 4291425277
-0.042292699 0.26483101 0.62400001 4291097085
-0.040543299 0.264406 0.62300003 4291031292
-0.038799401 0.26398101 0.62199998 4291031037
-0.037060902 0.263556 0.62099999 4291031037
-0.0353278 0.26313099 0.62 4290965244
-0.033708699 0.26355499 0.62099999 4291031037
-0.032032602 0.26355499 0.62099999 4291031037
-0.0304543 0.26440299 0.62300003 4290834172
-0.0287266 0.263978 0.62199998 4290899965
-0.0270044 0.26355299 0.62099999 4290965244
-0.025246801 0.26270401 0.61900002 4290965244
-0.0236142 0.26312801 0.62 4291031037
-0.021940799 0.26312801 0.62 4291096830
-0.0202675 0.26312801 0.62 4290965244
-0.018594099 0.26312801 0.62 4290965244
-0.0169481 0.26355201 0.62099999 4291031037
-0.0152475 0.263127 0.62 4290899451
-0.013596 0.26355201 0.62099999 4290965244
-0.01192 0.263551 0.62099999 4290834172
-0.0102605 0.26397601 0.62199998 4290768379
-0.0085817603 0.26397601 0.62199998 4290834172
-0.0068919398 0.263551 0.62099999 4290637563
-0.00521592 0.263551 0.62099999 4290703356
-0.0035399001 0.263551 0.62099999 4290769149
-0.00186388 0.263551 0.62099999 4290703356
-0.000187564 0.263127 0.62 4290703356
0.00148336 0.26270199 0.61900002 4290637563
0.0031590699 0.263127 0.62 4290637563
0.0048323902 0.263127 0.62 4290637563
0.0065057101 0.263127 0.62 4290505977
0.0081658401 0.26270199 0.61900002 4290571770
0.00985236 0.263127 0.62 4290571770
0.0115071 0.262703 0.61900002 4290768379
0.0131777 0.262703 0.61900002 4290768379
0.0148484 0.262703 0.61900002 4290702586
0.0165457 0.263127 0.62 4290505977
0.0181896 0.262703 0.61900002 4290571770
0.019860299 0.262703 0.61900002 4290505977
0.021461301 0.26185501 0.61699998 4290440698
0.0232016 0.26270401 0.61900002 4290440698
0.0249526 0.26355299 0.62099999 4290506491
0.026714399 0.264402 0.62300003 4290637309
0.028395901 0.264402 0.62300003 4290571770
0.029980799 0.26355401 0.62099999 4290505723
0.031656899 0.26355401 0.62099999 4290637309
0.033333 0.26355499 0.62099999 4290571516
0.035009101 0.26355499 0.62099999 4290505723
0.036626101 0.26313099 0.62 4290505723
0.0383613 0.263556 0.62099999 4290505723
0.040037401 0.26355699 0.62099999 4290374651
0.041713599 0.26355699 0.62099999 4290308858
0.0433199 0.263134 0.62 4290243835
0.045138501 0.26398301 0.62199998 4290243835
0.0468174 0.26398399 0.62199998 4290243835
0.048496298 0.26398501 0.62199998 4290309628
0.0500945 0.26356101 0.62099999 4290374651
0.051687401 0.26313701 0.62 4290440444
0.053360999 0.263138 0.62 4290374651
0.055123299 0.26356399 0.62099999 4290440444
0.056799699 0.263565 0.62099999 4290374651
0.058570199 0.26399001 0.62199998 4290374651
0.060249198 0.263991 0.62199998 4290308858
0.061928298 0.26399201 0.62199998 4290374651
0.063402899 0.263145 0.62 4290374651
0.065181702 0.26357099 0.62099999 4290374651
0.066858202 0.26357201 0.62099999 4290243835
0.068645097 0.263998 0.62199998 4290178042
0.070211299 0.26357499 0.62099999 4290243580
0.072003603 0.26400101 0.62199998 4290111994
0.073683001 0.26400301 0.62199998 4290177787
0.075483598 0.264429 0.62300003 4290112249
0.076917998 0.26358199 0.62099999 4290112249
0.078468204 0.26315999 0.62 4290112249
0.080400899 0.264011 0.62199998 4290308858
0.082080498 0.26401299 0.62199998 4290308858
0.083760202 0.26401499 0.62199998 4290243065
0.085440002 0.26401699 0.62199998 4290178042
0.087259904 0.26444501 0.62300003 4290177787
0.0887997 0.26402301 0.62199998 4290177787
0.090188697 0.26317599 0.62 4290112249
0.091715097 0.26275501 0.61900002 4290308859
0.093538001 0.26318201 0.62 4290308859
0.095519997 0.264034 0.62199998 4290308859
0.097356498 0.26446199 0.62300003 4290374652
0.098880596 0.26404101 0.62199998 4290243066
0.100399 0.26361999 0.62099999 4290111994
0.102077 0.26362401 0.62099999 4290046201
0.103922 0.264052 0.62199998 4290046201
0.105943 0.26490501 0.62400001 4290046201
0.107629 0.264909 0.62400001 4290046201
0.10914 0.264489 0.62300003 4290046201
0.111002 0.264918 0.62400001 4290046201
0.112689 0.26492301 0.62400001 4289980408
0.114925 0.26620099 0.62699997 4290046203
0.116621 0.266206 0.62699997 4290046203
0.118127 0.26578701 0.62599999 4289980410
0.119628 0.26536801 0.625 4290111996
0.121318 0.26537299 0.625 4289980410
0.123402 0.26622799 0.62699997 4290046203
0.125098 0.26623401 0.62699997 4290046203
0.126794 0.26624101 0.62699997 4289980410
0.128491 0.266247 0.62699997 4290046203
0.130395 0.26667801 0.62800002 4290111996
0.132515 0.267535 0.63 4290046203
0.13422 0.267542 0.63 4289980410
0.13614 0.26797399 0.63099998 4290046203
0.13806701 0.268406 0.63200003 4289848824
0.140442 0.26968801 0.63499999 4289914362
0.142609 0.27054599 0.63700002 4289848569
0.144787 0.271404 0.639 4289782778
0.14743499 0.273112 0.64300001 4289782778
0.15056901 0.27566999 0.64899999 4289519352
0.15420499 0.27907699 0.65700001 4289584378
0.160496 0.28715801 0.676 4289387260
0.231913 0.405705 0.95499998 4290046203
0.238186 0.412094 0.97000003 4289980410
0.241809 0.41381001 0.97399998 4289848569
0.244702 0.41425201 0.97500002 4289848569
0.247601 0.41469499 0.97600001 4289848571
0.25076199 0.41556299 0.97799999 4289782778
0.253934 0.41643101 0.98000002 4289519352
0.256594 0.41645101 0.98000002 4289387260
0.25925499 0.416471 0.98000002 4287544803
0.261917 0.416491 0.98000002 4284913856
0.26430899 0.416087 0.97899997 4289387775
0.267241 0.41653401 0.98000002 4286485951
0.26935399 0.41570601 0.97799999 4281680222
0.272569 0.41657901 0.98000002 4281481542
0.27551401 0.41702801 0.98100001 4281283389
0.27846599 0.41747701 0.98199999 4280954416
0.28085101 0.417077 0.98100001 4280888107
0.28294301 0.41625199 0.97899997 4280954154
0.28589901 0.41670299 0.98000002 4281349165
0.28856799 0.41672999 0.98000002 4280888614
0.29064301 0.415907 0.97799999 4280493855
0.29330799 0.41593501 0.97799999 4281744176
0.296276 0.41638899 0.97899997 4281678383
0.29925001 0.41684401 0.98000002 4281085476
0.30192301 0.41687399 0.98000002 4281085476
0.30397499 0.41605499 0.97799999 4280756766
0.30664501 0.41608599 0.97799999 4280822559
0.308999 0.41569301 0.977 4281414441
0.311986 0.416152 0.97799999 4282400824
0.31433699 0.41576099 0.977 4281085223
0.31668299 0.41536999 0.97600001 4280887332
0.31869701 0.41455501 0.97399998 4282268985
0.32103199 0.414166 0.97299999 4282729534
0.32402799 0.41462901 0.97399998 4281611053
0.326695 0.41466701 0.97399998 4280689951
0.329025 0.41428 0.97299999 4281940785
0.331691 0.41431999 0.97299999 4283585612
0.33401501 0.41393501 0.972 4283651150
0.335989 0.41312501 0.97000003 4282268983
0.338651 0.41316801 0.97000003 4280624413
0.34025899 0.411933 0.96700001 4281150755
0.342915 0.41197699 0.96700001 4282203445
0.34521601 0.41159701 0.96600002 4283519819
0.34823301 0.41206899 0.96700001 4282730303
0.35016799 0.411264 0.96499997 4281019430
0.35245901 0.41088599 0.96399999 4281940018
0.35474601 0.41050899 0.963 4283519305
0.3574 0.410559 0.963 4283979601
0.35968199 0.410184 0.96200001 4282268983
0.36195999 0.40981001 0.96100003 4280821537
0.364234 0.409437 0.95999998 4280821792
0.366505 0.40906501 0.95899999 4282005811
0.368386 0.40826699 0.95700002 4282664255
0.371034 0.40832299 0.95700002 4282401083
0.37329301 0.40795401 0.95599997 4282467392
0.37594101 0.40801299 0.95599997 4281217579
0.378196 0.407646 0.95499998 4281678130
0.37964901 0.406427 0.95200002 4282072888
0.382292 0.40648901 0.95200002 4282138681
0.38534099 0.40697899 0.95300001 4283322185
0.38799101 0.40704399 0.95300001 4283453771
0.38982299 0.40625501 0.95099998 4282532669
0.391233 0.40504101 0.94800001 4281348395
0.393875 0.40510899 0.94800001 4282532155
0.39568299 0.40432301 0.94599998 4282072120
0.39832401 0.404394 0.94599998 4282203706
0.400543 0.40403801 0.94499999 4282401085
0.40318501 0.40411201 0.94499999 4282203704
0.404971 0.40333101 0.94300002 4282006580
0.40718099 0.40297899 0.94199997 4283256645
0.40938699 0.40262899 0.94099998 4283914830
0.41159001 0.40227899 0.94 4282203698
0.414231 0.40235901 0.94 4281217062
0.41643 0.402013 0.93900001 4282466362
0.41907299 0.402096 0.93900001 4283058499
0.42127001 0.401752 0.93800002 4283190599
0.423915 0.401838 0.93800002 4283848529
0.42610899 0.40149701 0.93699998 4284111440
0.42875701 0.401586 0.93699998 4282532408
0.43140799 0.401676 0.93699998 4281217317
0.433599 0.40133899 0.93599999 4281743145
0.43578699 0.40100399 0.935 4281479973
0.43797201 0.40067101 0.93400002 4281479973
0.440155 0.40033799 0.93300003 4282466352
0.44281 0.400437 0.93300003 4283058744
0.44546801 0.40053701 0.93300003 4281413919
0.44860899 0.401068 0.93400002 4281873956
0.451276 0.40117201 0.93400002 4282597932
0.45346099 0.400848 0.93300003 4281808416
0.455643 0.40052599 0.93199998 4280689935
0.45831501 0.400635 0.93199998 4281084693
0.461485 0.40117601 0.93300003 4281479191
0.464665 0.401719 0.93400002 4281742363
0.46785301 0.402264 0.935 4282400293
0.47105199 0.40281099 0.93599999 4281413658
0.475272 0.40422201 0.93900001 4281281817
0.47798601 0.40434399 0.93900001 4281610784
0.47968099 0.403606 0.93699998 4281413405
0.482912 0.40416199 0.93800002 4282202921
0.48615301 0.40472099 0.93900001 4282334507
0.48940501 0.40528199 0.94 4281479198
0.49161899 0.40498301 0.93900001 4281742370
0.49383199 0.40468499 0.93800002 4281084440
0.49710199 0.40525299 0.93900001 4281018645
-0.19757099 0.43410501 1.029 4288452483
-0.19478901 0.43409699 1.029 4288715655
-0.191447 0.432823 1.026 4288518022
-0.188674 0.43281499 1.026 4288518537
-0.185719 0.43238601 1.025 4288452744
-0.183127 0.43280101 1.026 4288452746
-0.180179 0.432372 1.025 4287992199
-0.17723601 0.431943 1.024 4288123784
-0.174639 0.43235901 1.025 4288189831
-0.17186899 0.43235201 1.025 4287795073
-0.168935 0.431925 1.024 4287466106
-0.165682 0.43065399 1.021 4287400056
-0.16244499 0.42938301 1.018 4287400568
-0.159695 0.429378 1.018 4287400568
-0.156791 0.428951 1.017 4287268982
-0.154044 0.42894599 1.017 4287531899
-0.15085 0.42767599 1.0140001 4287400313
-0.147966 0.42725 1.013 4287466108
-0.14508601 0.426824 1.012 4287795073
-0.14249399 0.42724201 1.013 4287926657
-0.13975801 0.42723799 1.013 4287795585
-0.136888 0.42681301 1.012 4287796607
-0.133757 0.42554399 1.0089999 4286743927
-0.13077299 0.42469701 1.007 4287928211
-0.1278 0.42385101 1.005 4288257430
-0.125211 0.42427 1.006 4288388246
-0.122616 0.42468899 1.007 4288782229
-0.119897 0.42468601 1.007 4288321677
-0.11683 0.42341799 1.0039999 4288584589
-0.112982 0.41919801 0.99400002 4288584335
-0.108302 0.411605 0.97600001 4288979347
-0.103718 0.40401199 0.958 4288387210
-0.099337198 0.39684099 0.94099998 4288255624
-0.093402296 0.38292199 0.90799999 4288321931
-0.085542202 0.36014801 0.85399997 4288124299
-0.079240799 0.34285599 0.81300002 4287992450
-0.073539801 0.32725099 0.77600002 4287926653
-0.068406798 0.313333 0.74299997 4288190084
-0.059877299 0.282547 0.67000002 4288255632
-0.0557287 0.27116001 0.64300001 4287862689
-0.0538252 0.270316 0.64099997 4290367981
-0.052501298 0.27242401 0.64600003 4283529121
-0.051150501 0.27453199 0.65100002 4280761958
-0.048482899 0.26947001 0.639 4287608287
-0.0459533 0.26483101 0.62800002 4291950335
-0.0437649 0.261879 0.62099999 4291293691
-0.042088799 0.26187801 0.62099999 4291162621
-0.040477701 0.262299 0.62199998 4291031292
-0.0387366 0.261877 0.62099999 4290965244
-0.037060499 0.261877 0.62099999 4291031037
-0.035327401 0.26145399 0.62 4290965244
-0.0337626 0.26229799 0.62199998 4290965244
-0.0320323 0.261875 0.62099999 4291031037
-0.0304051 0.262297 0.62199998 4290899965
-0.0285878 0.261031 0.61900002 4290965244
-0.0268736 0.260609 0.61799997 4290965244
-0.0251649 0.26018801 0.61699998 4291031037
-0.0235378 0.260609 0.61799997 4290965244
-0.021869799 0.260609 0.61799997 4291031037
-0.0201692 0.260187 0.61699998 4291031037
-0.018503999 0.260187 0.61699998 4290965244
-0.016866099 0.26060799 0.61799997 4291031037
-0.0151981 0.26060799 0.61799997 4290965244
-0.0135302 0.26060799 0.61799997 4291031037
-0.0118623 0.26060799 0.61799997 4290899965
-0.0102274 0.26145101 0.62 4290899965
-0.0085540898 0.26145101 0.62 4290768379
-0.0068696798 0.26102901 0.61900002 4290769149
-0.0051990799 0.26102901 0.61900002 4290637563
-0.0035284699 0.26102901 0.61900002 4290571770
-0.00185786 0.26102901 0.61900002 4290637563
-0.000186655 0.26018599 0.61699998 4290703356
0.00147376 0.259343 0.61500001 4290769149
0.0031335701 0.259343 0.61500001 4290571770
0.00480117 0.25976399 0.616 4290571770
0.0064846701 0.26060799 0.61799997 4290571770
0.0081525799 0.26060799 0.61799997 4290637563
0.0098204901 0.26060799 0.61799997 4290571770
0.0114512 0.259765 0.616 4290702586
0.0131137 0.259765 0.616 4290768379
0.0148002 0.26018599 0.61699998 4290768379
0.0165188 0.26102999 0.61900002 4290571770
0.018160099 0.26060799 0.61799997 4290505977
0.019827999 0.260609 0.61799997 4290571770
0.021461099 0.260187 0.61699998 4290571770
0.023126399 0.260187 0.61699998 4290440698
0.024871999 0.261031 0.61900002 4290374905
0.026585501 0.261453 0.62 4290374651
0.028213199 0.261031 0.61900002 4290439930
0.029883901 0.26103199 0.61900002 4290571516
0.031503599 0.26061001 0.61799997 4290505723
0.033171501 0.260611 0.61799997 4290505723
0.034726799 0.25976801 0.616 4290505723
0.0364484 0.26019001 0.61699998 4290571516
0.038113698 0.26019001 0.61699998 4290506237
0.0398435 0.26061201 0.61799997 4290440444
0.041511498 0.26061299 0.61799997 4290440444
0.043179501 0.26061299 0.61799997 4290243835
0.044920102 0.26103601 0.61900002 4290243835
0.046590898 0.26103601 0.61900002 4290308858
0.048261698 0.26103699 0.61900002 4290374651
0.049851801 0.260616 0.61799997 4290374651
0.051519901 0.260616 0.61799997 4290308858
0.053188 0.26061699 0.61799997 4290374651
0.054944899 0.26104 0.61900002 4290374651
0.0566158 0.26104099 0.61900002 4290308858
0.058380801 0.26146299 0.62 4290440444
0.060054399 0.261464 0.62 4290374651
0.061728001 0.26146501 0.62 4290243835
0.063299403 0.26104501 0.61900002 4290178042
0.064970396 0.26104599 0.61900002 4290178042
0.066641502 0.26104701 0.61900002 4290178042
0.068422899 0.26146999 0.62 4290112249
0.070096701 0.26147199 0.62 4290178042
0.071770497 0.261473 0.62 4290243835
0.073444404 0.261475 0.62 4290112249
0.075118303 0.26147601 0.62 4290178042
0.076668397 0.26105601 0.61900002 4290308858
0.078339703 0.261058 0.61900002 4290374651
0.080140397 0.261482 0.62 4290440444
0.081682503 0.261062 0.61900002 4290374651
0.083353996 0.26106399 0.61900002 4290243835
0.0851629 0.26148799 0.62 4290178042
0.086977303 0.26191199 0.62099999 4290178042
0.088654302 0.26191401 0.62099999 4290111994
0.090040497 0.26107299 0.61900002 4290177787
0.091564201 0.260654 0.61799997 4290111994
0.093233399 0.26065701 0.61799997 4290111994
0.0952098 0.26150301 0.62 4290046201
0.097197004 0.26234999 0.62199998 4289980408
0.0987183 0.261931 0.62099999 4290046201
0.100396 0.26193401 0.62099999 4290046201
0.101909 0.261516 0.62 4290111994
0.103752 0.26194099 0.62099999 4290046203
0.105429 0.26194501 0.62099999 4290046203
0.107108 0.261949 0.62099999 4289980410
0.108961 0.262375 0.62199998 4289717752
0.110998 0.26322299 0.62400001 4289915131
0.112684 0.26322699 0.62400001 4289848824
0.114737 0.26407501 0.62599999 4290046203
0.116058 0.26323599 0.62400001 4290046203
0.117744 0.26324099 0.62400001 4289980410
0.119432 0.263246 0.62400001 4289914617
0.121119 0.26325199 0.62400001 4289914617
0.123003 0.263679 0.625 4290046203
0.124494 0.26326299 0.62400001 4290046203
0.126384 0.26369101 0.625 4290111996
0.12807401 0.263697 0.625 4290111996
0.12997299 0.26412499 0.62599999 4290046203
0.13187701 0.26455399 0.62699997 4290046203
0.133573 0.26456001 0.62699997 4289849338
0.13527 0.26456699 0.62699997 4290046203
0.13718601 0.26499701 0.62800002 4289914617
0.139549 0.26627001 0.63099998 4290046203
0.141481 0.2667 0.63200003 4289914362
0.14387199 0.26797399 0.63499999 4289914362
0.14605001 0.26882699 0.63700002 4289914364
0.149168 0.271368 0.64300001 4290045183
0.15208299 0.273487 0.648 4289650686
0.15692499 0.278983 0.66100001 4289519100
0.16591901 0.29165599 0.69099998 4289519100
0.236451 0.40649101 0.963 4289848824
0.24129599 0.41030601 0.972 4290046203
0.24468499 0.411589 0.97500002 4289914362
0.247583 0.41202801 0.97600001 4289980155
0.25074399 0.41288999 0.97799999 4289782778
0.253656 0.41332999 0.97899997 4289848317
0.25657499 0.413771 0.98000002 4289650686
0.25897101 0.41336799 0.97899997 4289255675
0.26189601 0.41381001 0.98000002 4285308357
0.26428801 0.41340899 0.97899997 4286098131
0.26721999 0.41385201 0.98000002 4291225343
0.26988199 0.41387299 0.98000002 4281353579
0.27338001 0.415162 0.98299998 4281087814
0.276333 0.41560799 0.98400003 4280954935
0.278725 0.415209 0.98299998 4280954416
0.280826 0.414388 0.98100001 4280888361
0.28320599 0.41398999 0.98000002 4281020200
0.286165 0.41443801 0.98100001 4281546544
0.288836 0.414464 0.98100001 4281020200
0.29061601 0.413223 0.97799999 4280954407
0.29297999 0.412828 0.977 4281940787
0.29594499 0.41327801 0.97799999 4281151271
0.29952601 0.41457501 0.98100001 4280888097
0.301893 0.41418201 0.98000002 4281217317
0.30425501 0.413789 0.97899997 4280559387
0.30692601 0.41382 0.97899997 4281085731
0.30959901 0.41385201 0.97899997 4281742892
0.31195301 0.41346201 0.97799999 4281611308
0.31430301 0.41307199 0.977 4280624158
0.31664801 0.41268301 0.97600001 4281216297
0.31898901 0.41229501 0.97500002 4282400055
0.32198501 0.412754 0.97600001 4282268469
0.324323 0.41236699 0.97500002 4280821537
0.32665601 0.411982 0.97399998 4280821792
0.32898599 0.41159701 0.97299999 4282269238
0.33131 0.41121301 0.972 4282927427
0.33431801 0.41167599 0.97299999 4282203190
0.33629301 0.41086999 0.97100002 4281150502
0.338608 0.41048899 0.97000003 4280492827
0.340215 0.40926099 0.96700001 4281151010
0.34251601 0.40888101 0.96600002 4282664249
0.34481299 0.40850201 0.96499997 4282467131
0.348546 0.40981799 0.96799999 4281019685
0.35084599 0.40944001 0.96700001 4280624672
0.35277599 0.40864101 0.96499997 4282137397
0.35469699 0.40784201 0.963 4283519303
0.35734999 0.40789101 0.963 4282663996
0.36000499 0.40794101 0.963 4281019171
0.36228499 0.40756899 0.96200001 4280887585
0.36418101 0.40677401 0.95999998 4281808687
0.36606801 0.40597901 0.958 4282137911
0.367946 0.405186 0.95599997 4282137913
0.37059 0.40524101 0.95599997 4281940532
0.37323499 0.40529799 0.95599997 4281678130
0.375489 0.40493101 0.95499998 4281151786
0.37813601 0.40498999 0.95499998 4281743923
0.380784 0.40505001 0.95499998 4281941302
0.38303301 0.404686 0.954 4282599232
0.38527799 0.404324 0.95300001 4282993220
0.38792601 0.40438801 0.95300001 4282664510
0.38975701 0.403604 0.95099998 4281808946
0.391579 0.40281999 0.949 4281282602
0.39380699 0.40246299 0.94800001 4282268983
0.39645001 0.402531 0.94800001 4281940532
0.39867401 0.40217599 0.94700003 4281940534
0.400895 0.401822 0.94599998 4282203706
0.403965 0.40231901 0.94700003 4282203704
0.405756 0.40154201 0.94499999 4282795841
0.407969 0.40119201 0.94400001 4283257161
0.40974501 0.40041801 0.94199997 4282994243
0.41238701 0.40049499 0.94199997 4281611820
0.41459101 0.40014899 0.94099998 4281282857
0.41634899 0.399378 0.93900001 4282401083
0.41854399 0.39903399 0.93800002 4283190087
0.42028701 0.39826599 0.93599999 4283387978
0.42292601 0.39835 0.93599999 4283322185
0.425567 0.39843601 0.93599999 4282729789
0.428211 0.398523 0.93599999 4281282341
0.430857 0.39861199 0.93599999 4280822045
0.433507 0.39870301 0.93599999 4281348387
0.43615901 0.39879501 0.93599999 4280887320
0.438815 0.39888799 0.93599999 4281808422
0.441001 0.39855701 0.935 4282860596
0.44318601 0.39822799 0.93400002 4282334252
0.44536701 0.39789999 0.93300003 4281677091
0.44898701 0.39885399 0.935 4282334507
0.45165601 0.398956 0.935 4282202921
0.453841 0.398633 0.93400002 4280427022
0.456025 0.398312 0.93300003 4280689680
0.458698 0.39841899 0.93300003 4281150231
0.461869 0.398956 0.93400002 4280953107
0.465049 0.39949399 0.935 4281084693
0.469239 0.40088901 0.93800002 4281413146
0.472444 0.40143299 0.93900001 4280558094
0.47616401 0.40240601 0.94099998 4280623887
0.478374 0.402098 0.94 4281018647
0.48058099 0.40179199 0.93900001 4280689680
0.483816 0.402343 0.94 4282137128
0.486543 0.40246901 0.94 4281676577
0.490316 0.40345401 0.94199997 4280821782
0.49253401 0.40315601 0.94099998 4281282333
0.49474999 0.40285999 0.94 4280953368
0.49802399 0.40342301 0.94099998 4281808161
-0.197179 0.43046999 1.027 4287793785
-0.19440199 0.430462 1.027 4288056957
-0.19125301 0.429616 1.025 4288188029
-0.188298 0.42919001 1.024 4288385408
-0.18535 0.42876399 1.023 4288649094
-0.18240599 0.42833799 1.022 4288517508
-0.179645 0.42833099 1.022 4288320392
-0.177056 0.42874399 1.023 4288123779
-0.17446201 0.42915699 1.024 4287794813
-0.171528 0.42873201 1.023 4287202676
-0.16843399 0.42788899 1.021 4286676590
-0.165189 0.426626 1.018 4287597692
-0.16212 0.42578301 1.016 4287795071
-0.159376 0.425778 1.016 4288058498
-0.156478 0.42535499 1.015 4288058498
-0.153736 0.42535001 1.015 4287861119
-0.15054899 0.42408901 1.012 4288255877
-0.147669 0.423666 1.011 4288321670
-0.14493901 0.42366201 1.011 4288519049
-0.14235 0.42407799 1.012 4288453254
-0.139479 0.423655 1.011 4288190335
-0.13647901 0.42281401 1.0089999 4287533183
-0.133224 0.421134 1.005 4287926928
-0.13038 0.42071199 1.0039999 4288585625
-0.12767 0.42071 1.0039999 4288387732
-0.125083 0.42112601 1.005 4288584335
-0.12237 0.421123 1.005 4288453003
-0.119657 0.421121 1.005 4288453001
-0.116595 0.419862 1.002 4288847501
-0.112639 0.41525 0.991 4288255622
-0.108189 0.408544 0.97500002 4289176724
-0.104149 0.40309501 0.96200001 4288321417
-0.10018 0.39764601 0.949 4288189577
-0.095149398 0.38758799 0.92500001 4288716950
-0.087444 0.365798 0.87300003 4288519573
-0.080019198 0.344008 0.82099998 4288584589
-0.074391499 0.32892299 0.78500003 4287005297
-0.068589903 0.312161 0.745 4287268727
-0.059340201 0.27822101 0.66399997 4287993227
-0.0554679 0.26816401 0.63999999 4288060578
-0.053572498 0.26732501 0.63800001 4289450233
-0.0522568 0.26942 0.64300001 4283134877
-0.050914198 0.271514 0.648 4280235098
-0.0481029 0.26564699 0.634 4286554572
-0.04566 0.261457 0.62400001 4291556861
-0.043482501 0.25852299 0.61699998 4291293691
-0.041817199 0.25852299 0.61699998 4291096828
-0.040151902 0.25852299 0.61699998 4290965244
-0.0384866 0.258522 0.61699998 4291096830
-0.0368811 0.25894099 0.61799997 4290899965
-0.035213102 0.25894099 0.61799997 4290899965
-0.033599399 0.259359 0.61900002 4290899451
-0.0319288 0.259359 0.61900002 4290834172
-0.030307001 0.25977799 0.62 4290899965
-0.0284952 0.25852099 0.61699998 4290768379
-0.026743 0.257682 0.61500001 4290965244
-0.0250424 0.257263 0.61400002 4290834172
-0.0234614 0.25810099 0.616 4290834172
-0.021798899 0.25810099 0.616 4290965244
-0.020136399 0.25810099 0.616 4290899451
-0.018473901 0.25810099 0.616 4291031037
-0.016811401 0.25810099 0.616 4290965244
-0.0151488 0.2581 0.616 4291031037
-0.0134645 0.25768101 0.61500001 4291096830
-0.0118238 0.2581 0.616 4290768379
-0.0101778 0.25851899 0.61699998 4290834172
-0.0085126404 0.25851899 0.61699998 4290834172
-0.0068363398 0.2581 0.616 4290637563
-0.0051738401 0.2581 0.616 4290703356
-0.0035170501 0.25851899 0.61699998 4290768379
-0.00185185 0.25851899 0.61699998 4290702586
-0.000185746 0.25726199 0.61400002 4290637563
0.00147135 0.25726199 0.61400002 4290637563
0.0031182601 0.25642401 0.61199999 4290637563
0.0047777598 0.256843 0.61299998 4290505977
0.0064321598 0.256843 0.61299998 4290571770
0.0081129503 0.25768101 0.61500001 4290571770
0.0097727496 0.25768101 0.61500001 4290505977
0.0114325 0.25768101 0.61500001 4290571770
0.0130711 0.25726199 0.61400002 4290505977
0.0147522 0.25768101 0.61500001 4290571770
0.016465301 0.25852001 0.61699998 4290637563
0.0181012 0.25810099 0.616 4290571770
0.0197316 0.257682 0.61500001 4290506491
0.021391399 0.257682 0.61500001 4290440444
0.0230512 0.257682 0.61500001 4290374651
0.024711 0.257682 0.61500001 4290440444
0.0263709 0.257682 0.61500001 4290374651
0.0280763 0.258102 0.616 4290505723
0.0296905 0.25768301 0.61500001 4290505723
0.0313504 0.25768301 0.61500001 4290571516
0.0330102 0.25768301 0.61500001 4290439930
0.034613699 0.257265 0.61400002 4290439930
0.036270801 0.257265 0.61400002 4290308858
0.037928 0.257265 0.61400002 4290308858
0.039649699 0.25768501 0.61500001 4290374651
0.041309498 0.25768501 0.61500001 4290308858
0.042969398 0.25768501 0.61500001 4290440444
0.044629298 0.25768599 0.61500001 4290440444
0.046364501 0.25810501 0.616 4290506237
0.048027199 0.25810599 0.616 4290506237
0.049609099 0.257687 0.61500001 4290243065
0.051269099 0.25768799 0.61500001 4290440444
0.0529291 0.257689 0.61500001 4290308858
0.054677799 0.25810799 0.616 4290374651
0.056249101 0.25769001 0.61500001 4290506237
0.057909101 0.257691 0.61500001 4290243065
0.059666 0.258111 0.616 4290112249
0.061328799 0.25811201 0.616 4290178042
0.062787101 0.25727499 0.61400002 4290178042
0.064339601 0.25685701 0.61299998 4290112249
0.066101998 0.25727701 0.61400002 4290178042
0.0679802 0.25811601 0.616 4290178042
0.069756202 0.25853601 0.61699998 4290178042
0.071421802 0.25853699 0.61699998 4290112249
0.073206 0.25895801 0.61799997 4290243835
0.074753299 0.25854 0.61699998 4290178042
0.0764191 0.258542 0.61699998 4290308858
0.078084901 0.25854301 0.61699998 4290243065
0.079879999 0.258964 0.61799997 4290308858
0.081548601 0.258966 0.61799997 4290112249
0.0832173 0.258968 0.61799997 4290178042
0.084886096 0.25896999 0.61799997 4290243580
0.0865549 0.25897199 0.61799997 4290177787
0.088223703 0.25897399 0.61799997 4290046201
0.089747198 0.25855699 0.61699998 4290111994
0.091265298 0.25814101 0.616 4290111994
0.092778102 0.25772399 0.61500001 4289914615
0.094592698 0.25814599 0.616 4290046201
0.0964128 0.25856701 0.61699998 4289980408
0.098079398 0.25856999 0.61699998 4289914615
0.099907704 0.25899199 0.61799997 4290111994
0.101577 0.25899601 0.61799997 4290046203
0.103247 0.25899899 0.61799997 4289980410
0.104916 0.259002 0.61799997 4289980410
0.106414 0.258587 0.61699998 4290046203
0.108431 0.25942901 0.61900002 4289783545
0.110282 0.25985199 0.62 4289717752
0.111957 0.25985599 0.62 4289717752
0.113816 0.260279 0.62099999 4289914617
0.115309 0.25986499 0.62 4289914617
0.116796 0.25944999 0.61900002 4290046203
0.118661 0.25987399 0.62 4289914617
0.120337 0.25987899 0.62 4290046203
0.122407 0.26072201 0.62199998 4289980410
0.12389 0.26030901 0.62099999 4290046203
0.125771 0.26073301 0.62199998 4289980410
0.126839 0.259482 0.61900002 4290046203
0.128721 0.25990701 0.62 4290046203
0.13060801 0.26033199 0.62099999 4290046203
0.132714 0.261177 0.62300003 4289914617
0.1344 0.26118401 0.62300003 4289914617
0.13652299 0.26202899 0.625 4289914617
0.138657 0.26287499 0.62699997 4289848824
0.140802 0.26372099 0.62900001 4289914362
0.14250501 0.26372799 0.62900001 4289848569
0.144666 0.264575 0.63099998 4289716985
0.147535 0.26668 0.63599998 4289782524
0.151135 0.27004299 0.64399999 4289650424
0.15501601 0.273826 0.653 4289584378
0.16086701 0.28096399 0.67000002 4289452792
0.233244 0.39841101 0.94999999 4289914617
0.24003901 0.40555599 0.96700001 4289980410
0.244167 0.408088 0.97299999 4289914617
0.247059 0.40852401 0.97399998 4289980155
0.249957 0.40896001 0.97500002 4289848569
0.25312001 0.40981701 0.977 4289848317
0.256033 0.410254 0.97799999 4289716217
0.25895199 0.41069201 0.97899997 4289452792
0.26187599 0.41113099 0.98000002 4288794610
0.26453701 0.41115099 0.98000002 4284977848
0.267744 0.41201001 0.98199999 4288137967
0.270412 0.41203099 0.98199999 4290831615
0.27335799 0.41247201 0.98299998 4280297802
0.27603 0.412494 0.98299998 4280954425
0.278418 0.41209701 0.98199999 4281216803
0.28080201 0.41170099 0.98100001 4280823071
0.28347099 0.41172501 0.98100001 4281020200
0.28701499 0.413008 0.98400003 4281283372
0.289693 0.41303399 0.98400003 4280690467
0.29148 0.4118 0.98100001 4281151018
0.29415199 0.411827 0.98100001 4281479981
0.29682401 0.411854 0.98100001 4280624672
0.29980299 0.41230199 0.98199999 4281019171
0.301864 0.41149101 0.98000002 4281282596
0.304225 0.4111 0.97899997 4280690204
0.306896 0.41113001 0.97899997 4281611306
0.309883 0.41158101 0.98000002 4281742892
0.31223899 0.41119301 0.97899997 4281084709
0.31459099 0.41080499 0.97799999 4280689951
0.31726301 0.41083801 0.97799999 4281479467
0.320263 0.41129199 0.97899997 4282203190
0.32260999 0.410907 0.97799999 4281611053
0.32495201 0.410523 0.977 4280821792
0.32695499 0.40971899 0.97500002 4281413929
0.32928601 0.40933499 0.97399998 4282401083
0.33161199 0.40895301 0.97299999 4281545774
0.33496499 0.40983301 0.97500002 4281216295
0.33729199 0.40945199 0.97399998 4281084709
0.339614 0.409073 0.97299999 4280624411
0.340877 0.40743199 0.96899998 4281611561
0.343537 0.40747499 0.96899998 4282072110
0.34584099 0.407098 0.96799999 4281743145
0.34922099 0.40798301 0.97000003 4280822043
0.351163 0.40718701 0.96799999 4281282594
0.35272899 0.40597099 0.96499997 4282861628
0.35501701 0.40559801 0.96399999 4282466870
0.35804299 0.406066 0.96499997 4280887583
0.36070201 0.40611601 0.96499997 4280755997
0.36261001 0.40532401 0.963 4281217064
0.36412901 0.40411201 0.95999998 4282137911
0.36639699 0.403743 0.95899999 4281940532
0.368662 0.40337601 0.958 4281611567
0.37169701 0.403851 0.95899999 4281611567
0.37395999 0.403485 0.958 4281874992
0.377004 0.403963 0.95899999 4281019683
0.37926501 0.40359899 0.958 4281809199
0.38192001 0.403658 0.958 4282203959
0.38377401 0.40287501 0.95599997 4283190599
0.386024 0.40251499 0.95499998 4282401083
0.38826999 0.402156 0.954 4281940532
0.390102 0.40137601 0.95200002 4281348395
0.39192599 0.40059701 0.94999999 4281085223
0.394155 0.40024099 0.949 4282268983
0.396382 0.39988601 0.94800001 4282072118
0.39860401 0.39953199 0.94700003 4282072120
0.40124801 0.399602 0.94700003 4281874739
0.40389299 0.399672 0.94700003 4282269497
0.405682 0.3989 0.94499999 4282466876
0.40832701 0.39897299 0.94499999 4282861889
0.410539 0.398626 0.94400001 4281809199
0.413185 0.398702 0.94400001 4281020199
0.41495299 0.397935 0.94199997 4281678130
0.416269 0.39674601 0.93900001 4282533439
0.41846299 0.39640301 0.93800002 4283191369
0.420205 0.395639 0.93599999 4282927682
0.42329299 0.39614499 0.93699998 4282532669
0.425026 0.395383 0.935 4281282343
0.428123 0.39589199 0.93599999 4280952861
0.43076801 0.39597899 0.93599999 4281084701
0.43341601 0.39606801 0.93599999 4281216285
0.43606699 0.39615899 0.93599999 4281479198
0.438721 0.39625099 0.93599999 4282926644
0.441378 0.39634499 0.93599999 4282729265
0.44356301 0.396016 0.935 4281544991
0.445746 0.39568999 0.93400002 4281544991
0.44840699 0.39578801 0.93400002 4282071849
0.45107001 0.39588901 0.93400002 4281084954
0.45373699 0.395991 0.93400002 4280229645
0.455919 0.39567101 0.93300003 4280821013
0.45908201 0.39620101 0.93400002 4281215771
0.46225399 0.39673299 0.935 4280755220
0.46493801 0.396842 0.935 4281281819
0.46862501 0.39780301 0.93699998 4281018134
0.471825 0.398341 0.93800002 4280689682
0.47503501 0.39888099 0.93900001 4280426510
0.477745 0.39899901 0.93900001 4280689682
0.480459 0.39911899 0.93900001 4281019161
0.48369199 0.39966601 0.94 4281742884
0.486417 0.39978999 0.94 4280558610
0.489667 0.400341 0.94099998 4280295438
0.492403 0.40046999 0.94099998 4280558610
0.49514401 0.40059999 0.94099998 4280426510
0.49894699 0.401584 0.94300002 4281611296
-0.199558 0.426855 1.025 4288122750
-0.196595 0.426431 1.024 4287991164
-0.193827 0.426424 1.024 4288451201
-0.190686 0.42558399 1.022 4288319615
-0.18774 0.42515999 1.021 4288121720
-0.18443701 0.42390499 1.018 4288187513
-0.181508 0.423482 1.017 4287925371
-0.17893501 0.42389199 1.018 4287859578
-0.176185 0.423886 1.018 4287925885
-0.173605 0.424297 1.0190001 4287663227
-0.17085201 0.424292 1.0190001 4287926399
-0.167769 0.42345399 1.017 4287795071
-0.164698 0.422616 1.015 4288058245
-0.16163699 0.42177901 1.013 4287531901
-0.15874401 0.42135799 1.012 4287795073
-0.155857 0.42093799 1.011 4287729278
-0.15327799 0.42135 1.012 4287729278
-0.14995 0.41968101 1.008 4287663740
-0.147228 0.41967699 1.008 4287794813
-0.144362 0.419258 1.007 4287992705
-0.142065 0.42050299 1.01 4288321670
-0.139062 0.41966701 1.008 4287993219
-0.13607 0.418832 1.006 4287203964
-0.13308799 0.41799599 1.0039999 4288387228
-0.13037799 0.41799399 1.0039999 4288585111
-0.12766699 0.41799101 1.0039999 4288584597
-0.124957 0.41798899 1.0039999 4288650128
-0.122246 0.41798699 1.0039999 4288716175
-0.119417 0.417568 1.003 4288979087
-0.11636 0.41631699 1 4288518536
-0.112637 0.41256899 0.991 4288650635
-0.108409 0.406739 0.977 4289439896
-0.104797 0.40299001 0.96799999 4288189829
-0.101128 0.398826 0.958 4288387210
-0.096279502 0.38966501 0.93599999 4289176726
-0.089446001 0.37176299 0.89300001 4288716950
-0.081285201 0.34720001 0.83399999 4288716175
-0.075527698 0.33179501 0.79699999 4287596920
-0.068773203 0.31097901 0.74699998 4288321157
-0.058892701 0.274344 0.65899998 4288124550
-0.0554673 0.26643401 0.63999999 4288059293
-0.053487901 0.26518399 0.63700002 4289515510
-0.052256301 0.267681 0.64300001 4282673554
-0.0505994 0.26809701 0.64399999 4279774541
-0.0477231 0.261852 0.62900001 4292408575
-0.045366898 0.25810501 0.62 4291753726
-0.0432707 0.25560701 0.61400002 4291293691
-0.0415457 0.25519001 0.61299998 4291031035
-0.039956398 0.255606 0.61400002 4290834172
-0.038361602 0.25602201 0.61500001 4291031037
-0.036821101 0.25685501 0.61699998 4291031037
-0.035041898 0.25602201 0.61500001 4290834172
-0.033436399 0.25643799 0.616 4290834172
-0.031773798 0.25643799 0.616 4290834172
-0.0301602 0.256854 0.61699998 4290834172
-0.0284026 0.25602099 0.61500001 4290768379
-0.026655801 0.25518799 0.61299998 4290834172
-0.025001399 0.25518799 0.61299998 4290768379
-0.0234232 0.25602099 0.61500001 4290702586
-0.0216926 0.25518799 0.61299998 4290899451
-0.020070899 0.255604 0.61400002 4290965244
-0.018383799 0.25518799 0.61299998 4290965244
-0.0167567 0.255604 0.61400002 4290965244
-0.015075 0.25518799 0.61299998 4290965244
-0.0134425 0.255604 0.61400002 4290834172
-0.0117854 0.255604 0.61400002 4290834172
-0.0101448 0.25602001 0.61500001 4290834172
-0.0084712096 0.255604 0.61400002 4290702586
-0.0068030199 0.25518799 0.61299998 4290703356
-0.0051486199 0.25518799 0.61299998 4290834172
